# .PCD v.7 - Point Cloud Data file format
VERSION .7
FIELDS x y z
SIZE 4 4 4
TYPE F F F
COUNT 1 1 1
WIDTH 1629
HEIGHT 1
VIEWPOINT 0 0 0 1 0 0 0
POINTS 1629
DATA ascii
579761.47	4180417.11	296.71
579762.03	4180417.22	296.23
579762.9202	4180417.09	296.19
579763.4299	4180417.12	296.48
579764.3498	4180417.08	296.09
579764.8699	4180416.86	295.88
579765.7898	4180416.98	295.84
579766.1999	4180416.83	297.97
579767.1101	4180416.84	298.18
579767.4099	4180417.3	302.39
579768.3699	4180417.17	302.04
579768.8498	4180417.11	303.01
579771.26	4180417.16	303.38
579771.7102	4180416.83	305.07
579772.1999	4180417.26	297.3
579773.1199	4180417.25	297.47
579774.1501	4180417.06	305.52
579742.97	4180417.76	300.13
579743.6902	4180417.66	300.38
579744.9001	4180417.55	299.55
579745.4802	4180417.45	297.26
579746.2698	4180417.53	297
579746.6799	4180417.5	296.97
579747.5002	4180417.86	296.99
579747.9202	4180417.54	296.85
579748.6501	4180417.55	296.92
579749.0998	4180417.67	296.85
579749.8098	4180417.87	297.1
579750.22	4180417.4	296.84
579751.47	4180417.86	296.68
579752.7302	4180417.62	296.58
579753.5198	4180417.63	296.83
579754.0002	4180417.77	296.78
579754.78	4180417.35	296.81
579755.2698	4180417.87	296.65
579756.0598	4180417.4	296.64
579756.55	4180417.76	296.95
579757.3401	4180417.33	296.92
579757.8401	4180417.4	296.9
579758.6702	4180417.39	297.28
579759.1702	4180417.78	297.65
579760.0798	4180417.82	297.03
579760.5798	4180417.44	297.13
579761.4802	4180417.74	297.2
579762.0398	4180417.84	296.64
579762.9602	4180417.67	296.06
579763.49	4180417.68	296.08
579764.3899	4180417.65	296
579764.8899	4180417.46	296.12
579765.8098	4180417.59	296.14
579766.26	4180417.36	297.46
579766.3699	4180417.82	296.14
579767.1501	4180417.41	298.04
579767.6799	4180417.47	298.08
579768.4202	4180417.71	301.6
579768.8899	4180417.67	302.73
579769.3498	4180417.52	294.93
579769.7302	4180417.72	304.22
579770.2698	4180417.42	294.73
579771.3201	4180417.69	302.86
579771.7698	4180417.37	304.64
579771.8401	4180417.42	293.84
579772.26	4180417.79	296.76
579773.3801	4180417.67	302.98
579774.24	4180417.53	304.39
579743.01	4180418.33	299.97
579743.7502	4180418.19	299.91
579744.1399	4180417.91	300.31
579744.9402	4180418.15	299.66
579745.53	4180418.02	297.15
579746.3201	4180418.1	296.88
579746.6999	4180418.12	297.31
579747.9499	4180418.14	296.96
579748.6902	4180418.11	296.82
579749.1199	4180418.27	297.07
579749.8498	4180418.43	297.04
579750.26	4180417.97	296.82
579751.0002	4180417.91	296.79
579752.24	4180417.89	296.83
579752.76	4180418.22	296.76
579753.5598	4180418.23	296.85
579754.03	4180418.35	296.78
579754.8298	4180417.92	296.53
579756.0798	4180418.02	296.99
579756.5901	4180418.35	296.92
579757.3699	4180417.92	296.96
579757.8699	4180418	297.06
579758.6399	4180418.09	298.56
579760.6101	4180418.02	297.11
579761.5002	4180418.35	297.45
579762.9802	4180418.29	296.47
579763.51	4180418.27	296.3
579764.3899	4180418.29	296.61
579764.9202	4180418.05	296.17
579765.8498	4180418.16	295.97
579766.3801	4180418.43	296.48
579767.1799	4180418.01	298.07
579767.74	4180418	297.49
579768.4802	4180418.24	301.1
579768.8298	4180418.3	295.38
579769.3498	4180418.15	295.5
579770.2698	4180418.06	295.26
579770.3298	4180417.98	304.05
579770.8899	4180418.3	295.01
579771.74	4180418.22	296.27
579774.1599	4180418.32	306.6
579742.6101	4180418.45	300.15
579743.0398	4180418.94	300.27
579743.7898	4180418.77	300.03
579744.1702	4180418.5	300.38
579744.9802	4180418.72	299.54
579745.5598	4180418.6	297.17
579746.3298	4180418.73	297.35
579746.74	4180418.7	297.3
579747.53	4180418.44	296.97
579747.99	4180418.72	296.92
579748.6599	4180418.81	298.12
579749.0998	4180418.96	298.15
579749.9001	4180418.99	296.76
579750.2898	4180418.56	296.91
579751.03	4180418.49	296.74
579751.49	4180418.47	296.91
579752.28	4180418.48	296.82
579752.8	4180418.8	296.64
579753.5998	4180418.8	296.8
579754.0701	4180418.93	296.75
579754.8601	4180418.51	296.75
579755.3098	4180418.47	296.76
579756.1101	4180418.61	297.1
579756.5998	4180418.98	297.36
579757.3899	4180418.53	297.22
579757.8899	4180418.61	297.38
579758.6501	4180418.72	298.89
579759.1399	4180418.49	299.03
579760.0998	4180418.44	297.31
579760.6599	4180418.59	296.99
579761.5398	4180418.92	297.36
579762.0701	4180418.44	296.89
579763.0002	4180418.89	296.61
579763.5398	4180418.87	296.41
579764.4299	4180418.88	296.56
579764.9602	4180418.63	296.17
579765.8801	4180418.75	296.07
579766.4602	4180418.94	295.72
579767.22	4180418.58	298.06
579767.3699	4180418.95	295.81
579767.8098	4180418.54	296.97
579767.9202	4180418.98	295.46
579768.8498	4180418.89	295.53
579769.3699	4180418.76	295.76
579770.3	4180418.64	295.35
579770.3699	4180418.56	304.09
579770.9001	4180418.93	295.53
579772.0998	4180418.71	300.37
579772.7302	4180418.57	305.23
579773.24	4180418.55	306.18
579774.1902	4180418.89	306.64
579742.6199	4180419.07	300.54
579743.0701	4180419.53	300.43
579743.8201	4180419.37	300.16
579744.24	4180419.04	299.83
579745.0002	4180419.32	299.79
579745.5998	4180419.2	297.33
579746.3498	4180419.34	297.68
579746.8	4180419.25	296.99
579747.5701	4180419.02	296.93
579748.0002	4180419.35	297.43
579748.6702	4180419.44	298.69
579750.3401	4180419.12	296.68
579751.0701	4180419.08	296.73
579751.53	4180419.05	296.87
579752.3201	4180419.05	296.7
579752.8298	4180419.39	296.92
579753.6301	4180419.38	296.9
579754.8699	4180419.12	297.12
579755.3298	4180419.07	296.94
579756.1301	4180419.21	297.28
579757.3498	4180419.25	298.78
579757.8498	4180419.34	298.86
579758.6501	4180419.37	299.59
579759.1301	4180419.16	299.94
579759.99	4180419.28	300.12
579760.6799	4180419.19	297.14
579761.5901	4180419.48	297.05
579762.0998	4180419.03	296.92
579763.0398	4180419.46	296.55
579763.5701	4180419.47	296.6
579764.47	4180419.45	296.4
579764.99	4180419.24	296.32
579765.9099	4180419.33	296.1
579766.5002	4180419.53	295.68
579767.4001	4180419.54	295.79
579768.8601	4180419.52	296.05
579769.4001	4180419.36	295.92
579771.5398	4180419.21	300.62
579772.1399	4180419.28	300.25
579772.7698	4180419.15	305.2
579773.26	4180419.15	306.43
579774.1999	4180419.51	306.98
579742.6902	4180419.6	299.97
579743.1301	4180420.07	299.97
579743.8498	4180419.96	300.22
579744.2698	4180419.64	300.01
579745.05	4180419.9	299.71
579745.6399	4180419.79	297.3
579746.3899	4180419.91	297.62
579746.8298	4180419.85	297.09
579747.6101	4180419.6	296.95
579748.03	4180419.94	297.58
579748.7502	4180419.97	297.97
579749.1301	4180419.58	298.47
579749.24	4180420.01	296.93
579749.9202	4180419.62	297.11
579750.3699	4180419.72	296.82
579751.0901	4180419.68	297.06
579751.5701	4180419.64	296.86
579752.3601	4180419.65	296.81
579752.8699	4180419.97	296.84
579753.6501	4180419.98	297.09
579754.0901	4180419.56	297.2
579754.9099	4180419.7	297.02
579755.3699	4180419.67	297.01
579756.1702	4180419.78	297.18
579756.6301	4180419.57	297.49
579757.3699	4180419.85	299.03
579757.8401	4180419.99	299.69
579758.6702	4180419.98	299.98
579759.1599	4180419.75	300.04
579760.0198	4180419.87	300.17
579760.5998	4180419.98	299.45
579761.6199	4180420.07	297.07
579762.1301	4180419.62	296.95
579763.0598	4180420.07	296.82
579763.5901	4180420.08	296.89
579764.5002	4180420.04	296.51
579765.03	4180419.81	296.2
579765.9202	4180419.96	296.54
579766.5398	4180420.1	295.59
579767.4402	4180420.1	295.7
579767.9402	4180419.6	295.87
579768.9099	4180420.07	295.73
579769.4499	4180419.92	295.62
579769.8498	4180420.06	304.38
579771.4099	4180420.07	303.62
579772.1501	4180419.91	300.82
579772.8298	4180419.67	304.59
579773.0798	4180419.88	300.61
579773.2302	4180419.82	307.49
579773.47	4180420.07	303.82
579774.2898	4180420.01	306.01
579742.6999	4180420.22	300.43
579743.1599	4180420.67	300.16
579743.8801	4180420.56	300.35
579744.3201	4180420.21	299.93
579745.0701	4180420.51	299.89
579745.6702	4180420.38	297.31
579746.4402	4180420.48	297.42
579746.8801	4180420.41	296.88
579747.6399	4180420.2	297.07
579748.0998	4180420.49	297.12
579748.8401	4180420.45	296.86
579749.28	4180420.61	297.05
579749.9602	4180420.2	297.11
579750.4001	4180420.31	296.99
579751.1399	4180420.26	296.83
579751.6101	4180420.23	296.93
579752.3801	4180420.26	297.03
579752.8899	4180420.58	297.06
579753.6902	4180420.56	297.01
579754.1399	4180420.12	296.97
579754.9402	4180420.3	297.19
579755.4001	4180420.25	297.08
579756.1199	4180420.51	298.82
579756.5998	4180420.28	298.83
579757.3801	4180420.49	299.62
579757.8601	4180420.6	300.03
579758.6999	4180420.56	300.02
579759.1999	4180420.33	299.97
579760.0901	4180420.4	299.53
579760.6399	4180420.55	299.32
579761.6501	4180420.66	297.19
579762.1599	4180420.22	297.13
579763.0901	4180420.67	296.96
579764.5198	4180420.64	296.81
579765.03	4180420.44	296.77
579765.97	4180420.52	296.25
579767.9802	4180420.17	295.76
579768.9299	4180420.67	295.92
579769.49	4180420.49	295.46
579769.9202	4180420.57	303.63
579770.4802	4180420.29	303.97
579773.1501	4180420.41	299.97
579774.4202	4180420.41	304.17
579742.74	4180420.8	300.39
579742.9402	4180421.11	297.45
579743.3498	4180421	297.4
579744.0701	4180420.89	297.58
579744.3498	4180420.79	299.93
579744.5398	4180421.14	297.27
579745.24	4180420.87	297.46
579745.7102	4180420.96	297.35
579746.49	4180421.04	297.13
579746.9001	4180421.02	297.25
579747.6799	4180420.78	297.11
579748.1199	4180421.09	297.38
579748.8601	4180421.06	297.17
579749.3098	4180421.19	297.14
579750.0002	4180420.77	297.01
579750.4402	4180420.89	296.95
579751.1702	4180420.86	296.99
579751.6501	4180420.79	296.78
579752.4202	4180420.83	296.94
579752.9402	4180421.15	296.99
579753.72	4180421.17	297.28
579754.1702	4180420.72	297.04
579754.97	4180420.89	297.31
579755.3601	4180420.97	298.58
579756.1399	4180421.13	299.23
579756.5998	4180420.93	299.51
579757.4001	4180421.1	299.87
579757.9001	4180421.19	300.06
579758.7502	4180421.11	299.79
579759.24	4180420.9	299.92
579760.1599	4180420.91	298.81
579760.6902	4180421.12	299.09
579762.1999	4180420.81	297.1
579763.6101	4180420.69	297.16
579764.5598	4180421.23	296.76
579765.0798	4180421.01	296.56
579766.0002	4180421.11	296.39
579766.5398	4180420.75	296.26
579767.4802	4180420.68	295.61
579767.99	4180420.79	296.15
579769.51	4180421.11	295.89
579770.51	4180420.88	304.01
579771.3098	4180420.87	305.99
579771.9499	4180420.89	305.15
579773.4802	4180420.68	304.17
579773.5998	4180421.13	302.64
579774.5198	4180420.87	302.8
579742.9802	4180421.69	297.4
579743.3801	4180421.6	297.51
579744.1199	4180421.45	297.38
579744.5598	4180421.74	297.5
579745.2698	4180421.47	297.65
579745.74	4180421.55	297.54
579746.53	4180421.62	297.12
579746.9402	4180421.62	297.31
579747.7102	4180421.36	297.11
579748.1799	4180421.65	297.03
579748.9099	4180421.62	297
579749.3401	4180421.79	297.25
579750.0398	4180421.35	297
579750.4802	4180421.48	296.93
579751.2102	4180421.43	296.94
579751.6799	4180421.4	297.01
579752.4499	4180421.41	297.05
579752.97	4180421.75	297.08
579753.7502	4180421.76	297.35
579754.1999	4180421.29	297.12
579754.9299	4180421.6	298.75
579755.3699	4180421.6	299.03
579756.1501	4180421.75	299.68
579756.6101	4180421.55	299.99
579757.4202	4180421.71	300.19
579757.9499	4180421.75	299.75
579758.8	4180421.67	299.46
579759.3098	4180421.43	299.29
579760.1999	4180421.48	298.66
579760.8098	4180421.56	297.57
579761.6101	4180421.37	298.62
579762.1999	4180421.45	297.72
579763.1101	4180421.26	297.15
579763.6501	4180421.26	297.06
579765.0998	4180421.61	296.84
579766.0002	4180421.76	296.98
579766.55	4180421.36	296.58
579767.5002	4180421.3	295.83
579768.05	4180421.35	295.8
579768.97	4180421.25	295.73
579769.8801	4180421.27	304.99
579770.4299	4180421.64	306.15
579771.3098	4180421.51	306.65
579771.97	4180421.48	305.33
579773.03	4180421.25	302.88
579773.0901	4180421.78	302.28
579773.7898	4180421.45	299.76
579774.6101	4180421.36	301.84
579743.0198	4180422.28	297.45
579743.4299	4180422.16	297.29
579744.1501	4180422.05	297.59
579744.6101	4180422.31	297.35
579745.3098	4180422.07	297.63
579745.7898	4180422.12	297.31
579746.55	4180422.24	297.45
579746.9802	4180422.18	297.12
579747.7502	4180421.95	297.14
579748.2102	4180422.24	297.09
579748.9299	4180422.24	297.27
579749.3899	4180422.35	297.05
579750.0701	4180421.93	297.02
579750.5198	4180422.07	296.99
579751.2502	4180422.01	296.93
579751.7102	4180421.99	297.11
579752.49	4180421.99	297.01
579753.0002	4180422.34	297.24
579754.1599	4180422.01	298.58
579754.9299	4180422.24	299.49
579755.3699	4180422.25	299.85
579756.1702	4180422.35	299.88
579756.6399	4180422.15	300.17
579757.4602	4180422.27	299.95
579758.0002	4180422.3	299.5
579758.8699	4180422.2	298.73
579759.3699	4180421.97	298.8
579760.3298	4180421.92	297.03
579760.76	4180422.28	299.14
579761.6399	4180421.95	298.67
579762.1399	4180422.18	299.54
579763.1399	4180421.86	297.3
579763.6702	4180421.86	297.3
579764.5701	4180421.85	297.08
579765.1301	4180422.2	296.96
579766.03	4180422.35	297.13
579766.5901	4180421.93	296.46
579767.5198	4180421.91	296.23
579768.0701	4180421.95	296.02
579769.0002	4180421.85	295.89
579769.1799	4180422.29	302.6
579769.5798	4180422.29	295.87
579769.9099	4180421.86	305.09
579770.01	4180422.32	303.82
579770.4001	4180422.32	307.27
579771.2898	4180422.16	307.64
579771.9001	4180422.23	307.23
579773.8601	4180421.96	299.07
579743.05	4180422.86	297.51
579743.4499	4180422.77	297.61
579744.1999	4180422.61	297.35
579744.6501	4180422.89	297.32
579745.3498	4180422.63	297.53
579745.8298	4180422.72	297.4
579746.6101	4180422.78	297.09
579747.0198	4180422.78	297.26
579747.7898	4180422.53	297.13
579748.2502	4180422.83	297.22
579748.97	4180422.82	297.34
579750.1101	4180422.52	297.1
579750.55	4180422.66	297.12
579751.2698	4180422.61	297.16
579751.7502	4180422.58	297.16
579752.5198	4180422.6	297.25
579753.7102	4180422.45	298.69
579754.1799	4180422.62	298.89
579754.9402	4180422.88	299.96
579755.4001	4180422.84	299.97
579756.6902	4180422.7	299.83
579757.53	4180422.8	299.42
579758.0798	4180422.82	298.73
579758.99	4180422.64	297.23
579759.49	4180422.41	297.19
579760.2698	4180422.64	298.71
579760.7698	4180422.9	299.62
579761.6301	4180422.61	299.54
579762.1501	4180422.81	300.01
579763.1799	4180422.43	297.17
579763.72	4180422.43	297.09
579764.6101	4180422.41	297.09
579765.1501	4180422.8	297.2
579766.6199	4180422.54	296.6
579767.5598	4180422.48	296.14
579768.0901	4180422.55	296.22
579769.0398	4180422.4	295.7
579769.5998	4180422.89	296.06
579771.3498	4180422.69	307.02
579771.9099	4180422.85	307.73
579772.8401	4180422.81	307.48
579773.9001	4180422.53	298.96
579743.0901	4180423.45	297.59
579743.5002	4180423.35	297.45
579744.1999	4180423.26	297.96
579744.6999	4180423.47	297.22
579745.4099	4180423.2	297.22
579745.8699	4180423.28	297.29
579746.6301	4180423.4	297.4
579747.05	4180423.37	297.28
579747.8201	4180423.11	297.2
579748.2898	4180423.4	297.14
579749.01	4180423.4	297.29
579749.4099	4180422.97	297.38
579750.1301	4180423.13	297.36
579750.5798	4180423.25	297.19
579751.3098	4180423.17	297.07
579751.7698	4180423.18	297.35
579752.49	4180423.29	298.43
579752.9602	4180423.05	298.63
579753.7102	4180423.1	299.35
579754.1799	4180423.28	299.74
579754.97	4180423.46	300.11
579755.4299	4180423.42	300.1
579756.2102	4180422.94	299.93
579756.74	4180423.26	299.63
579757.5998	4180423.33	298.77
579758.1599	4180423.33	297.91
579758.9802	4180423.29	298.07
579759.47	4180423.1	298.27
579760.2898	4180423.26	299.12
579761.6399	4180423.24	300.07
579762.1902	4180423.39	299.99
579763.0701	4180423.25	299.88
579763.7502	4180423.02	297.2
579764.6301	4180423.01	297.25
579765.2102	4180423.35	296.83
579766.0598	4180422.93	297.09
579766.6501	4180423.12	296.67
579767.5798	4180423.08	296.28
579768.1301	4180423.13	296.26
579769.0701	4180423	295.8
579769.6501	4180423.45	295.88
579769.99	4180423	304.87
579770.53	4180423.38	296.14
579770.5901	4180423.27	304.98
579771.3498	4180423.34	307.68
579771.9602	4180423.4	307.42
579772.8801	4180423.38	307.37
579774.1599	4180423.38	295.39
579743.5398	4180423.94	297.52
579744.2698	4180423.79	297.47
579745.4499	4180423.78	297.26
579745.9099	4180423.86	297.29
579746.6702	4180423.96	297.26
579747.0798	4180423.96	297.44
579747.8601	4180423.7	297.19
579748.3201	4180423.99	297.16
579749.0598	4180423.98	297.08
579749.4402	4180423.56	297.49
579750.1501	4180423.73	297.6
579750.6199	4180423.83	297.19
579751.3298	4180423.78	297.42
579751.7898	4180423.8	297.81
579752.5198	4180423.89	298.63
579752.9802	4180423.66	298.9
579753.72	4180423.73	299.89
579754.1999	4180423.88	299.91
579755.47	4180423.99	299.89
579756.26	4180423.48	299.68
579756.8201	4180423.77	298.79
579757.72	4180423.79	297.24
579758.2302	4180423.87	297.3
579758.9802	4180423.94	298.77
579759.47	4180423.73	298.92
579760.2898	4180423.9	299.63
579760.78	4180423.54	300.18
579761.6599	4180423.82	300.22
579762.24	4180423.96	299.8
579763.1501	4180423.77	299.04
579763.6999	4180423.74	298.72
579764.6501	4180423.61	297.54
579765.22	4180423.97	297.19
579766.0798	4180423.54	297.45
579766.6799	4180423.72	296.9
579767.5998	4180423.68	296.5
579768.1599	4180423.71	296.28
579769.0901	4180423.61	296.12
579770.0398	4180423.55	304.59
579770.5398	4180423.99	296.45
579770.6702	4180423.78	304.23
579771.3899	4180423.91	307.61
579772.05	4180423.88	306.33
579773.1501	4180423.58	303.01
579773.5901	4180423.51	295.55
579773.6301	4180423.6	304.57
579743.1199	4180424.04	297.7
579743.5798	4180424.51	297.46
579744.3	4180424.37	297.48
579744.7102	4180424.08	297.64
579745.4802	4180424.37	297.32
579745.9402	4180424.45	297.43
579746.6999	4180424.56	297.46
579747.1301	4180424.54	297.33
579747.8899	4180424.29	297.24
579748.3498	4180424.59	297.38
579749.0901	4180424.55	297.06
579749.5002	4180424.11	297.07
579750.2102	4180424.3	297.34
579750.6599	4180424.4	297.12
579751.3801	4180424.34	297.2
579751.8098	4180424.41	298.14
579752.5198	4180424.52	299.14
579753.0198	4180424.24	298.92
579753.76	4180424.3	299.91
579754.24	4180424.48	300.05
579755.01	4180424.04	300.05
579755.0701	4180424.58	299.5
579755.5398	4180424.53	299.38
579756.3	4180424.05	299.54
579756.3801	4180424.57	298.7
579756.8801	4180424.32	298.4
579757.6702	4180424.5	298.69
579758.1902	4180424.57	298.74
579758.97	4180424.59	299.65
579759.47	4180424.37	299.65
579760.3098	4180424.51	300.01
579760.8	4180424.15	300.36
579761.7302	4180424.36	299.66
579762.2898	4180424.51	299.38
579763.2102	4180424.31	298.55
579763.7698	4180424.27	298.07
579764.6702	4180424.22	297.77
579765.2502	4180424.56	297.3
579766.1399	4180424.08	297.01
579766.72	4180424.29	296.76
579767.6399	4180424.27	296.52
579768.1702	4180424.33	296.68
579769.1199	4180424.19	296.08
579769.6702	4180424.05	296.11
579770.5998	4180424.54	296.03
579770.6799	4180424.4	304.64
579771.5598	4180424.25	305.02
579772.1101	4180424.41	305.8
579772.6999	4180424.11	295.7
579774.2302	4180424.56	295.39
579743.1702	4180424.61	297.48
579743.6101	4180425.1	297.57
579744.3401	4180424.96	297.5
579744.7698	4180424.65	297.33
579745.5198	4180424.96	297.26
579745.9802	4180425.03	297.36
579746.76	4180425.12	297.12
579747.1702	4180425.12	297.29
579747.9202	4180424.9	297.54
579749.1199	4180425.15	297.31
579749.5398	4180424.7	297.09
579750.2502	4180424.87	297.26
579750.6799	4180425.02	297.42
579751.4202	4180424.93	297.11
579751.8498	4180425	298.12
579752.5798	4180425.06	298.8
579753.0701	4180424.8	298.69
579753.7898	4180424.9	300.02
579754.28	4180425.05	299.93
579755.1101	4180425.15	299.45
579755.6101	4180425.05	298.74
579756.49	4180425.03	297.36
579756.9802	4180424.79	297.16
579757.6902	4180425.11	299.13
579759.4802	4180424.99	300.05
579760.3401	4180425.09	300.04
579760.8298	4180424.73	300.45
579761.7898	4180424.9	299.1
579762.3601	4180425.04	298.85
579763.3298	4180424.76	296.99
579763.8498	4180424.78	297.29
579764.6301	4180424.94	299.24
579765.28	4180425.15	297.47
579766.1702	4180424.68	297.04
579766.7502	4180424.87	296.77
579767.6599	4180424.86	296.77
579768.2102	4180424.92	296.68
579769.1501	4180424.79	296.21
579769.7102	4180424.61	295.88
579770.6199	4180425.14	296.29
579770.6902	4180425.02	305.08
579771.2302	4180424.8	295.71
579771.6101	4180424.8	304.65
579773.1799	4180424.78	303.64
579773.7698	4180424.64	303.23
579774.3801	4180424.89	309.02
579743.1902	4180425.22	297.75
579743.6599	4180425.67	297.41
579744.3699	4180425.56	297.65
579744.8098	4180425.23	297.31
579745.55	4180425.55	297.49
579746.0198	4180425.62	297.38
579746.78	4180425.71	297.28
579747.2102	4180425.7	297.26
579747.9602	4180425.46	297.32
579748.3899	4180425.18	297.32
579749.5798	4180425.29	297.13
579750.2898	4180425.44	297.12
579750.7302	4180425.58	297.27
579751.4402	4180425.55	297.47
579751.9099	4180425.54	297.6
579752.6902	4180425.52	297.33
579753.1101	4180425.38	298.63
579753.8899	4180425.37	298.8
579754.3601	4180425.55	299.05
579755.1902	4180425.66	298.59
579755.72	4180425.52	297.37
579756.9299	4180425.52	298.85
579758.1799	4180425.23	299.65
579758.9802	4180425.2	299.96
579759.5198	4180425.57	300.09
579760.3899	4180425.64	299.72
579760.8899	4180425.28	300.17
579761.8298	4180425.48	299.14
579762.47	4180425.49	297.36
579763.2698	4180425.49	298.73
579763.8098	4180425.48	298.74
579764.6399	4180425.54	299.56
579766.1999	4180425.27	297.15
579766.78	4180425.48	297.01
579767.6702	4180425.48	297.08
579768.2302	4180425.52	296.88
579769.1799	4180425.38	296.35
579769.7302	4180425.23	296.3
579770.6599	4180425.71	296.15
579771.26	4180425.39	295.87
579771.6702	4180425.32	304.12
579772.3	4180425.37	303.61
579773.2698	4180425.27	302.59
579773.4099	4180425.69	300.68
579774.47	4180425.36	307.86
579743.24	4180425.79	297.6
579743.6999	4180426.24	297.35
579744.4202	4180426.12	297.49
579744.8401	4180425.81	297.42
579745.5798	4180426.14	297.53
579746.0598	4180426.2	297.3
579748.01	4180426.03	297.25
579748.4299	4180425.75	297.32
579749.1599	4180425.72	297.14
579749.6101	4180425.88	297.34
579750.3201	4180426.03	297.25
579750.7698	4180426.16	297.27
579751.4802	4180426.12	297.45
579751.9602	4180426.09	297.31
579752.7302	4180426.1	297.26
579753.1501	4180425.96	298.53
579753.9299	4180425.94	298.62
579754.4202	4180426.1	298.63
579755.2698	4180426.18	297.8
579755.7102	4180426.17	298.19
579756.4499	4180425.74	298.81
579756.9402	4180426.15	299.38
579757.6999	4180425.73	299.61
579758.1902	4180425.85	300.08
579759.01	4180425.8	300.07
579759.5701	4180426.12	299.73
579760.47	4180426.15	299.01
579760.97	4180425.8	299.32
579761.9499	4180425.92	297.43
579762.4602	4180426.16	298.34
579763.28	4180426.1	299.21
579763.8201	4180426.11	299.19
579764.6501	4180426.17	300.11
579765.1902	4180425.94	299.87
579766.2302	4180425.85	297.26
579766.8098	4180426.07	297.06
579767.6999	4180426.07	297.14
579768.26	4180426.12	297.01
579769.2102	4180425.97	296.44
579769.76	4180425.82	296.34
579771.2898	4180425.98	295.89
579771.8098	4180425.73	302.16
579772.3401	4180425.94	303.49
579773.6399	4180426.12	306.87
579774.49	4180425.97	308.17
579743.2898	4180426.36	297.41
579743.74	4180426.83	297.48
579744.4602	4180426.69	297.31
579744.8699	4180426.4	297.59
579745.6301	4180426.72	297.4
579746.0901	4180426.8	297.51
579746.8201	4180426.29	297.29
579747.2502	4180426.28	297.29
579748.05	4180426.62	297.2
579748.47	4180426.35	297.37
579749.1999	4180426.31	297.22
579749.6501	4180426.45	297.28
579750.3601	4180426.61	297.25
579750.8	4180426.75	297.31
579751.53	4180426.7	297.17
579752.01	4180426.66	297.12
579752.76	4180426.69	297.41
579753.26	4180426.44	297.29
579753.97	4180426.53	298.74
579754.5198	4180426.58	297.49
579755.26	4180426.82	298.62
579756.47	4180426.35	299.13
579756.9499	4180426.77	299.81
579757.7102	4180426.35	300.04
579758.2302	4180426.43	300.07
579759.0598	4180426.37	299.96
579759.6301	4180426.68	299.35
579760.51	4180426.73	298.89
579761.0198	4180426.34	298.97
579761.1501	4180426.78	297.2
579761.9202	4180426.6	298.6
579762.47	4180426.77	298.73
579763.2898	4180426.72	299.63
579763.8201	4180426.74	299.84
579764.6902	4180426.75	300.01
579765.2102	4180426.55	300.16
579766.1702	4180426.57	298.84
579766.8401	4180426.67	297.12
579767.74	4180426.64	297.18
579768.2898	4180426.71	297.1
579769.2302	4180426.58	296.58
579769.78	4180426.42	296.52
579770.6902	4180426.29	296.17
579771.3201	4180426.57	296.01
579771.8601	4180426.28	301.87
579772.3899	4180426.5	303.25
579773.2898	4180426.49	303.35
579773.6902	4180426.66	306.49
579774.5002	4180426.57	308.48
579742.6101	4180426.94	297.36
579743.3298	4180426.94	297.43
579744.49	4180427.29	297.52
579744.9099	4180426.99	297.6
579745.6702	4180427.3	297.42
579746.1399	4180427.36	297.33
579746.8601	4180426.89	297.34
579747.28	4180426.86	297.38
579748.0901	4180427.19	297.17
579748.51	4180426.93	297.3
579749.2302	4180426.89	297.33
579749.6902	4180427.03	297.18
579750.4001	4180427.18	297.09
579750.8401	4180427.33	297.26
579751.5598	4180427.29	297.29
579752.05	4180427.24	297.09
579752.8	4180427.27	297.39
579753.3	4180427.03	297.31
579754.0798	4180426.99	297.25
579754.5198	4180427.23	298.26
579755.6902	4180426.85	299.35
579756.47	4180426.98	299.72
579756.97	4180427.38	300.1
579757.7502	4180426.92	299.89
579758.2698	4180426.99	299.93
579759.1199	4180426.91	299.51
579759.6999	4180427.21	298.7
579760.6399	4180427.15	297.08
579761.9499	4180427.19	298.73
579763.3098	4180427.33	299.98
579763.8601	4180427.31	299.82
579764.72	4180427.33	300.03
579765.24	4180427.13	300.2
579766.2102	4180427.14	298.74
579766.8699	4180427.26	297.3
579767.7698	4180427.23	297.21
579768.3401	4180427.27	296.9
579769.2698	4180427.14	296.53
579769.8201	4180427	296.47
579770.7302	4180426.88	296.05
579771.3498	4180427.16	296.14
579771.8498	4180426.95	302.78
579772.47	4180427.01	302.3
579773.3801	4180427	302.42
579773.7898	4180427.15	305.39
579742.6301	4180427.55	297.68
579743.3601	4180427.52	297.52
579743.7698	4180427.43	297.61
579744.53	4180427.87	297.49
579744.9402	4180427.58	297.71
579745.72	4180427.87	297.18
579746.1799	4180427.94	297.36
579746.8899	4180427.47	297.33
579747.3098	4180427.46	297.45
579748.1199	4180427.77	297.28
579748.5398	4180427.52	297.5
579749.2698	4180427.47	297.29
579749.72	4180427.64	297.36
579750.4299	4180427.77	297.22
579750.8899	4180427.88	297.06
579751.5998	4180427.85	297.14
579752.0901	4180427.82	297.15
579752.8401	4180427.84	297.31
579753.3201	4180427.62	297.47
579754.1199	4180427.56	297.25
579754.5901	4180427.76	297.56
579755.2898	4180427.43	298.85
579755.7102	4180427.45	299.56
579756.49	4180427.59	300.09
579757.7898	4180427.51	299.94
579758.3298	4180427.54	299.43
579759.1902	4180427.43	298.75
579759.28	4180427.92	297.66
579759.8	4180427.68	297.54
579760.5701	4180427.89	299.02
579761.1101	4180427.49	298.76
579761.9299	4180427.86	299.79
579762.4602	4180427.42	299.53
579763.3498	4180427.9	299.89
579763.8899	4180427.91	299.94
579764.7698	4180427.87	299.71
579765.3	4180427.67	299.67
579766.28	4180427.67	298.08
579766.9099	4180427.82	297.15
579767.8	4180427.84	297.34
579768.3601	4180427.88	297.13
579769.3	4180427.72	296.47
579769.8498	4180427.6	296.69
579770.7698	4180427.46	296.06
579771.3899	4180427.73	296.02
579771.8801	4180427.52	302.68
579772.2898	4180427.52	295.77
579772.49	4180427.61	302.58
579772.9099	4180427.6	295.52
579773.4001	4180427.59	302.51
579773.76	4180427.67	296.63
579773.99	4180427.47	302.32
579742.6799	4180428.14	297.58
579743.4001	4180428.1	297.47
579743.8098	4180428.02	297.6
579744.5598	4180428.47	297.6
579745.01	4180428.12	297.22
579745.7502	4180428.45	297.17
579746.9299	4180428.04	297.35
579747.3601	4180428.03	297.31
579748.1399	4180428.37	297.44
579748.5701	4180428.11	297.64
579749.3	4180428.07	297.42
579749.76	4180428.2	297.23
579750.47	4180428.36	297.28
579750.9202	4180428.5	297.31
579751.6301	4180428.44	297.26
579752.1199	4180428.42	297.29
579752.8899	4180428.41	297.11
579753.3699	4180428.18	297.27
579754.1599	4180428.14	297.19
579754.5701	4180428.44	298.74
579755.3298	4180427.99	298.69
579755.8	4180427.96	298.72
579756.5398	4180428.13	299.68
579757.01	4180427.95	300.05
579757.0798	4180428.48	299.51
579757.8498	4180428.06	299.42
579758.4001	4180428.07	298.84
579759.3201	4180428.5	297.62
579759.8298	4180428.27	297.67
579761.1199	4180428.11	299.19
579761.9402	4180428.46	300.21
579762.4802	4180428.03	299.9
579763.3899	4180428.47	299.66
579763.9499	4180428.45	299.54
579764.8699	4180428.37	298.63
579765.3899	4180428.17	298.76
579766.3699	4180428.17	297.11
579766.9402	4180428.41	297.21
579767.8601	4180428.37	296.81
579768.4001	4180428.45	296.97
579769.3201	4180428.33	296.86
579769.8899	4180428.17	296.55
579770.76	4180428.09	296.81
579771.4202	4180428.32	296.04
579772.3401	4180428.1	295.6
579772.9402	4180428.19	295.64
579774.0701	4180427.97	301.41
579742.7102	4180428.72	297.7
579743.4402	4180428.68	297.5
579743.8601	4180428.58	297.3
579744.6101	4180429.02	297.39
579745.03	4180428.72	297.46
579745.7898	4180429.04	297.22
579746.2102	4180428.53	297.4
579746.9802	4180428.61	297.15
579747.4001	4180428.62	297.32
579748.1902	4180428.94	297.33
579748.6301	4180428.66	297.19
579749.3298	4180428.65	297.44
579749.8	4180428.78	297.18
579750.5198	4180428.93	297.07
579751.6702	4180429.02	297.18
579752.1599	4180428.99	297.19
579752.9202	4180429	297.14
579753.4099	4180428.76	297.2
579754.1799	4180428.75	297.47
579754.6599	4180428.93	297.65
579755.3401	4180428.62	299.27
579755.4802	4180429.04	297.32
579755.8401	4180428.54	298.66
579756.6399	4180428.62	298.55
579757.1501	4180429.01	298.9
579757.9202	4180428.59	298.8
579758.0198	4180429.05	297.49
579758.47	4180428.61	298.3
579759.8	4180428.95	298.91
579760.5798	4180428.51	299.42
579761.1301	4180428.74	299.71
579761.9602	4180429.05	300.47
579762.5002	4180428.65	300.28
579763.4602	4180429	299.02
579764.01	4180428.98	298.91
579764.9802	4180428.83	297.2
579765.5002	4180428.63	297.32
579766.4099	4180428.75	297.05
579766.9802	4180428.99	297.13
579767.8899	4180428.97	296.94
579768.4499	4180429.01	296.74
579769.3699	4180428.88	296.48
579769.9402	4180428.73	296.28
579770.8098	4180428.65	296.49
579771.4499	4180428.92	296.22
579772.3498	4180428.7	295.98
579772.97	4180428.79	295.72
579773.8098	4180429	306.83
579773.8699	4180428.77	295.83
579774.4802	4180428.63	295.28
579742.76	4180429.29	297.51
579743.4802	4180429.25	297.42
579743.8899	4180429.17	297.46
579744.6501	4180429.6	297.41
579745.0701	4180429.32	297.56
579746.2502	4180429.11	297.37
579747.01	4180429.2	297.21
579747.4299	4180429.21	297.39
579748.2302	4180429.53	297.28
579748.6702	4180429.24	297.2
579749.3899	4180429.21	297.13
579749.8498	4180429.35	297.13
579750.55	4180429.53	297.23
579750.9499	4180429.09	297.4
579751.72	4180429.57	296.91
579752.1999	4180429.57	297.16
579752.97	4180429.57	297.02
579753.4499	4180429.34	297.25
579754.22	4180429.34	297.44
579754.72	4180429.48	297.3
579755.5198	4180429.61	297.2
579755.8801	4180429.11	298.54
579755.99	4180429.6	297.26
579756.6702	4180429.21	298.6
579757.1999	4180429.56	298.48
579758.55	4180429.12	297.53
579759.3	4180429.19	298.74
579759.78	4180429.61	299.88
579760.5701	4180429.15	300.22
579761.1399	4180429.35	300.1
579762.55	4180429.2	300
579763.51	4180429.55	298.72
579764.0798	4180429.53	298.43
579765.0198	4180429.4	297.11
579765.5398	4180429.19	297.16
579766.4402	4180429.32	297.04
579767.0198	4180429.56	297.09
579767.9299	4180429.53	296.66
579768.4802	4180429.6	296.81
579769.4202	4180429.45	296.25
579769.9602	4180429.34	296.58
579770.8601	4180429.22	296.23
579771.5002	4180429.47	295.88
579772.3801	4180429.29	295.99
579772.99	4180429.39	295.95
579773.2302	4180429.1	306.92
579773.9099	4180429.35	295.72
579774.49	4180429.25	295.72
579742.7898	4180429.88	297.68
579743.51	4180429.85	297.62
579743.9299	4180429.76	297.5
579745.0998	4180429.9	297.62
579745.8201	4180429.64	297.31
579746.3	4180429.69	297.31
579747.0398	4180429.79	297.4
579747.47	4180429.78	297.38
579748.2502	4180430.13	297.56
579748.7102	4180429.81	297.13
579749.4202	4180429.79	297.24
579749.8699	4180429.95	297.36
579750.5901	4180430.09	297.14
579751.0002	4180429.65	297.14
579751.7502	4180430.18	297.15
579752.2502	4180430.14	296.94
579753.0002	4180430.14	297.05
579753.4802	4180429.92	297.29
579754.2698	4180429.89	297.12
579754.7698	4180430.05	297.1
579756.0198	4180430.17	297.27
579756.6799	4180429.83	299.06
579757.3098	4180430.05	297.3
579758.01	4180429.71	298.43
579758.51	4180429.82	298.88
579759.2898	4180429.82	299.56
579760.5998	4180429.74	300.32
579761.1799	4180429.92	299.98
579762.0002	4180429.63	300.36
579762.0701	4180430.16	299.73
579762.6199	4180429.73	299.33
579763.6301	4180430	297.14
579764.1799	4180430.01	297.23
579765.0398	4180430	297.24
579765.5701	4180429.78	297.31
579766.47	4180429.92	297.17
579767.0701	4180430.12	296.88
579767.97	4180430.09	296.54
579768.5398	4180430.15	296.44
579769.4402	4180430.05	296.36
579770.01	4180429.9	296.2
579770.8801	4180429.8	296.33
579771.53	4180430.06	295.88
579772.4402	4180429.83	295.5
579773.0198	4180429.98	296.05
579742.8201	4180430.48	297.78
579743.53	4180430.43	297.78
579743.97	4180430.34	297.44
579744.6902	4180430.19	297.45
579745.1599	4180430.46	297.23
579745.8699	4180430.22	297.19
579746.3298	4180430.28	297.41
579747.0901	4180430.37	297.23
579747.5198	4180430.35	297.21
579748.2898	4180430.7	297.5
579748.74	4180430.4	297.2
579749.4602	4180430.37	297.2
579749.9099	4180430.53	297.3
579750.5998	4180430.72	297.61
579751.0398	4180430.23	297.17
579752.2898	4180430.73	296.95
579753.03	4180430.74	297.18
579753.53	4180430.48	297.08
579754.3098	4180430.47	297.11
579754.8	4180430.64	297.26
579755.55	4180430.19	297.2
579756.0701	4180430.74	297.14
579756.7898	4180430.3	297.71
579757.28	4180430.73	298.52
579758.0398	4180430.31	298.59
579758.5198	4180430.45	299.41
579759.2898	4180430.44	300.12
579759.8098	4180430.21	300.09
579760.6399	4180430.32	300.3
579761.24	4180430.48	299.69
579762.1301	4180430.71	299.24
579762.6902	4180430.26	298.74
579762.8	4180430.72	297.35
579763.6702	4180430.58	297.1
579764.22	4180430.58	297.05
579765.0901	4180430.56	296.95
579765.6199	4180430.34	297.05
579766.5198	4180430.47	296.77
579767.1101	4180430.69	296.66
579768.0198	4180430.67	296.41
579769.49	4180430.6	296.1
579770.05	4180430.47	296.06
579770.9299	4180430.37	296.01
579771.53	4180430.69	296.57
579773.9001	4180430.74	307.08
579742.8699	4180431.04	297.62
579743.5998	4180430.99	297.36
579744.01	4180430.92	297.45
579744.7302	4180430.78	297.37
579745.1999	4180431.05	297.34
579745.9001	4180430.82	297.35
579746.3801	4180430.84	297.2
579747.1199	4180430.95	297.28
579747.5598	4180430.93	297.2
579748.3401	4180431.27	297.3
579748.7898	4180430.99	297.17
579749.49	4180430.96	297.37
579749.9602	4180431.1	297.14
579750.6301	4180431.3	297.78
579751.0798	4180430.79	297.01
579751.78	4180430.77	297.3
579753.0701	4180431.3	297.1
579753.5701	4180431.07	297.11
579754.3401	4180431.06	297.21
579754.8298	4180431.23	297.38
579755.5901	4180430.78	297.29
579756.8601	4180430.83	297.07
579757.3801	4180431.21	297.34
579758.0398	4180430.93	299.25
579758.5798	4180430.98	298.92
579759.3201	4180431.04	300.3
579759.8401	4180430.8	300.12
579760.7102	4180430.85	299.68
579761.3201	4180430.99	298.89
579762.26	4180431.15	297.47
579763.6999	4180431.17	297.22
579764.2502	4180431.17	297.13
579765.1399	4180431.12	296.8
579765.6501	4180430.93	297.16
579766.5598	4180431.04	296.71
579767.1501	4180431.26	296.56
579768.0398	4180431.26	296.5
579768.5598	4180430.75	296.67
579768.6199	4180431.3	296.19
579769.51	4180431.2	296.3
579770.0701	4180431.08	296.46
579770.8498	4180431.13	298.14
579771.8899	4180431.27	306.2
579773.3201	4180430.85	306.99
579742.9202	4180431.62	297.52
579743.6301	4180431.58	297.47
579744.05	4180431.51	297.56
579744.76	4180431.36	297.38
579745.22	4180431.65	297.64
579745.9402	4180431.39	297.2
579746.4001	4180431.47	297.49
579747.1599	4180431.52	297.31
579747.5901	4180431.51	297.22
579748.3801	4180431.84	297.18
579748.8201	4180431.58	297.28
579749.5198	4180431.55	297.49
579749.99	4180431.7	297.33
579751.0998	4180431.42	297.48
579751.8201	4180431.34	297.18
579752.3201	4180431.32	297.05
579753.6101	4180431.65	297.11
579754.3801	4180431.62	297.01
579754.8699	4180431.8	297.22
579755.6399	4180431.34	297.05
579756.0798	4180431.36	297.55
579756.8899	4180431.41	297.2
579757.3899	4180431.83	297.74
579758.0901	4180431.49	298.84
579758.5998	4180431.59	299.2
579759.3801	4180431.58	299.81
579759.9001	4180431.35	299.84
579760.7698	4180431.39	299.15
579761.3601	4180431.56	298.68
579762.3098	4180431.71	297.2
579762.8298	4180431.31	297.34
579763.7302	4180431.75	297.2
579764.3	4180431.75	297.02
579765.1599	4180431.73	297.08
579765.6799	4180431.52	297.23
579766.6101	4180431.61	296.49
579767.1902	4180431.84	296.58
579768.0901	4180431.82	296.28
579769.5598	4180431.76	296.07
579770.1101	4180431.65	296.23
579770.8601	4180431.73	298.51
579772.51	4180431.36	306.06
579773.3	4180431.5	307.95
579773.8801	4180431.38	308.04
579742.9402	4180432.23	297.86
579743.6599	4180432.16	297.55
579744.0998	4180432.07	297.27
579744.7898	4180431.95	297.54
579745.26	4180432.22	297.54
579745.9802	4180431.97	297.24
579746.4202	4180432.07	297.85
579747.1902	4180432.12	297.44
579747.6199	4180432.12	297.49
579748.4202	4180432.42	297.22
579748.8601	4180432.15	297.13
579749.5598	4180432.13	297.42
579750.03	4180432.28	297.33
579750.6702	4180431.87	297.62
579751.1599	4180431.96	297.1
579751.8498	4180431.93	297.31
579752.3401	4180431.92	297.42
579753.1199	4180431.87	296.88
579753.6501	4180432.22	297.02
579754.4299	4180432.19	296.88
579754.9202	4180432.38	297.07
579755.6702	4180431.92	297.09
579756.1199	4180431.96	297.62
579756.9099	4180432.02	297.55
579758.1399	4180432.05	298.57
579758.6702	4180432.12	298.62
579759.47	4180432.08	298.8
579759.9499	4180431.9	299.49
579760.8201	4180431.95	298.83
579761.47	4180432.03	297.28
579762.3498	4180432.3	297.22
579762.8801	4180431.89	297.21
579763.78	4180432.32	296.99
579764.3298	4180432.32	296.97
579765.22	4180432.26	296.46
579765.7502	4180432.05	296.66
579766.6501	4180432.17	296.26
579767.2302	4180432.42	296.4
579768.1301	4180432.4	296.16
579768.6501	4180431.89	296.32
579769.5998	4180432.34	296.04
579770.1702	4180432.2	295.83
579771.0002	4180432.09	306.8
579771.8801	4180431.9	306.92
579772.53	4180431.94	306.16
579773.3298	4180432.06	307.95
579773.9402	4180431.93	307.54
579774.0398	4180432.4	306.26
579742.97	4180432.82	298
579743.7102	4180432.74	297.45
579744.1301	4180432.67	297.55
579744.8401	4180432.52	297.33
579745.3098	4180432.8	297.29
579746.0198	4180432.56	297.23
579746.4602	4180432.66	297.87
579747.2302	4180432.69	297.32
579747.6501	4180432.7	297.59
579748.9001	4180432.75	297.22
579749.6199	4180432.68	297.03
579750.0701	4180432.86	297.26
579750.6999	4180432.47	297.7
579751.1799	4180432.55	297.29
579751.9001	4180432.49	297.02
579752.3601	4180432.52	297.6
579753.1399	4180432.47	297.1
579753.6902	4180432.81	297
579754.4499	4180432.79	297.14
579754.97	4180432.94	296.86
579755.6999	4180432.51	297.17
579756.1501	4180432.54	297.76
579756.9602	4180432.58	297.19
579757.3899	4180432.47	298.49
579757.49	4180432.97	297.28
579758.24	4180432.55	297.44
579758.6999	4180432.7	298.73
579759.51	4180432.65	298.66
579760.0198	4180432.44	298.89
579760.1399	4180432.89	297.37
579760.9202	4180432.43	297.62
579760.99	4180432.97	297.12
579761.5198	4180432.59	297.04
579762.3801	4180432.89	297.25
579762.9202	4180432.44	297
579763.8201	4180432.88	296.76
579764.3699	4180432.9	296.99
579765.26	4180432.84	296.47
579765.8	4180432.62	296.44
579766.6902	4180432.76	296.29
579768.1702	4180432.97	296.07
579768.6902	4180432.45	296.12
579769.6101	4180432.94	296.33
579770.5398	4180432.81	304.97
579771.1902	4180432.44	304.01
579771.8298	4180432.59	308.46
579772.5002	4180432.62	307.43
579773.4499	4180432.52	306.43
579743.03	4180433.38	297.66
579743.74	4180433.33	297.52
579744.1599	4180433.27	297.61
579744.8498	4180433.15	297.98
579745.3401	4180433.39	297.47
579746.05	4180433.16	297.38
579746.53	4180433.2	297.29
579747.2698	4180433.26	297.31
579747.6999	4180433.27	297.45
579748.4602	4180433.01	297.19
579748.9299	4180433.35	297.43
579749.6501	4180433.26	297
579750.1101	4180433.44	297.21
579750.76	4180433.03	297.4
579751.22	4180433.13	297.31
579751.9499	4180433.06	296.91
579752.4099	4180433.1	297.46
579753.1902	4180433.04	296.95
579753.7102	4180433.4	297.19
579754.49	4180433.36	297.01
579755.7302	4180433.11	297.33
579756.1902	4180433.11	297.63
579757.0002	4180433.17	297.21
579757.5398	4180433.53	297.06
579758.2898	4180433.11	297.27
579758.8201	4180433.17	297.16
579759.6199	4180433.12	297.32
579760.1902	4180433.43	297.08
579761.5398	4180433.2	297.4
579762.4299	4180433.45	297.04
579762.97	4180433.03	296.91
579763.8601	4180433.46	296.76
579764.4001	4180433.49	297.03
579765.2898	4180433.43	296.57
579765.8298	4180433.21	296.54
579766.72	4180433.35	296.27
579767.28	4180432.99	296.16
579768.7302	4180433.03	296.06
579769.9299	4180433.18	300.92
579770.5398	4180433.44	305.57
579771.0198	4180433.31	307.7
579771.8498	4180433.19	308.64
579772.51	4180433.23	307.77
579773.3699	4180433.26	308.44
579773.9602	4180433.14	308.39
579743.0701	4180433.94	297.5
579743.78	4180433.91	297.48
579744.1902	4180433.85	297.79
579744.8899	4180433.72	297.85
579745.3801	4180433.97	297.53
579746.0901	4180433.73	297.22
579746.5598	4180433.8	297.47
579747.3098	4180433.85	297.25
579747.74	4180433.86	297.42
579748.47	4180433.62	297.59
579748.97	4180433.91	297.27
579749.6799	4180433.85	297.26
579750.1399	4180434.03	297.3
579750.8098	4180433.58	297.05
579751.28	4180433.68	296.94
579751.9499	4180433.69	297.44
579752.4802	4180433.64	296.93
579753.22	4180433.63	297.12
579753.76	4180433.99	297.1
579754.5398	4180433.92	296.75
579754.99	4180433.55	297.16
579755.76	4180433.69	297.36
579756.24	4180433.69	297.48
579757.0398	4180433.74	297.05
579758.28	4180433.75	298.1
579758.8601	4180433.75	297.22
579759.6399	4180433.75	297.67
579760.2102	4180434	297.25
579761.0198	4180433.57	297.11
579761.5798	4180433.78	297.29
579762.47	4180434	296.81
579763.01	4180433.59	296.69
579763.8899	4180434.04	296.73
579764.4602	4180434.04	296.57
579765.3298	4180434	296.38
579765.8699	4180433.77	296.4
579766.7502	4180433.92	296.33
579767.3	4180433.59	296.44
579768.1999	4180433.55	296.11
579768.7698	4180433.61	295.97
579769.3699	4180433.9	301.33
579769.7502	4180434.05	304.74
579770.5998	4180433.98	305.15
579771.1702	4180433.74	305.71
579771.9099	4180433.73	308.13
579772.5598	4180433.79	307.63
579773.4402	4180433.77	307.74
579774.0398	4180433.64	307.47
579742.6199	4180434.48	297.5
579743.0998	4180434.54	297.7
579743.8098	4180434.5	297.58
579744.24	4180434.42	297.56
579744.9602	4180434.26	297.34
579745.4202	4180434.55	297.48
579746.1301	4180434.33	297.31
579746.5998	4180434.37	297.34
579747.3401	4180434.45	297.41
579747.78	4180434.44	297.43
579748.51	4180434.21	297.58
579749.0198	4180434.49	297.12
579749.7302	4180434.42	297.04
579750.1902	4180434.59	297.15
579750.8298	4180434.19	297.4
579751.3	4180434.29	297.22
579751.99	4180434.28	297.55
579752.5002	4180434.24	297.21
579753.2698	4180434.19	296.78
579753.8	4180434.57	297
579754.5598	4180434.54	297.19
579755.0198	4180434.13	297.18
579755.8201	4180434.25	296.98
579756.2898	4180434.24	297.07
579757.0798	4180434.31	296.98
579757.5598	4180434.14	297.36
579758.3401	4180434.3	297.64
579758.9001	4180434.32	297.11
579759.6799	4180434.31	297.5
579760.26	4180434.6	297.13
579761.0598	4180434.14	297.04
579761.6301	4180434.34	297
579762.5198	4180434.58	296.66
579763.05	4180434.17	296.66
579763.9402	4180434.62	296.62
579764.51	4180434.62	296.44
579765.3601	4180434.59	296.54
579765.9099	4180434.35	296.32
579766.7898	4180434.49	296.16
579767.3298	4180434.18	296.51
579768.2302	4180434.14	296.13
579768.78	4180434.23	296.42
579769.3298	4180434.59	302.81
579769.97	4180434.38	301.45
579770.8699	4180434.24	300.88
579771.0998	4180434.45	307.56
579771.9602	4180434.28	307.96
579772.5598	4180434.4	308.15
579773.4802	4180434.33	307.54
579774.1101	4180434.17	306.92
579742.6599	4180435.04	297.44
579743.1501	4180435.11	297.55
579743.8498	4180435.07	297.57
579744.28	4180434.99	297.56
579744.99	4180434.85	297.43
579745.4299	4180435.17	297.97
579746.1501	4180434.93	297.66
579746.6199	4180434.97	297.74
579747.3699	4180435.02	297.55
579747.8098	4180435.02	297.44
579748.5398	4180434.8	297.66
579749.0398	4180435.1	297.39
579749.76	4180435	297.07
579750.24	4180435.17	296.95
579750.8899	4180434.75	297.09
579751.3401	4180434.87	297.17
579752.01	4180434.87	297.68
579752.53	4180434.84	297.27
579753.2898	4180434.8	297.14
579753.8298	4180435.14	297.06
579754.5901	4180435.13	297.29
579755.0598	4180434.73	297.29
579755.8601	4180434.82	296.97
579756.3401	4180434.8	296.86
579757.1101	4180434.9	297.16
579757.5998	4180434.72	297.35
579758.4001	4180434.84	297.07
579758.9299	4180434.92	297.27
579759.74	4180434.86	297.06
579760.3	4180435.2	297.06
579761.0998	4180434.71	296.99
579761.6702	4180434.92	296.93
579762.55	4180435.16	296.58
579763.0901	4180434.76	296.68
579763.97	4180435.2	296.65
579764.55	4180435.19	296.31
579765.3899	4180435.18	296.53
579765.9299	4180434.95	296.55
579766.8298	4180435.07	296.18
579767.3801	4180434.71	296.19
579768.2502	4180434.75	296.53
579768.5901	4180435.12	300.6
579769.3801	4180435.14	302.42
579769.9099	4180435.09	303.14
579770.78	4180434.97	303.02
579771.1902	4180434.94	306.44
579772.0002	4180434.83	307.69
579772.6501	4180434.9	307.11
579773.5398	4180434.89	307.2
579774.0798	4180434.85	308.07
579742.6902	4180435.64	297.57
579743.1902	4180435.69	297.53
579743.8801	4180435.67	297.72
579744.3098	4180435.59	297.74
579745.0002	4180435.45	297.85
579745.49	4180435.72	297.56
579746.2102	4180435.48	297.2
579746.6501	4180435.56	297.92
579747.4099	4180435.6	297.5
579747.8601	4180435.6	297.24
579748.5901	4180435.36	297.43
579749.0701	4180435.69	297.67
579749.7898	4180435.59	297.27
579750.2502	4180435.78	297.38
579750.9299	4180435.32	296.97
579751.3801	4180435.44	297.11
579752.0701	4180435.42	297.39
579752.5901	4180435.4	297.01
579753.3298	4180435.37	297.08
579753.8601	4180435.7	297.17
579754.6501	4180435.68	296.87
579755.0998	4180435.29	297.16
579755.8699	4180435.42	297.33
579756.3601	4180435.42	297.2
579757.1399	4180435.48	297.18
579757.6399	4180435.27	297.18
579758.4402	4180435.43	297.09
579758.97	4180435.5	297.17
579759.76	4180435.47	297.3
579761.1399	4180435.29	296.95
579761.6999	4180435.52	297.15
579762.5798	4180435.73	296.71
579763.1301	4180435.33	296.52
579764.0002	4180435.78	296.66
579764.5798	4180435.78	296.43
579765.4299	4180435.75	296.4
579765.9802	4180435.5	296.34
579766.8699	4180435.65	296.13
579767.4202	4180435.26	296.08
579768.3	4180435.31	296.24
579768.8699	4180435.36	296.08
579769.5598	4180435.53	299.78
579769.99	4180435.59	302.27
579770.3801	4180435.7	295.87
579770.72	4180435.67	304.75
579771.3201	4180435.39	304.83
579772.03	4180435.42	307.83
579772.6799	4180435.47	307.13
579773.5398	4180435.49	307.64
579774.05	4180435.51	309.21
579742.72	4180436.25	297.86
579743.2302	4180436.27	297.45
579743.9202	4180436.25	297.69
579744.3601	4180436.15	297.47
579745.0598	4180436.02	297.61
579745.5398	4180436.3	297.49
579746.2302	4180436.08	297.48
579746.72	4180436.1	297.32
579747.4402	4180436.19	297.56
579747.8899	4180436.2	297.49
579748.6301	4180435.93	297.4
579749.0998	4180436.28	297.68
579749.8401	4180436.16	296.96
579750.9499	4180435.94	297.36
579751.4099	4180436.03	297.21
579752.0998	4180436.01	297.43
579752.6301	4180435.98	296.96
579753.3498	4180435.98	297.27
579753.9001	4180436.25	297.15
579754.6702	4180436.28	297.11
579755.1399	4180435.87	297.08
579755.9202	4180436	297.18
579756.4099	4180435.99	297.01
579757.1799	4180436.05	297.09
579757.6902	4180435.84	296.99
579758.47	4180436.02	297.11
579759.0002	4180436.09	297.3
579759.8098	4180436.03	297.16
579760.3401	4180435.8	297.05
579761.1799	4180435.85	296.74
579761.74	4180436.09	297
579762.6199	4180436.32	296.68
579763.1702	4180435.91	296.49
579765.4802	4180436.31	296.16
579766.0198	4180436.08	296.24
579766.9001	4180436.23	296.09
579767.4499	4180435.85	296.29
579768.3401	4180435.87	296.02
579768.9202	4180435.92	295.87
579769.8	4180435.83	296.05
579770.4001	4180436.3	296.14
579770.8	4180436.19	303.85
579771.2302	4180436.13	307.09
579772.0998	4180435.94	307.14
579772.6799	4180436.1	307.74
579773.4499	4180436.22	309.86
579774.0701	4180436.1	309.45
579742.7698	4180436.8	297.53
579743.2502	4180436.87	297.79
579743.9499	4180436.84	297.78
579744.3899	4180436.76	297.74
579745.1101	4180436.59	297.36
579745.5701	4180436.9	297.61
579746.26	4180436.67	297.61
579746.76	4180436.7	297.41
579747.49	4180436.76	297.42
579747.9402	4180436.72	297.27
579748.6599	4180436.52	297.54
579749.1399	4180436.87	297.78
579749.8699	4180436.75	297.09
579750.3	4180436.36	297.25
579750.99	4180436.51	297.22
579751.4499	4180436.62	297.32
