# .PCD v.7 - Point Cloud Data file format
VERSION .7
FIELDS x y z
SIZE 4 4 4
TYPE F F F
COUNT 1 1 1
WIDTH 120
HEIGHT 1
VIEWPOINT 0 0 0 1 0 0 0
POINTS 120
DATA ascii
579773.8125 4180429 306.829986572
579773.25 4180429 306.920013428
579773.875 4180430.75 307.079986572
579771.875 4180431.25 306.200012207
579773.3125 4180430.75 306.989990234
579772.5 4180431.25 306.059997559
579773.3125 4180431.5 307.950012207
579773.875 4180431.5 308.040008545
579771 4180432 306.799987793
579771.875 4180432 306.920013428
579772.5 4180432 306.160003662
579773.3125 4180432 307.950012207
579773.9375 4180432 307.540008545
579774.0625 4180432.5 306.260009766
579770.5625 4180432.75 304.970001221
579771.1875 4180432.5 304.010009766
579771.8125 4180432.5 308.459991455
579772.5 4180432.5 307.429992676
579773.4375 4180432.5 306.429992676
579769.9375 4180433.25 300.920013428
579770.5625 4180433.5 305.570007324
579771 4180433.25 307.700012207
579771.875 4180433.25 308.640014648
579772.5 4180433.25 307.769989014
579773.375 4180433.25 308.440002441
579773.9375 4180433.25 308.390014648
579769.375 4180434 301.329986572
579769.75 4180434 304.739990234
579770.625 4180434 305.149993896
579771.1875 4180433.75 305.709991455
579771.9375 4180433.75 308.130004883
579772.5625 4180433.75 307.630004883
579773.4375 4180433.75 307.739990234
579774.0625 4180433.75 307.470001221
579769.3125 4180434.5 302.809997559
579770 4180434.5 301.450012207
579770.875 4180434.25 300.880004883
579771.125 4180434.5 307.559997559
579771.9375 4180434.25 307.959991455
579772.5625 4180434.5 308.149993896
579773.5 4180434.25 307.540008545
579774.125 4180434.25 306.920013428
579768.5625 4180435 300.600006104
579769.375 4180435.25 302.420013428
579769.9375 4180435 303.140014648
579770.75 4180435 303.019989014
579771.1875 4180435 306.440002441
579772 4180434.75 307.690002441
579772.625 4180435 307.109985352
579773.5625 4180435 307.200012207
579774.0625 4180434.75 308.070007324
579770 4180435.5 302.269989014
579770.75 4180435.75 304.75
579771.3125 4180435.5 304.829986572
579772 4180435.5 307.829986572
579772.6875 4180435.5 307.130004883
579773.5625 4180435.5 307.640014648
579774.0625 4180435.5 309.209991455
579770.8125 4180436.25 303.850006104
579771.25 4180436.25 307.089996338
579772.125 4180436 307.140014648
579772.6875 4180436 307.739990234
579773.4375 4180436.25 309.859985352
579774.0625 4180436 309.450012207
579770.875 4180436.75 303.010009766
579771.375 4180436.5 304.540008545
579772.25 4180436.5 305.339996338
579772.875 4180436.5 305.130004883
579773.5 4180436.75 308.989990234
579774.25 4180436.5 306.760009766
579770.875 4180437.25 303.670013428
579771.4375 4180437 304.579986572
579772.25 4180437 305.369995117
579772.375 4180437.5 304.179992676
579772.9375 4180437 304.869995117
579773.0625 4180437.5 302.619995117
579773.625 4180437.25 308.149993896
579774 4180437.25 301.989990234
579774.25 4180437 307.769989014
579774.5625 4180437.25 301.880004883
579770.125 4180437.75 301.820007324
579770.9375 4180438 303.299987793
579771.5 4180437.75 304.190002441
579774.5 4180438 304.630004883
579770.125 4180438.5 303.489990234
579770.9375 4180438.5 303.970001221
579771.5 4180438.25 304.309997559
579773.0625 4180438 303.549987793
579773.875 4180438 304.100006104
579771 4180439 303.570007324
579771.5625 4180438.75 303.640014648
579772.375 4180438.75 304.899993896
579773.0625 4180438.75 303.799987793
579774 4180438.5 303.019989014
579774.4375 4180438.75 305.399993896
579769.5 4180439.25 304.149993896
579770.125 4180439.25 303.489990234
579771 4180439.75 303.619995117
579771.5 4180439.5 305.329986572
579772.375 4180439.25 305.5
579773.125 4180439.25 302.970001221
579773.875 4180439.25 305.390014648
579774.5 4180439.25 305.329986572
579771.5625 4180440 305.690002441
579772.4375 4180439.75 305.260009766
579773.125 4180440 304.570007324
579773.9375 4180440 305.239990234
579771 4180440.25 304.700012207
579771.25 4180440.5 300.549987793
579771.625 4180440.5 304.369995117
579772.4375 4180440.5 305.450012207
579773.125 4180440.5 304.920013428
579773.375 4180440.75 300.670013428
579773.9375 4180440.5 305.739990234
579774.5625 4180440.5 305.709991455
579771.1875 4180441.25 302.440002441
579771.875 4180441 300.690002441
579772.5625 4180441 304.130004883
579774 4180441 305.850006104
579774.5625 4180441 306.170013428
