# .PCD v.7 - Point Cloud Data file format
VERSION .7
FIELDS x y z
SIZE 4 4 4
TYPE F F F
COUNT 1 1 1
WIDTH 80
HEIGHT 1
VIEWPOINT 0 0 0 1 0 0 0
POINTS 80
DATA ascii
579744.3125 4180409.5 300.779998779
579745.4375 4180409.25 302.420013428
579745.8125 4180409.25 302.510009766
579748.8125 4180409.25 304.959991455
579751.875 4180409.5 302.029998779
579752.6875 4180409.5 301.799987793
579752.9375 4180409.25 305.630004883
579755.75 4180409.5 301.040008545
579756.375 4180409.5 304.880004883
579757 4180409.25 302.130004883
579744.75 4180409.5 300.549987793
579745.5625 4180409.75 300.880004883
579745.875 4180409.75 301.850006104
579746.75 4180409.5 300.640014648
579747.875 4180410 301.779998779
579748.1875 4180409.5 302.75
579748.3125 4180410 301.809997559
579748.875 4180409.75 304.410003662
579749.1875 4180409.5 306
579753.6875 4180409.75 307.100006104
579754.375 4180409.75 303.600006104
579756.4375 4180410 304.119995117
579757.125 4180409.5 300.720001221
579758 4180409.5 300.049987793
579745.625 4180410.25 299.779998779
579746 4180410.25 300.980010986
579748 4180410.25 300.589996338
579748.375 4180410.5 301.600006104
579748.875 4180410.5 305.149993896
579749.25 4180410 305.220001221
579750.1875 4180410.25 302.510009766
579753.75 4180410.25 306.929992676
579754 4180410.25 302.589996338
579754.4375 4180410.5 303.269989014
579755.6875 4180410.25 303.200012207
579756.5 4180410.5 304.359985352
579757 4180410.5 303.640014648
579744.8125 4180410.75 301
579748 4180411 300.209991455
579748.4375 4180411 301.070007324
579748.9375 4180411 304.679992676
579749.3125 4180410.75 304.730010986
579749.4375 4180411 302.790008545
579750.25 4180411 302.200012207
579754.5625 4180410.75 300.75
579755.1875 4180410.75 304.769989014
579755.3125 4180411 302.970001221
579755.6875 4180411 304.579986572
579756.5 4180411.25 305.130004883
579749.6875 4180411.25 299.570007324
579754.4375 4180411.5 304.25
579755.75 4180411.5 303.399993896
579756.9375 4180411.25 305.970001221
579747.375 4180412 300.079986572
579753.875 4180411.75 306.190002441
579754.5 4180412 303.190002441
579755.125 4180412 306.910003662
579755.4375 4180412 301.799987793
579755.9375 4180411.75 300.920013428
579756.5 4180411.75 305.350006104
579757 4180411.75 305.239990234
579757.75 4180412 307.140014648
579746.875 4180412.5 301.589996338
579747.375 4180412.75 301.019989014
579753.9375 4180412.5 306.089996338
579754.1875 4180412.75 302.320007324
579754.5625 4180412.5 302.559997559
579755.4375 4180412.75 302.190002441
579755.9375 4180412.5 302.119995117
579756.5625 4180412.25 305.399993896
579757.8125 4180412.5 306.899993896
579758.25 4180412.25 307.290008545
579746.75 4180413.25 304.059997559
579747.375 4180413.25 301.119995117
579744.4375 4180413.75 303.269989014
579746.9375 4180413.75 302.380004883
579747.4375 4180413.75 300.820007324
579744.4375 4180414.5 304.070007324
579746.125 4180414 302.760009766
579746.1875 4180414.5 302.170013428
