# .PCD v.7 - Point Cloud Data file format
VERSION .7
FIELDS x y z
SIZE 4 4 4
TYPE F F F
COUNT 1 1 1
WIDTH 65
HEIGHT 1
VIEWPOINT 0 0 0 1 0 0 0
POINTS 65
DATA ascii
579746.875 4180410 299.029998779
579747.25 4180409.5 299.149993896
579746.9375 4180411 299.049987793
579749.25 4180411 299.260009766
579750.4375 4180411.25 299.190002441
579747 4180411.75 299.029998779
579748.5625 4180411.5 298.779998779
579768.1875 4180413 300.540008545
579766.8125 4180413.5 300.309997559
579743.625 4180414.5 298.630004883
579767.375 4180414.75 300.440002441
579767.4375 4180415.25 300.480010986
579748.6875 4180419.5 298.690002441
579758.625 4180419.25 299.589996338
579757.8125 4180420 299.690002441
579757.375 4180420.5 299.619995117
579756.625 4180421 299.510009766
579758.75 4180421 299.790008545
579756.125 4180421.75 299.679992676
579757.9375 4180421.75 299.75
579754.9375 4180422.25 299.489990234
579758 4180422.25 299.5
579757.5 4180422.75 299.420013428
579762.125 4180422.75 300.010009766
579753.6875 4180423 299.350006104
579756.75 4180423.25 299.630004883
579762.1875 4180423.5 299.989990234
579763.0625 4180423.25 299.880004883
579762.25 4180424 299.799987793
579752.5 4180424.5 299.140014648
579755.0625 4180424.5 299.5
579755.5625 4180424.5 299.380004883
579756.3125 4180424 299.540008545
579759 4180424.5 299.649993896
579759.5 4180424.25 299.649993896
579755.125 4180425.25 299.450012207
579758.1875 4180425.25 299.649993896
579760.375 4180425.75 299.720001221
579756.9375 4180426.25 299.380004883
579757.6875 4180425.75 299.609985352
579759.5625 4180426 299.730010986
579764.625 4180426.25 300.109985352
579764.6875 4180426.75 300.010009766
579765.1875 4180426.5 300.160003662
579755.6875 4180426.75 299.350006104
579759.125 4180427 299.510009766
579763.3125 4180427.25 299.980010986
579764.75 4180427.25 300.029998779
579765.25 4180427.25 300.200012207
579755.6875 4180427.5 299.559997559
579758.3125 4180427.5 299.429992676
579761.9375 4180427.75 299.790008545
579763.375 4180428 299.890014648
579763.875 4180428 299.940002441
579757.0625 4180428.5 299.510009766
579757.875 4180428 299.420013428
579762.5 4180428 299.899993896
579755.3125 4180428.5 299.269989014
579761.125 4180428.75 299.709991455
579762.5625 4180429.25 300
579759.3125 4180429.75 299.559997559
579762.0625 4180430.25 299.730010986
579761.25 4180430.5 299.690002441
579760.6875 4180430.75 299.679992676
579743.3125 4180438 298.170013428
