# .PCD v.7 - Point Cloud Data file format
VERSION .7
FIELDS x y z
SIZE 4 4 4
TYPE F F F
COUNT 1 1 1
WIDTH 185
HEIGHT 1
VIEWPOINT 0 0 0 1 0 0 0
POINTS 185
DATA ascii
579767.9375 4180409.5 302.070007324
579768.375 4180409.5 302.869995117
579768.5 4180410 301.940002441
579766.9375 4180410.5 302.980010986
579767.9375 4180410.25 302.339996338
579769.5 4180410.5 301.049987793
579770.0625 4180410 300.820007324
579765.125 4180411.25 301.739990234
579768 4180410.75 302.109985352
579763.75 4180411.75 300.839996338
579764.25 4180411.5 301.089996338
579765.6875 4180411.25 301.260009766
579768 4180411.5 302.519989014
579769.3125 4180411.5 305.579986572
579769.9375 4180411.75 304.320007324
579770.8125 4180411.5 305.239990234
579764.25 4180412.25 302.130004883
579765.0625 4180411.75 302.540008545
579765.75 4180412 300.910003662
579769.375 4180412 304.609985352
579770.0625 4180412 303
579770.875 4180412 304.75
579763.75 4180412.5 301.970001221
579765.125 4180412.5 303.149993896
579765.6875 4180412.5 301.850006104
579766.6875 4180412.5 300.619995117
579768.5625 4180412.5 302.619995117
579769.375 4180412.5 305.040008545
579770.0625 4180412.75 303.260009766
579770.875 4180412.75 305.549987793
579771.5 4180412.75 304.859985352
579762.8125 4180413 302.410003662
579763.8125 4180413 301.410003662
579764.1875 4180413 302.910003662
579764.3125 4180413.5 302
579765.1875 4180413 302.260009766
579765.625 4180413.25 303.649993896
579766.75 4180413 300.829986572
579767.1875 4180413.25 301.510009766
579768.6875 4180413 301.429992676
579769.375 4180413.25 306
579770.9375 4180413.25 305.019989014
579774.125 4180413.25 302.510009766
579774.625 4180412.75 303.239990234
579762.875 4180413.5 302.170013428
579763.75 4180413.75 302.5
579764.3125 4180414 301.820007324
579765.1875 4180413.5 303.059997559
579765.6875 4180414 303.690002441
579768.1875 4180413.75 302.25
579769.5625 4180413.5 302.809997559
579770 4180413.5 305.309997559
579770.9375 4180413.75 305.170013428
579771.4375 4180413.5 306
579773.1875 4180413.5 302.570007324
579774.1875 4180413.75 302.059997559
579762.9375 4180414.25 302.239990234
579763.8125 4180414.25 302.100006104
579765.1875 4180414.25 303.549987793
579765.75 4180414.5 302.779998779
579766.8125 4180414.25 300.519989014
579768.25 4180414.25 301.739990234
579768.75 4180414 301.5
579769.5625 4180414.25 303.940002441
579770 4180414 305.309997559
579770.125 4180414.5 303.910003662
579771.75 4180414.25 301.640014648
579773.25 4180414 301.799987793
579774.25 4180414.25 301.109985352
579763 4180414.75 301.339996338
579763.875 4180414.75 302.320007324
579764.3125 4180414.5 302.459991455
579765.3125 4180414.75 302.059997559
579765.875 4180414.75 301.559997559
579766.8125 4180414.75 300.929992676
579770.25 4180415 302.950012207
579771.1875 4180414.75 302.329986572
579771.75 4180414.75 302.190002441
579773.3125 4180414.5 301.489990234
579763.0625 4180415.25 300.75
579763.875 4180415.25 301.950012207
579764.375 4180415.25 302.140014648
579765.3125 4180415.25 301.869995117
579766.875 4180415.25 300.519989014
579768.875 4180415.25 300.679992676
579770.375 4180415.5 301.089996338
579771.8125 4180415.25 301.709991455
579763.0625 4180415.75 301.170013428
579763.9375 4180416 301.929992676
579764.4375 4180415.75 301.670013428
579765.375 4180415.75 301.429992676
579770.3125 4180416 302.600006104
579771.0625 4180416.25 305.160003662
579771.75 4180416.25 304.329986572
579765.4375 4180416.25 300.829986572
579767.375 4180416.75 302.730010986
579771.1875 4180416.75 304.369995117
579767.4375 4180417.25 302.390014648
579768.375 4180417.25 302.040008545
579768.875 4180417 303.010009766
579771.25 4180417.25 303.380004883
579771.6875 4180416.75 305.070007324
579774.125 4180417 305.519989014
579768.4375 4180417.75 301.600006104
579768.875 4180417.75 302.730010986
579769.75 4180417.75 304.220001221
579771.3125 4180417.75 302.859985352
579771.75 4180417.25 304.640014648
579773.375 4180417.75 302.980010986
579774.25 4180417.5 304.390014648
579768.5 4180418.25 301.100006104
579770.3125 4180418 304.049987793
579774.1875 4180418.25 306.600006104
579770.375 4180418.5 304.089996338
579772.75 4180418.5 305.230010986
579773.25 4180418.5 306.179992676
579774.1875 4180419 306.640014648
579772.75 4180419.25 305.200012207
579773.25 4180419.25 306.429992676
579774.1875 4180419.5 306.980010986
579769.875 4180420 304.380004883
579771.4375 4180420 303.619995117
579772.8125 4180419.75 304.589996338
579773.25 4180419.75 307.489990234
579773.5 4180420 303.820007324
579774.3125 4180420 306.010009766
579769.9375 4180420.5 303.630004883
579770.5 4180420.25 303.970001221
579774.4375 4180420.5 304.170013428
579770.5 4180421 304.010009766
579771.3125 4180420.75 305.989990234
579771.9375 4180421 305.149993896
579773.5 4180420.75 304.170013428
579773.625 4180421.25 302.640014648
579774.5 4180420.75 302.799987793
579769.875 4180421.25 304.989990234
579770.4375 4180421.75 306.149993896
579771.3125 4180421.5 306.649993896
579772 4180421.5 305.329986572
579773 4180421.25 302.880004883
579773.0625 4180421.75 302.279998779
579774.625 4180421.25 301.839996338
579769.1875 4180422.25 302.600006104
579769.9375 4180421.75 305.089996338
579770 4180422.25 303.820007324
579770.375 4180422.25 307.269989014
579771.3125 4180422.25 307.640014648
579771.875 4180422.25 307.230010986
579771.375 4180422.75 307.019989014
579771.9375 4180422.75 307.730010986
579772.8125 4180422.75 307.480010986
579770 4180423 304.869995117
579770.5625 4180423.25 304.980010986
579771.375 4180423.25 307.679992676
579771.9375 4180423.5 307.420013428
579772.875 4180423.5 307.369995117
579770.0625 4180423.5 304.589996338
579770.6875 4180423.75 304.230010986
579771.375 4180424 307.609985352
579772.0625 4180424 306.329986572
579773.125 4180423.5 303.010009766
579773.625 4180423.5 304.570007324
579770.6875 4180424.5 304.640014648
579771.5625 4180424.25 305.019989014
579772.125 4180424.5 305.799987793
579770.6875 4180425 305.079986572
579771.625 4180424.75 304.649993896
579773.1875 4180424.75 303.640014648
579773.75 4180424.75 303.230010986
579771.6875 4180425.25 304.119995117
579772.3125 4180425.25 303.609985352
579773.25 4180425.25 302.589996338
579771.8125 4180425.75 302.160003662
579772.3125 4180426 303.489990234
579771.875 4180426.25 301.869995117
579772.375 4180426.5 303.25
579773.3125 4180426.5 303.350006104
579771.875 4180427 302.779998779
579772.5 4180427 302.299987793
579773.375 4180427 302.420013428
579771.875 4180427.5 302.679992676
579772.5 4180427.5 302.579986572
579773.375 4180427.5 302.510009766
579774 4180427.5 302.320007324
579774.0625 4180428 301.410003662
