# .PCD v.7 - Point Cloud Data file format
VERSION .7
FIELDS x y z
SIZE 4 4 4
TYPE F F F
COUNT 1 1 1
WIDTH 936
HEIGHT 1
VIEWPOINT 0 0 0 1 0 0 0
POINTS 936
DATA ascii
579753.5625 4180409.25 294.600006104
579758.875 4180409.25 293.730010986
579761.75 4180409.25 292.440002441
579763.9375 4180409.5 295.670013428
579750.9375 4180409.75 296.510009766
579751.8125 4180409.5 294.950012207
579752.3125 4180409.75 294.769989014
579753.625 4180410 295.019989014
579758.3125 4180409.5 294.790008545
579758.875 4180409.75 294.190002441
579759.6875 4180409.5 295.279998779
579759.8125 4180410 293.480010986
579760.1875 4180409.75 295
579760.3125 4180410 293.239990234
579762.375 4180409.75 297.709991455
579762.5 4180410 295.739990234
579762.9375 4180409.5 297.260009766
579747.125 4180410 295.339996338
579747.5 4180410.5 295.519989014
579751.875 4180410.25 295.239990234
579752.375 4180410.5 295.320007324
579758.375 4180410 294.359985352
579758.875 4180410.5 294.660003662
579759.8125 4180410.5 294.179992676
579761 4180410.25 297.579986572
579761.5625 4180410.25 297.339996338
579763 4180410 295.799987793
579763.9375 4180410 296.25
579748.25 4180411 296.179992676
579751.0625 4180410.75 295.920013428
579751.875 4180410.75 296
579753.125 4180411.25 296.429992676
579753.625 4180410.75 295.630004883
579760.25 4180410.75 295.089996338
579762.4375 4180410.75 297.839996338
579748.3125 4180411.75 296.200012207
579749.4375 4180411.5 296.480010986
579749.875 4180411.5 295.869995117
579750.625 4180411.5 295.640014648
579751.125 4180411.25 295.679992676
579751.875 4180411.5 296.519989014
579757.5625 4180411.5 295.049987793
579759 4180411.75 294.570007324
579759.75 4180411.25 296.369995117
579760.25 4180411.5 296.700012207
579748.375 4180412.25 296.369995117
579748.75 4180411.75 296.529998779
579749.4375 4180412 296.670013428
579749.875 4180412.25 296.809997559
579750.625 4180412 296.75
579751.125 4180412 296.299987793
579757.0625 4180412 295.769989014
579757.5625 4180412 295.399993896
579758.375 4180412 297.040008545
579759.8125 4180411.75 295.809997559
579763 4180412 297.929992676
579748.375 4180412.75 296.320007324
579749.9375 4180412.75 296.700012207
579751.125 4180412.5 296.369995117
579751.9375 4180412.75 296.649993896
579752.375 4180412.25 296.630004883
579754.5 4180412.5 296.190002441
579754.9375 4180412.5 296.200012207
579755.8125 4180412.75 296.130004883
579756.25 4180412.5 296.359985352
579757.0625 4180412.5 296.269989014
579757.5 4180412.75 297.200012207
579759.75 4180412.5 296.980010986
579760.375 4180412.5 295.049987793
579748.8125 4180413 296.320007324
579749.9375 4180413.25 296.739990234
579750.6875 4180413.25 296.559997559
579751.1875 4180413.25 296.839996338
579751.9375 4180413.25 296.589996338
579752.4375 4180413 296.809997559
579753.25 4180413 296.959991455
579753.6875 4180413 296.630004883
579754.5625 4180413.25 296.459991455
579755 4180413.25 295.980010986
579755.8125 4180413.25 296.299987793
579756.3125 4180413 296.100006104
579757.0625 4180413.25 296.890014648
579757.5625 4180413.25 297.190002441
579759.75 4180413.25 297.600006104
579760.4375 4180413.25 295.390014648
579761.1875 4180413 297.410003662
579761.6875 4180413.25 297.649993896
579762.625 4180413 297.170013428
579750.75 4180413.75 296.739990234
579751.1875 4180413.75 296.880004883
579752 4180413.75 296.600006104
579752.4375 4180413.5 296.670013428
579753.75 4180413.75 296.399993896
579755 4180413.75 296.369995117
579755.875 4180414 296.510009766
579756.3125 4180413.75 296.369995117
579757.125 4180413.75 296.350006104
579757.625 4180414 296.779998779
579758.4375 4180414 297.480010986
579759.875 4180413.75 296.390014648
579760.4375 4180413.75 295.799987793
579761.3125 4180413.5 295.480010986
579761.875 4180413.5 295.160003662
579762.75 4180413.5 294.899993896
579748.875 4180414.25 296.519989014
579750.75 4180414.5 296.799987793
579751.25 4180414.25 296.559997559
579752.0625 4180414.25 296.5
579752.5 4180414 296.5
579753.3125 4180414 296.570007324
579753.8125 4180414.25 296.390014648
579754.5625 4180414.5 296.970001221
579755.0625 4180414.25 296.359985352
579755.875 4180414.5 296.339996338
579756.375 4180414.25 296.269989014
579757.1875 4180414.25 296.239990234
579757.6875 4180414.5 296.619995117
579758.5625 4180414.25 296.170013428
579759 4180414.25 296.739990234
579759.9375 4180414.25 296.230010986
579760.4375 4180414.5 296
579761.3125 4180414 295.75
579761.875 4180414.25 295.459991455
579762.75 4180414 295.510009766
579748.5 4180414.5 296.589996338
579749.625 4180415 296.660003662
579750.0625 4180415 296.609985352
579750.8125 4180415 296.660003662
579751.25 4180415 296.649993896
579752.0625 4180415 296.579986572
579752.5625 4180414.75 296.350006104
579753.375 4180414.75 296.410003662
579753.8125 4180414.75 296.279998779
579754.625 4180415 296.799987793
579755.125 4180415 296.450012207
579755.9375 4180415 296.269989014
579756.375 4180414.75 296.350006104
579757.25 4180415 296.519989014
579757.75 4180415 296.429992676
579758.5625 4180415 296.440002441
579759.0625 4180414.75 296.549987793
579759.9375 4180414.75 296.429992676
579760.5 4180415 296.140014648
579761.375 4180414.75 295.739990234
579761.9375 4180414.75 295.529998779
579762.8125 4180414.75 295.940002441
579748.9375 4180415.25 296.679992676
579749.6875 4180415.5 296.410003662
579750.125 4180415.5 296.5
579750.875 4180415.5 296.549987793
579751.3125 4180415.5 296.609985352
579752.125 4180415.5 296.450012207
579752.5625 4180415.25 296.570007324
579753.375 4180415.25 296.459991455
579753.875 4180415.5 296.630004883
579754.6875 4180415.5 296.239990234
579755.125 4180415.5 296.470001221
579756.4375 4180415.5 296.739990234
579757.25 4180415.5 296.600006104
579757.75 4180415.75 296.820007324
579758.625 4180415.5 296.589996338
579759.0625 4180415.25 296.519989014
579759.9375 4180415.5 296.600006104
579760.5 4180415.5 296.220001221
579761.375 4180415.25 295.920013428
579761.9375 4180415.5 295.950012207
579762.8125 4180415.25 296.359985352
579773.8125 4180415.5 293.350006104
579749.75 4180416 296.549987793
579750.875 4180416.25 296.540008545
579751.375 4180416 296.720001221
579752.125 4180416.25 296.730010986
579752.625 4180415.75 296.549987793
579753.4375 4180415.75 296.570007324
579753.875 4180416 296.660003662
579754.75 4180416.25 296.570007324
579755.1875 4180416 296.470001221
579755.9375 4180415.75 296.589996338
579756.4375 4180416 296.440002441
579757.25 4180416.25 296.829986572
579757.75 4180416.25 296.640014648
579758.625 4180416.25 296.790008545
579759.125 4180416 296.950012207
579760 4180416 296.850006104
579761.4375 4180416 296.290008545
579761.9375 4180416 296.380004883
579762.875 4180416 295.899993896
579763.375 4180416 295.940002441
579764.1875 4180416 297.790008545
579764.75 4180415.75 297.149993896
579766.125 4180415.75 298.179992676
579770.25 4180416.25 293.980010986
579750.125 4180416.25 296.799987793
579750.9375 4180416.75 296.609985352
579751.375 4180416.75 296.630004883
579752.1875 4180416.75 296.470001221
579753.4375 4180416.5 296.630004883
579753.9375 4180416.5 296.700012207
579754.75 4180416.75 296.640014648
579755.1875 4180416.75 296.640014648
579756 4180416.25 296.75
579756.5 4180416.5 296.660003662
579757.3125 4180416.75 296.859985352
579759.125 4180416.5 296.820007324
579760 4180416.75 296.970001221
579760.5625 4180416.25 296.429992676
579761.4375 4180416.5 296.309997559
579762 4180416.75 296.390014648
579762.875 4180416.5 295.910003662
579763.4375 4180416.5 295.869995117
579764.3125 4180416.5 295.829986572
579764.8125 4180416.25 295.709991455
579765.75 4180416.5 295.829986572
579766.1875 4180416.25 297.679992676
579767.0625 4180416.25 298.040008545
579770.8125 4180416.5 294.010009766
579773.3125 4180416.25 293.75
579773.625 4180416.75 298.070007324
579750.9375 4180417.25 296.690002441
579751.4375 4180417.25 296.779998779
579752.1875 4180417.25 296.720001221
579752.6875 4180417 296.989990234
579753.5 4180417 296.630004883
579753.9375 4180417.25 296.760009766
579755.25 4180417.25 296.700012207
579756 4180416.75 296.730010986
579756.5 4180417.25 296.859985352
579757.8125 4180416.75 296.690002441
579758.625 4180416.75 297.040008545
579759.1875 4180417.25 297.029998779
579760.0625 4180417.25 297.040008545
579760.5625 4180416.75 296.790008545
579761.5 4180417 296.709991455
579762 4180417.25 296.230010986
579762.9375 4180417 296.190002441
579763.4375 4180417 296.480010986
579764.375 4180417 296.089996338
579764.875 4180416.75 295.880004883
579765.8125 4180417 295.839996338
579766.1875 4180416.75 297.970001221
579767.125 4180416.75 298.179992676
579772.1875 4180417.25 297.299987793
579773.125 4180417.25 297.470001221
579751.5 4180417.75 296.679992676
579752.75 4180417.5 296.579986572
579753.5 4180417.75 296.829986572
579754 4180417.75 296.779998779
579754.75 4180417.25 296.809997559
579755.25 4180417.75 296.649993896
579756.0625 4180417.5 296.640014648
579756.5625 4180417.75 296.950012207
579757.3125 4180417.25 296.920013428
579757.8125 4180417.5 296.899993896
579758.6875 4180417.5 297.279998779
579760.0625 4180417.75 297.029998779
579760.5625 4180417.5 297.130004883
579761.5 4180417.75 297.200012207
579762.0625 4180417.75 296.640014648
579762.9375 4180417.75 296.059997559
579763.5 4180417.75 296.079986572
579764.375 4180417.75 296
579764.875 4180417.5 296.119995117
579765.8125 4180417.5 296.140014648
579766.25 4180417.25 297.459991455
579766.375 4180417.75 296.140014648
579767.125 4180417.5 298.040008545
579767.6875 4180417.5 298.079986572
579769.375 4180417.5 294.929992676
579770.25 4180417.5 294.730010986
579771.8125 4180417.5 293.839996338
579772.25 4180417.75 296.760009766
579751 4180418 296.790008545
579752.25 4180418 296.829986572
579752.75 4180418.25 296.760009766
579753.5625 4180418.25 296.850006104
579754 4180418.25 296.779998779
579754.8125 4180418 296.529998779
579756.0625 4180418 296.989990234
579756.5625 4180418.25 296.920013428
579757.375 4180418 296.959991455
579757.875 4180418 297.059997559
579760.625 4180418 297.109985352
579761.5 4180418.25 297.450012207
579763 4180418.25 296.470001221
579763.5 4180418.25 296.299987793
579764.375 4180418.25 296.609985352
579764.9375 4180418 296.170013428
579765.875 4180418.25 295.970001221
579766.375 4180418.5 296.480010986
579767.1875 4180418 298.070007324
579767.75 4180418 297.489990234
579768.8125 4180418.25 295.380004883
579769.375 4180418.25 295.5
579770.25 4180418 295.260009766
579770.875 4180418.25 295.010009766
579771.75 4180418.25 296.269989014
579749.875 4180419 296.760009766
579751 4180418.5 296.739990234
579751.5 4180418.5 296.910003662
579752.25 4180418.5 296.820007324
579752.8125 4180418.75 296.640014648
579753.625 4180418.75 296.799987793
579754.0625 4180419 296.75
579754.875 4180418.5 296.75
579755.3125 4180418.5 296.760009766
579756.125 4180418.5 297.100006104
579757.375 4180418.5 297.220001221
579757.875 4180418.5 297.380004883
579760.125 4180418.5 297.309997559
579760.6875 4180418.5 296.989990234
579761.5625 4180419 297.359985352
579762.0625 4180418.5 296.890014648
579763 4180419 296.609985352
579763.5625 4180418.75 296.410003662
579764.4375 4180419 296.559997559
579764.9375 4180418.75 296.170013428
579765.875 4180418.75 296.070007324
579766.4375 4180419 295.720001221
579767.25 4180418.5 298.059997559
579767.375 4180419 295.809997559
579767.8125 4180418.5 296.970001221
579767.9375 4180419 295.459991455
579768.875 4180419 295.529998779
579769.375 4180418.75 295.760009766
579770.3125 4180418.75 295.350006104
579770.875 4180419 295.529998779
579750.3125 4180419 296.679992676
579751.0625 4180419 296.730010986
579751.5 4180419 296.869995117
579752.3125 4180419 296.700012207
579752.8125 4180419.5 296.920013428
579753.625 4180419.5 296.899993896
579754.875 4180419 297.119995117
579755.3125 4180419 296.940002441
579756.125 4180419.25 297.279998779
579760.6875 4180419.25 297.140014648
579761.5625 4180419.5 297.049987793
579762.125 4180419 296.920013428
579763.0625 4180419.5 296.549987793
579763.5625 4180419.5 296.600006104
579764.5 4180419.5 296.399993896
579765 4180419.25 296.320007324
579765.9375 4180419.25 296.100006104
579766.5 4180419.5 295.679992676
579767.375 4180419.5 295.790008545
579768.875 4180419.5 296.049987793
579769.375 4180419.25 295.920013428
579751.5625 4180419.75 296.859985352
579752.375 4180419.75 296.809997559
579752.875 4180420 296.839996338
579754.9375 4180419.75 297.019989014
579755.375 4180419.75 297.010009766
579756.1875 4180419.75 297.179992676
579761.625 4180420 297.070007324
579762.125 4180419.5 296.950012207
579763.0625 4180420 296.820007324
579763.5625 4180420 296.890014648
579764.5 4180420 296.510009766
579765 4180419.75 296.200012207
579765.9375 4180420 296.540008545
579766.5625 4180420 295.589996338
579767.4375 4180420 295.700012207
579767.9375 4180419.5 295.869995117
579768.9375 4180420 295.730010986
579769.4375 4180420 295.619995117
579751.125 4180420.25 296.829986572
579753.6875 4180420.5 297.010009766
579754.125 4180420 296.970001221
579754.9375 4180420.25 297.190002441
579755.375 4180420.25 297.079986572
579761.625 4180420.75 297.190002441
579762.1875 4180420.25 297.130004883
579763.0625 4180420.75 296.959991455
579764.5 4180420.75 296.809997559
579765 4180420.5 296.769989014
579766 4180420.5 296.25
579768 4180420.25 295.760009766
579768.9375 4180420.75 295.920013428
579769.5 4180420.5 295.459991455
579751.625 4180420.75 296.779998779
579752.4375 4180420.75 296.940002441
579752.9375 4180421.25 296.989990234
579754.1875 4180420.75 297.040008545
579762.1875 4180420.75 297.100006104
579763.625 4180420.75 297.160003662
579764.5625 4180421.25 296.760009766
579765.0625 4180421 296.559997559
579766 4180421 296.390014648
579766.5625 4180420.75 296.260009766
579767.5 4180420.75 295.609985352
579768 4180420.75 296.149993896
579769.5 4180421 295.890014648
579754.1875 4180421.25 297.119995117
579760.8125 4180421.5 297.570007324
579762.1875 4180421.5 297.720001221
579763.125 4180421.25 297.149993896
579763.625 4180421.25 297.059997559
579765.125 4180421.5 296.839996338
579766 4180421.75 296.980010986
579766.5625 4180421.25 296.579986572
579767.5 4180421.25 295.829986572
579768.0625 4180421.25 295.799987793
579769 4180421.25 295.730010986
579760.3125 4180422 297.029998779
579763.125 4180421.75 297.299987793
579763.6875 4180421.75 297.299987793
579764.5625 4180421.75 297.079986572
579765.125 4180422.25 296.959991455
579766 4180422.25 297.130004883
579766.5625 4180422 296.459991455
579767.5 4180422 296.230010986
579768.0625 4180422 296.019989014
579769 4180421.75 295.890014648
579769.5625 4180422.25 295.869995117
579759 4180422.75 297.230010986
579759.5 4180422.5 297.190002441
579763.1875 4180422.5 297.170013428
579763.75 4180422.5 297.089996338
579764.625 4180422.5 297.089996338
579765.125 4180422.75 297.200012207
579766.625 4180422.5 296.600006104
579767.5625 4180422.5 296.140014648
579768.0625 4180422.5 296.220001221
579769.0625 4180422.5 295.700012207
579769.625 4180423 296.059997559
579763.75 4180423 297.200012207
579764.625 4180423 297.25
579765.1875 4180423.25 296.829986572
579766.0625 4180423 297.089996338
579766.625 4180423 296.670013428
579767.5625 4180423 296.279998779
579768.125 4180423.25 296.260009766
579769.0625 4180423 295.799987793
579769.625 4180423.5 295.880004883
579770.5 4180423.5 296.140014648
579774.1875 4180423.5 295.390014648
579757.75 4180423.75 297.239990234
579758.25 4180423.75 297.299987793
579764.625 4180423.5 297.540008545
579765.25 4180424 297.190002441
579766.0625 4180423.5 297.450012207
579766.6875 4180423.75 296.899993896
579767.625 4180423.75 296.5
579768.1875 4180423.75 296.279998779
579769.0625 4180423.5 296.119995117
579770.5625 4180424 296.450012207
579773.5625 4180423.5 295.549987793
579764.6875 4180424.25 297.769989014
579765.25 4180424.5 297.299987793
579766.125 4180424 297.010009766
579766.75 4180424.25 296.760009766
579767.625 4180424.25 296.519989014
579768.1875 4180424.25 296.679992676
579769.125 4180424.25 296.079986572
579769.6875 4180424 296.109985352
579770.625 4180424.5 296.029998779
579772.6875 4180424 295.700012207
579774.25 4180424.5 295.390014648
579757 4180424.75 297.160003662
579763.3125 4180424.75 296.989990234
579763.875 4180424.75 297.290008545
579765.25 4180425.25 297.470001221
579766.1875 4180424.75 297.040008545
579766.75 4180424.75 296.769989014
579767.6875 4180424.75 296.769989014
579768.1875 4180425 296.679992676
579769.125 4180424.75 296.209991455
579769.6875 4180424.5 295.880004883
579770.625 4180425.25 296.290008545
579771.25 4180424.75 295.709991455
579762.5 4180425.5 297.359985352
579766.1875 4180425.25 297.149993896
579766.75 4180425.5 297.010009766
579767.6875 4180425.5 297.079986572
579768.25 4180425.5 296.880004883
579769.1875 4180425.5 296.350006104
579769.75 4180425.25 296.299987793
579770.6875 4180425.75 296.149993896
579771.25 4180425.5 295.869995117
579761.9375 4180426 297.429992676
579766.25 4180425.75 297.260009766
579766.8125 4180426 297.059997559
579767.6875 4180426 297.140014648
579768.25 4180426 297.010009766
579769.1875 4180426 296.440002441
579769.75 4180425.75 296.339996338
579771.3125 4180426 295.890014648
579761.125 4180426.75 297.200012207
579766.8125 4180426.75 297.119995117
579767.75 4180426.75 297.179992676
579768.3125 4180426.75 297.100006104
579769.25 4180426.5 296.579986572
579769.75 4180426.5 296.519989014
579770.6875 4180426.25 296.170013428
579771.3125 4180426.5 296.010009766
579760.625 4180427.25 297.079986572
579766.875 4180427.25 297.299987793
579767.75 4180427.25 297.209991455
579768.3125 4180427.25 296.899993896
579769.25 4180427.25 296.529998779
579769.8125 4180427 296.470001221
579770.75 4180427 296.049987793
579771.375 4180427.25 296.140014648
579759.8125 4180427.75 297.540008545
579766.25 4180427.75 298.079986572
579766.9375 4180427.75 297.149993896
579767.8125 4180427.75 297.339996338
579768.375 4180428 297.130004883
579769.3125 4180427.75 296.470001221
579769.875 4180427.5 296.690002441
579770.75 4180427.5 296.059997559
579771.375 4180427.75 296.019989014
579772.3125 4180427.5 295.769989014
579772.9375 4180427.5 295.519989014
579773.75 4180427.75 296.630004883
579766.375 4180428.25 297.109985352
579766.9375 4180428.5 297.209991455
579767.875 4180428.25 296.809997559
579768.375 4180428.5 296.970001221
579769.3125 4180428.25 296.859985352
579769.875 4180428.25 296.549987793
579770.75 4180428 296.809997559
579771.4375 4180428.25 296.040008545
579772.3125 4180428 295.600006104
579772.9375 4180428.25 295.640014648
579765 4180428.75 297.200012207
579765.5 4180428.75 297.320007324
579766.4375 4180428.75 297.049987793
579767 4180429 297.130004883
579767.875 4180429 296.940002441
579768.4375 4180429 296.739990234
579769.375 4180429 296.480010986
579769.9375 4180428.75 296.279998779
579770.8125 4180428.75 296.489990234
579771.4375 4180429 296.220001221
579772.375 4180428.75 295.980010986
579773 4180428.75 295.720001221
579773.875 4180428.75 295.829986572
579774.5 4180428.75 295.279998779
579765 4180429.5 297.109985352
579765.5625 4180429.25 297.160003662
579766.4375 4180429.25 297.040008545
579767 4180429.5 297.089996338
579767.9375 4180429.5 296.660003662
579768.5 4180429.5 296.809997559
579769.4375 4180429.5 296.25
579769.9375 4180429.25 296.579986572
579770.875 4180429.25 296.230010986
579771.5 4180429.5 295.880004883
579772.375 4180429.25 295.989990234
579773 4180429.5 295.950012207
579773.9375 4180429.25 295.720001221
579774.5 4180429.25 295.720001221
579757.3125 4180430 297.299987793
579763.625 4180430 297.140014648
579764.1875 4180430 297.230010986
579765.0625 4180430 297.239990234
579765.5625 4180429.75 297.309997559
579766.5 4180430 297.170013428
579767.0625 4180430 296.880004883
579768 4180430 296.540008545
579768.5625 4180430.25 296.440002441
579769.4375 4180430 296.359985352
579770 4180430 296.200012207
579770.875 4180429.75 296.329986572
579771.5 4180430 295.880004883
579772.4375 4180429.75 295.5
579773 4180430 296.049987793
579756.0625 4180430.75 297.140014648
579762.8125 4180430.75 297.350006104
579763.6875 4180430.5 297.100006104
579764.25 4180430.5 297.049987793
579765.0625 4180430.5 296.950012207
579765.625 4180430.25 297.049987793
579766.5 4180430.5 296.769989014
579767.125 4180430.75 296.660003662
579768 4180430.75 296.410003662
579769.5 4180430.5 296.100006104
579770.0625 4180430.5 296.059997559
579770.9375 4180430.25 296.010009766
579771.5 4180430.75 296.570007324
579756.875 4180430.75 297.070007324
579762.25 4180431.25 297.470001221
579763.6875 4180431.25 297.220001221
579764.25 4180431.25 297.130004883
579765.125 4180431 296.799987793
579765.625 4180431 297.160003662
579766.5625 4180431 296.709991455
579767.125 4180431.25 296.559997559
579768.0625 4180431.25 296.5
579768.5625 4180430.75 296.670013428
579768.625 4180431.25 296.190002441
579769.5 4180431.25 296.299987793
579770.0625 4180431 296.459991455
579770.875 4180431.25 298.140014648
579754.375 4180431.5 297.010009766
579755.625 4180431.25 297.049987793
579756.875 4180431.5 297.200012207
579762.3125 4180431.75 297.200012207
579762.8125 4180431.25 297.339996338
579763.75 4180431.75 297.200012207
579764.3125 4180431.75 297.019989014
579765.1875 4180431.75 297.079986572
579765.6875 4180431.5 297.230010986
579766.625 4180431.5 296.489990234
579767.1875 4180431.75 296.579986572
579768.0625 4180431.75 296.279998779
579769.5625 4180431.75 296.070007324
579770.125 4180431.75 296.230010986
579753.125 4180431.75 296.880004883
579754.4375 4180432.25 296.880004883
579754.9375 4180432.5 297.070007324
579755.6875 4180432 297.089996338
579761.5 4180432 297.279998779
579762.375 4180432.25 297.220001221
579762.875 4180432 297.209991455
579763.75 4180432.25 296.989990234
579764.3125 4180432.25 296.970001221
579765.25 4180432.25 296.459991455
579765.75 4180432 296.660003662
579766.625 4180432.25 296.260009766
579767.25 4180432.5 296.399993896
579768.125 4180432.5 296.160003662
579768.625 4180432 296.320007324
579769.625 4180432.25 296.040008545
579770.1875 4180432.25 295.829986572
579755 4180433 296.859985352
579756.9375 4180432.5 297.190002441
579757.5 4180433 297.279998779
579760.125 4180433 297.369995117
579761 4180433 297.119995117
579761.5 4180432.5 297.040008545
579762.375 4180433 297.25
579762.9375 4180432.5 297
579763.8125 4180433 296.760009766
579764.375 4180433 296.989990234
579765.25 4180432.75 296.470001221
579765.8125 4180432.5 296.440002441
579766.6875 4180432.75 296.290008545
579768.1875 4180433 296.070007324
579768.6875 4180432.5 296.119995117
579769.625 4180433 296.329986572
579754.5 4180433.25 297.010009766
579757 4180433.25 297.209991455
579757.5625 4180433.5 297.059997559
579758.3125 4180433 297.269989014
579758.8125 4180433.25 297.160003662
579759.625 4180433 297.320007324
579760.1875 4180433.5 297.079986572
579761.5625 4180433.25 297.399993896
579762.4375 4180433.5 297.040008545
579763 4180433 296.910003662
579763.875 4180433.5 296.760009766
579764.375 4180433.5 297.029998779
579765.3125 4180433.5 296.570007324
579765.8125 4180433.25 296.540008545
579766.75 4180433.25 296.269989014
579767.25 4180433 296.160003662
579768.75 4180433 296.059997559
579754.5625 4180434 296.75
579757.0625 4180433.75 297.049987793
579758.875 4180433.75 297.220001221
579760.1875 4180434 297.25
579761 4180433.5 297.109985352
579761.5625 4180433.75 297.290008545
579762.5 4180434 296.809997559
579763 4180433.5 296.690002441
579763.875 4180434 296.730010986
579764.4375 4180434 296.570007324
579765.3125 4180434 296.380004883
579765.875 4180433.75 296.399993896
579766.75 4180434 296.329986572
579767.3125 4180433.5 296.440002441
579768.1875 4180433.5 296.109985352
579768.75 4180433.5 295.970001221
579753.25 4180434.25 296.779998779
579755.8125 4180434.25 296.980010986
579756.3125 4180434.25 297.070007324
579757.0625 4180434.25 296.980010986
579758.875 4180434.25 297.109985352
579760.25 4180434.5 297.130004883
579761.0625 4180434.25 297.040008545
579761.625 4180434.25 297
579762.5 4180434.5 296.660003662
579763.0625 4180434.25 296.660003662
579763.9375 4180434.5 296.619995117
579764.5 4180434.5 296.440002441
579765.375 4180434.5 296.540008545
579765.9375 4180434.25 296.320007324
579766.8125 4180434.5 296.160003662
579767.3125 4180434.25 296.510009766
579768.25 4180434.25 296.130004883
579768.75 4180434.25 296.420013428
579755.875 4180434.75 296.970001221
579756.3125 4180434.75 296.859985352
579757.125 4180435 297.160003662
579758.375 4180434.75 297.070007324
579758.9375 4180435 297.269989014
579759.75 4180434.75 297.059997559
579760.3125 4180435.25 297.059997559
579761.125 4180434.75 296.989990234
579761.6875 4180435 296.929992676
579762.5625 4180435.25 296.579986572
579763.0625 4180434.75 296.679992676
579764 4180435.25 296.649993896
579764.5625 4180435.25 296.309997559
579765.375 4180435.25 296.529998779
579765.9375 4180435 296.549987793
579766.8125 4180435 296.179992676
579767.375 4180434.75 296.190002441
579768.25 4180434.75 296.529998779
579754.625 4180435.75 296.869995117
579757.125 4180435.5 297.179992676
579757.625 4180435.25 297.179992676
579758.4375 4180435.5 297.089996338
579759 4180435.5 297.170013428
579759.75 4180435.5 297.299987793
579761.125 4180435.25 296.950012207
579761.6875 4180435.5 297.149993896
579762.5625 4180435.75 296.709991455
579763.125 4180435.25 296.519989014
579764 4180435.75 296.660003662
579764.5625 4180435.75 296.429992676
579765.4375 4180435.75 296.399993896
579766 4180435.5 296.339996338
579766.875 4180435.75 296.130004883
579767.4375 4180435.25 296.079986572
579768.3125 4180435.25 296.239990234
579768.875 4180435.25 296.079986572
579770.375 4180435.75 295.869995117
579756.4375 4180436 297.010009766
579757.1875 4180436 297.089996338
579757.6875 4180435.75 296.989990234
579758.5 4180436 297.109985352
579759 4180436 297.299987793
579759.8125 4180436 297.160003662
579760.3125 4180435.75 297.049987793
579761.1875 4180435.75 296.739990234
579761.75 4180436 297
579762.625 4180436.25 296.679992676
579763.1875 4180436 296.489990234
579765.5 4180436.25 296.160003662
579766 4180436 296.239990234
579766.875 4180436.25 296.089996338
579767.4375 4180435.75 296.290008545
579768.3125 4180435.75 296.019989014
579768.9375 4180436 295.869995117
579769.8125 4180435.75 296.049987793
579770.375 4180436.25 296.140014648
579754.6875 4180436.75 297
579755.9375 4180436.5 296.989990234
579756.4375 4180436.5 296.959991455
579757.25 4180436.75 297.130004883
579758.5 4180436.5 296.940002441
579759.0625 4180436.75 297.109985352
579759.875 4180436.5 296.890014648
579760.375 4180436.25 297.029998779
579761.25 4180436.5 296.75
579761.8125 4180436.75 296.700012207
579762.625 4180437 296.709991455
579763.1875 4180436.5 296.489990234
579764.0625 4180436.25 296.540008545
579764.625 4180436.25 296.5
579765.5 4180437 296.119995117
579766.0625 4180436.75 296.170013428
579766.9375 4180436.75 296.100006104
579767.5 4180436.5 296.179992676
579768.375 4180436.5 295.899993896
579768.9375 4180436.5 296
579769.8125 4180436.5 295.950012207
579770.4375 4180437 296.079986572
579754.75 4180437.5 296.950012207
579756.5 4180437.25 297.059997559
579757.25 4180437.25 297.019989014
579758.5625 4180437.25 297.220001221
579759.0625 4180437.25 297.049987793
579759.875 4180437.25 297.059997559
579760.4375 4180437 296.75
579761.25 4180437 296.630004883
579761.8125 4180437.25 297.029998779
579763.25 4180437 296.380004883
579764.0625 4180437 296.380004883
579764.625 4180437 296.570007324
579766.0625 4180437.25 296.350006104
579767 4180437.5 296.049987793
579767.5625 4180437 295.959991455
579768.4375 4180437 295.869995117
579769 4180437 296.100006104
579769.875 4180437 295.970001221
579755.25 4180437.5 296.989990234
579756.5 4180437.75 297.049987793
579757.3125 4180437.75 297.109985352
579757.8125 4180437.5 297.239990234
579758.5625 4180437.75 297.029998779
579759.125 4180437.75 297.049987793
579759.9375 4180437.75 296.820007324
579760.4375 4180437.5 297
579761.3125 4180437.5 296.579986572
579761.875 4180437.75 296.869995117
579762.6875 4180437.5 296.700012207
579763.25 4180437.75 296.470001221
579764.125 4180437.5 296.299987793
579764.6875 4180437.5 296.339996338
579765.5625 4180437.5 296.230010986
579766.125 4180437.75 296.200012207
579767 4180438 296.200012207
579767.5625 4180437.75 296.089996338
579768.4375 4180437.5 296.119995117
579769 4180437.75 296.109985352
579769.875 4180437.5 295.959991455
579754 4180438 296.859985352
579755.3125 4180438.25 296.920013428
579756.5625 4180438.25 296.899993896
579757.3125 4180438.5 297.179992676
579757.8125 4180438.25 297.040008545
579758.625 4180438.25 297.010009766
579759.1875 4180438.5 296.929992676
579759.9375 4180438.25 296.910003662
579760.5 4180438 296.820007324
579761.3125 4180438.25 296.929992676
579761.9375 4180438.5 296.670013428
579762.75 4180438 296.649993896
579763.3125 4180438.25 296.410003662
579764.125 4180438 296.480010986
579764.75 4180438 296.429992676
579765.5625 4180438 296.299987793
579766.1875 4180438.5 296.220001221
579767 4180438.5 296.220001221
579767.5625 4180438.25 296.350006104
579768.4375 4180438.25 296.230010986
579769.0625 4180438.25 296.010009766
579769.9375 4180438.25 296.049987793
579754.8125 4180438.5 296.970001221
579755.3125 4180438.75 296.829986572
579757.875 4180438.75 297.010009766
579758.6875 4180439 296.820007324
579760 4180439 297
579760.5 4180438.75 296.989990234
579761.375 4180438.75 296.760009766
579761.9375 4180439 296.649993896
579762.75 4180438.75 296.5
579763.3125 4180438.75 296.730010986
579764.1875 4180438.75 296.450012207
579764.75 4180438.75 296.679992676
579765.625 4180438.75 296.290008545
579766.1875 4180439 296.239990234
579767.625 4180438.75 296.109985352
579768.5 4180438.75 296.140014648
579769.0625 4180438.75 295.929992676
579754.875 4180439.25 296.929992676
579755.375 4180439.25 296.989990234
579756.125 4180439.5 297.070007324
579756.625 4180439.5 297.070007324
579757.4375 4180439.5 296.820007324
579757.9375 4180439.25 297.070007324
579758.6875 4180439.5 297.190002441
579759.25 4180439.5 297.119995117
579760 4180439.5 296.980010986
579760.5625 4180439.25 296.829986572
579761.375 4180439.25 296.700012207
579762 4180439.5 296.709991455
579762.8125 4180439.25 296.679992676
579763.375 4180439.5 296.799987793
579764.25 4180439.25 296.440002441
579764.8125 4180439.25 296.420013428
579765.625 4180439.25 296.489990234
579766.25 4180439.5 296.239990234
579767.0625 4180439.25 296.309997559
579767.6875 4180439.5 296.260009766
579768.5 4180439.5 296.239990234
579769.125 4180439.5 295.890014648
579770 4180439.25 295.859985352
579770.5625 4180439.25 295.730010986
579755.4375 4180440 296.970001221
579756.1875 4180440 296.989990234
579757.9375 4180440 297
579758.75 4180440 297.029998779
579759.25 4180440.25 297.019989014
579760.0625 4180440 296.809997559
579760.625 4180439.75 296.959991455
579761.4375 4180440 296.910003662
579762 4180440.25 296.700012207
579762.8125 4180439.75 296.600006104
579763.4375 4180440 296.730010986
579764.25 4180439.75 296.579986572
579764.8125 4180439.75 296.489990234
579765.6875 4180439.75 296.589996338
579766.25 4180440.25 296.230010986
579767.125 4180439.75 296.269989014
579767.6875 4180440 296.100006104
579768.5625 4180440 296.049987793
579769.1875 4180440 295.980010986
579770.0625 4180440 295.869995117
579770.625 4180439.75 295.910003662
579755.4375 4180440.5 296.880004883
579756.6875 4180440.75 297.130004883
579758 4180440.5 297
579758.75 4180440.75 297.209991455
579759.3125 4180440.75 297.089996338
579760.125 4180440.75 296.899993896
579760.625 4180440.5 297.049987793
579761.4375 4180440.5 297.109985352
579762.0625 4180440.75 296.799987793
579762.875 4180440.5 296.899993896
579763.4375 4180440.5 296.929992676
579764.25 4180440.5 296.609985352
579764.875 4180440.5 296.440002441
579765.6875 4180440.5 296.589996338
579766.3125 4180440.75 296.369995117
579767.125 4180440.25 296.359985352
579767.75 4180440.5 296.239990234
579768.625 4180440.5 296.010009766
579769.1875 4180440.5 296.119995117
579770.0625 4180440.5 295.950012207
579770.625 4180440.25 296.029998779
579756.25 4180441.25 297.059997559
579757.5 4180441.25 297.059997559
579758 4180441 296.779998779
579758.8125 4180441.25 297.260009766
579759.3125 4180441.25 297.149993896
579760.125 4180441.25 297.230010986
579760.6875 4180441 297.029998779
579761.5 4180441 297.029998779
579762.0625 4180441.25 297.049987793
579762.875 4180441 296.910003662
579763.5 4180441.25 296.859985352
579764.3125 4180441 296.679992676
579764.875 4180441 296.910003662
579765.75 4180441 296.450012207
579766.3125 4180441.25 296.549987793
579767.1875 4180441 296.200012207
579767.75 4180441.25 296.040008545
579768.625 4180441 296.089996338
579769.25 4180441.25 296.059997559
579770.125 4180441 295.910003662
579770.6875 4180441 295.980010986
