# .PCD v.7 - Point Cloud Data file format
VERSION .7
FIELDS x y z
SIZE 4 4 4
TYPE F F F
COUNT 1 1 1
WIDTH 1016
HEIGHT 1
VIEWPOINT 0 0 0 1 0 0 0
POINTS 1016
DATA ascii
579748.75 4180412.5 296.970001221
579749.5 4180412.5 296.929992676
579750.625 4180412.75 297.059997559
579749.5 4180413.25 297.149993896
579745.25 4180414 297.209991455
579747.1875 4180413.75 297.399993896
579748.375 4180413.5 296.709991455
579748.8125 4180413.5 296.809997559
579749.5625 4180413.75 297.059997559
579750 4180414 297
579744.875 4180414.5 296.980010986
579746.0625 4180414 297.109985352
579747.25 4180414.25 296.820007324
579747.6875 4180414 296.829986572
579748.4375 4180414 296.940002441
579749.5625 4180414.25 296.989990234
579750 4180414.5 297.029998779
579743.6875 4180415 297.170013428
579744.125 4180414.75 297.359985352
579744.875 4180415 297.079986572
579745.25 4180414.5 297.480010986
579746.0625 4180414.5 296.899993896
579746.5 4180414.5 296.869995117
579747.3125 4180415 296.670013428
579747.75 4180414.75 296.839996338
579748.9375 4180414.75 296.760009766
579743.75 4180415.5 297.100006104
579744.125 4180415.25 297.570007324
579744.9375 4180415.5 297.149993896
579745.3125 4180415.25 297.470001221
579746.125 4180415.25 297.209991455
579746.5 4180415.25 296.970001221
579747.375 4180415.5 296.829986572
579747.75 4180415.25 296.649993896
579748.5 4180415.25 296.829986572
579742.625 4180415.75 297.239990234
579743 4180415.75 297.299987793
579743.8125 4180416.25 297.140014648
579744.1875 4180416 297.549987793
579744.9375 4180416.25 297.589996338
579745.375 4180415.75 297.320007324
579746.1875 4180415.75 296.760009766
579746.5625 4180415.75 297.029998779
579747.375 4180416 297.019989014
579747.8125 4180415.75 296.739990234
579748.5625 4180415.75 296.720001221
579749 4180416 296.829986572
579742.625 4180416.5 297.260009766
579743.0625 4180416.25 297.390014648
579744.1875 4180416.5 297.640014648
579745 4180416.75 297.130004883
579745.4375 4180416.25 297.070007324
579746.1875 4180416.25 296.779998779
579746.625 4180416.25 296.989990234
579747.4375 4180416.75 296.779998779
579747.8125 4180416.5 296.920013428
579748.5625 4180416.25 296.779998779
579749 4180416.5 296.880004883
579749.75 4180416.75 296.950012207
579742.6875 4180417 297.179992676
579743.0625 4180417 297.470001221
579743.8125 4180416.75 297.230010986
579744.25 4180417 297.649993896
579745.4375 4180416.75 297.410003662
579746.25 4180417 296.910003662
579746.625 4180417 296.959991455
579747.4375 4180417.25 296.950012207
579747.875 4180417 296.790008545
579748.625 4180417 296.829986572
579749.0625 4180417 296.739990234
579749.8125 4180417.25 296.820007324
579750.1875 4180416.75 296.920013428
579745.5 4180417.5 297.260009766
579746.25 4180417.5 297
579746.6875 4180417.5 296.970001221
579747.5 4180417.75 296.989990234
579747.9375 4180417.5 296.850006104
579748.625 4180417.5 296.920013428
579749.125 4180417.75 296.850006104
579749.8125 4180417.75 297.100006104
579750.25 4180417.5 296.839996338
579745.5 4180418 297.149993896
579746.3125 4180418 296.880004883
579746.6875 4180418 297.309997559
579747.9375 4180418.25 296.959991455
579748.6875 4180418 296.820007324
579749.125 4180418.25 297.070007324
579749.875 4180418.5 297.040008545
579750.25 4180418 296.820007324
579745.5625 4180418.5 297.170013428
579746.3125 4180418.75 297.350006104
579746.75 4180418.75 297.299987793
579747.5 4180418.5 296.970001221
579748 4180418.75 296.920013428
579748.6875 4180418.75 298.119995117
579749.125 4180419 298.149993896
579750.3125 4180418.5 296.910003662
579745.625 4180419.25 297.329986572
579746.375 4180419.25 297.679992676
579746.8125 4180419.25 296.989990234
579747.5625 4180419 296.929992676
579748 4180419.25 297.429992676
579745.625 4180419.75 297.299987793
579746.375 4180420 297.619995117
579746.8125 4180419.75 297.089996338
579747.625 4180419.5 296.950012207
579748 4180420 297.579986572
579748.75 4180420 297.970001221
579749.125 4180419.5 298.470001221
579749.25 4180420 296.929992676
579749.9375 4180419.5 297.109985352
579750.375 4180419.75 296.820007324
579751.0625 4180419.75 297.059997559
579753.625 4180420 297.089996338
579754.0625 4180419.5 297.200012207
579757.375 4180419.75 299.029998779
579745.6875 4180420.5 297.309997559
579746.4375 4180420.5 297.420013428
579746.875 4180420.5 296.880004883
579747.625 4180420.25 297.070007324
579748.125 4180420.5 297.119995117
579748.8125 4180420.5 296.859985352
579749.25 4180420.5 297.049987793
579749.9375 4180420.25 297.109985352
579750.375 4180420.25 296.989990234
579751.625 4180420.25 296.929992676
579752.375 4180420.25 297.029998779
579752.875 4180420.5 297.059997559
579756.125 4180420.5 298.820007324
579756.625 4180420.25 298.829986572
579760.0625 4180420.5 299.529998779
579742.9375 4180421 297.450012207
579743.375 4180421 297.399993896
579744.0625 4180421 297.579986572
579744.5625 4180421.25 297.269989014
579745.25 4180420.75 297.459991455
579745.6875 4180421 297.350006104
579746.5 4180421 297.130004883
579746.875 4180421 297.25
579747.6875 4180420.75 297.109985352
579748.125 4180421 297.380004883
579748.875 4180421 297.170013428
579749.3125 4180421.25 297.140014648
579750 4180420.75 297.010009766
579750.4375 4180421 296.950012207
579751.1875 4180420.75 296.989990234
579753.75 4180421.25 297.279998779
579755 4180421 297.309997559
579755.375 4180421 298.579986572
579756.125 4180421.25 299.230010986
579760.1875 4180421 298.809997559
579760.6875 4180421 299.089996338
579743 4180421.75 297.399993896
579743.375 4180421.5 297.510009766
579744.125 4180421.5 297.380004883
579744.5625 4180421.75 297.5
579745.25 4180421.5 297.649993896
579745.75 4180421.5 297.540008545
579746.5 4180421.5 297.119995117
579746.9375 4180421.5 297.309997559
579747.6875 4180421.25 297.109985352
579748.1875 4180421.75 297.029998779
579748.9375 4180421.5 297
579749.3125 4180421.75 297.25
579750.0625 4180421.25 297
579750.5 4180421.5 296.929992676
579751.1875 4180421.5 296.940002441
579751.6875 4180421.5 297.010009766
579752.4375 4180421.5 297.049987793
579753 4180421.75 297.079986572
579753.75 4180421.75 297.350006104
579754.9375 4180421.5 298.75
579755.375 4180421.5 299.029998779
579758.8125 4180421.75 299.459991455
579759.3125 4180421.5 299.290008545
579760.1875 4180421.5 298.660003662
579761.625 4180421.25 298.619995117
579743 4180422.25 297.450012207
579743.4375 4180422.25 297.290008545
579744.125 4180422 297.589996338
579744.625 4180422.25 297.350006104
579745.3125 4180422 297.630004883
579745.8125 4180422 297.309997559
579746.5625 4180422.25 297.450012207
579747 4180422.25 297.119995117
579747.75 4180422 297.140014648
579748.1875 4180422.25 297.089996338
579748.9375 4180422.25 297.269989014
579749.375 4180422.25 297.049987793
579750.0625 4180422 297.019989014
579750.5 4180422 296.989990234
579751.25 4180422 296.929992676
579751.6875 4180422 297.109985352
579752.5 4180422 297.010009766
579753 4180422.25 297.239990234
579754.1875 4180422 298.579986572
579758.875 4180422.25 298.730010986
579759.375 4180422 298.799987793
579760.75 4180422.25 299.140014648
579761.625 4180422 298.670013428
579762.125 4180422.25 299.540008545
579743.0625 4180422.75 297.510009766
579743.4375 4180422.75 297.609985352
579744.1875 4180422.5 297.350006104
579744.625 4180423 297.320007324
579745.375 4180422.75 297.529998779
579745.8125 4180422.75 297.399993896
579746.625 4180422.75 297.089996338
579747 4180422.75 297.260009766
579747.8125 4180422.5 297.130004883
579748.25 4180422.75 297.220001221
579749 4180422.75 297.339996338
579750.125 4180422.5 297.100006104
579750.5625 4180422.75 297.119995117
579751.25 4180422.5 297.160003662
579751.75 4180422.5 297.160003662
579752.5 4180422.5 297.25
579753.6875 4180422.5 298.690002441
579754.1875 4180422.5 298.890014648
579758.0625 4180422.75 298.730010986
579760.25 4180422.75 298.709991455
579760.75 4180423 299.619995117
579761.625 4180422.5 299.540008545
579743.0625 4180423.5 297.589996338
579743.5 4180423.25 297.450012207
579744.1875 4180423.25 297.959991455
579744.6875 4180423.5 297.220001221
579745.4375 4180423.25 297.220001221
579745.875 4180423.25 297.290008545
579746.625 4180423.5 297.399993896
579747.0625 4180423.25 297.279998779
579747.8125 4180423 297.200012207
579748.3125 4180423.5 297.140014648
579749 4180423.5 297.290008545
579749.4375 4180423 297.380004883
579750.125 4180423.25 297.359985352
579750.5625 4180423.25 297.190002441
579751.3125 4180423.25 297.070007324
579751.75 4180423.25 297.350006104
579752.5 4180423.25 298.429992676
579752.9375 4180423 298.630004883
579757.625 4180423.25 298.769989014
579758.1875 4180423.25 297.910003662
579759 4180423.25 298.070007324
579759.5 4180423 298.269989014
579760.3125 4180423.25 299.119995117
579743.5625 4180424 297.519989014
579744.25 4180423.75 297.470001221
579745.4375 4180423.75 297.260009766
579745.9375 4180423.75 297.290008545
579746.6875 4180424 297.260009766
579747.0625 4180424 297.440002441
579747.875 4180423.75 297.190002441
579748.3125 4180424 297.160003662
579749.0625 4180424 297.079986572
579749.4375 4180423.5 297.489990234
579750.125 4180423.75 297.600006104
579750.625 4180423.75 297.190002441
579751.3125 4180423.75 297.420013428
579751.8125 4180423.75 297.809997559
579752.5 4180424 298.630004883
579753 4180423.75 298.899993896
579756.8125 4180423.75 298.790008545
579759 4180424 298.769989014
579759.5 4180423.75 298.920013428
579760.3125 4180424 299.630004883
579763.125 4180423.75 299.040008545
579763.6875 4180423.75 298.720001221
579743.125 4180424 297.700012207
579743.5625 4180424.5 297.459991455
579744.3125 4180424.25 297.480010986
579744.6875 4180424 297.640014648
579745.5 4180424.25 297.320007324
579745.9375 4180424.5 297.429992676
579746.6875 4180424.5 297.459991455
579747.125 4180424.5 297.329986572
579747.875 4180424.25 297.239990234
579748.375 4180424.5 297.380004883
579749.0625 4180424.5 297.059997559
579749.5 4180424 297.070007324
579750.1875 4180424.25 297.339996338
579750.6875 4180424.5 297.119995117
579751.375 4180424.25 297.200012207
579751.8125 4180424.5 298.140014648
579753 4180424.25 298.920013428
579756.375 4180424.5 298.700012207
579756.875 4180424.25 298.399993896
579757.6875 4180424.5 298.690002441
579758.1875 4180424.5 298.739990234
579761.75 4180424.25 299.660003662
579762.3125 4180424.5 299.380004883
579763.1875 4180424.25 298.549987793
579763.75 4180424.25 298.070007324
579743.1875 4180424.5 297.480010986
579743.625 4180425 297.570007324
579744.3125 4180425 297.5
579744.75 4180424.75 297.329986572
579745.5 4180425 297.260009766
579746 4180425 297.359985352
579746.75 4180425 297.119995117
579747.1875 4180425 297.290008545
579747.9375 4180425 297.540008545
579749.125 4180425.25 297.309997559
579749.5625 4180424.75 297.089996338
579750.25 4180424.75 297.260009766
579750.6875 4180425 297.420013428
579751.4375 4180425 297.109985352
579751.875 4180425 298.119995117
579752.5625 4180425 298.799987793
579753.0625 4180424.75 298.690002441
579755.625 4180425 298.739990234
579756.5 4180425 297.359985352
579757.6875 4180425 299.130004883
579761.8125 4180425 299.100006104
579762.375 4180425 298.850006104
579764.625 4180425 299.239990234
579743.1875 4180425.25 297.75
579743.6875 4180425.75 297.410003662
579744.375 4180425.5 297.649993896
579744.8125 4180425.25 297.309997559
579745.5625 4180425.5 297.489990234
579746 4180425.5 297.380004883
579746.75 4180425.75 297.279998779
579747.1875 4180425.75 297.260009766
579747.9375 4180425.5 297.320007324
579748.375 4180425.25 297.320007324
579749.5625 4180425.25 297.130004883
579750.3125 4180425.5 297.119995117
579750.75 4180425.5 297.269989014
579751.4375 4180425.5 297.470001221
579751.9375 4180425.5 297.600006104
579752.6875 4180425.5 297.329986572
579753.125 4180425.5 298.630004883
579753.875 4180425.25 298.799987793
579754.375 4180425.5 299.049987793
579755.1875 4180425.75 298.589996338
579755.75 4180425.5 297.369995117
579756.9375 4180425.5 298.850006104
579761.8125 4180425.5 299.140014648
579763.25 4180425.5 298.730010986
579763.8125 4180425.5 298.739990234
579764.625 4180425.5 299.559997559
579743.25 4180425.75 297.600006104
579743.6875 4180426.25 297.350006104
579744.4375 4180426 297.489990234
579744.8125 4180425.75 297.420013428
579745.5625 4180426.25 297.529998779
579746.0625 4180426.25 297.299987793
579748 4180426 297.25
579748.4375 4180425.75 297.320007324
579749.1875 4180425.75 297.140014648
579749.625 4180426 297.339996338
579750.3125 4180426 297.25
579750.75 4180426.25 297.269989014
579751.5 4180426 297.450012207
579751.9375 4180426 297.309997559
579752.75 4180426 297.260009766
579753.125 4180426 298.529998779
579753.9375 4180426 298.619995117
579754.4375 4180426 298.630004883
579755.25 4180426.25 297.799987793
579755.6875 4180426.25 298.190002441
579756.4375 4180425.75 298.809997559
579760.5 4180426.25 299.010009766
579761 4180425.75 299.320007324
579762.4375 4180426.25 298.339996338
579763.25 4180426 299.209991455
579763.8125 4180426 299.190002441
579743.3125 4180426.25 297.410003662
579743.75 4180426.75 297.480010986
579744.4375 4180426.75 297.309997559
579744.875 4180426.5 297.589996338
579745.625 4180426.75 297.399993896
579746.0625 4180426.75 297.510009766
579746.8125 4180426.25 297.290008545
579747.25 4180426.25 297.290008545
579748.0625 4180426.5 297.200012207
579748.5 4180426.25 297.369995117
579749.1875 4180426.25 297.220001221
579749.625 4180426.5 297.279998779
579750.375 4180426.5 297.25
579750.8125 4180426.75 297.309997559
579751.5 4180426.75 297.170013428
579752 4180426.75 297.119995117
579752.75 4180426.75 297.410003662
579753.25 4180426.5 297.290008545
579754 4180426.5 298.739990234
579754.5 4180426.5 297.489990234
579755.25 4180426.75 298.619995117
579756.5 4180426.25 299.130004883
579759.625 4180426.75 299.350006104
579760.5 4180426.75 298.890014648
579761 4180426.25 298.970001221
579761.9375 4180426.5 298.600006104
579762.5 4180426.75 298.730010986
579763.3125 4180426.75 299.630004883
579763.8125 4180426.75 299.839996338
579742.625 4180427 297.359985352
579743.3125 4180427 297.429992676
579744.5 4180427.25 297.519989014
579744.9375 4180427 297.600006104
579745.6875 4180427.25 297.420013428
579746.125 4180427.25 297.329986572
579746.875 4180427 297.339996338
579747.25 4180426.75 297.380004883
579748.0625 4180427.25 297.170013428
579748.5 4180427 297.299987793
579749.25 4180427 297.329986572
579749.6875 4180427 297.179992676
579750.375 4180427.25 297.089996338
579750.8125 4180427.25 297.260009766
579751.5625 4180427.25 297.290008545
579752.0625 4180427.25 297.089996338
579752.8125 4180427.25 297.390014648
579753.3125 4180427 297.309997559
579754.0625 4180427 297.25
579754.5 4180427.25 298.260009766
579759.6875 4180427.25 298.700012207
579761.9375 4180427.25 298.730010986
579763.875 4180427.25 299.820007324
579742.625 4180427.5 297.679992676
579743.375 4180427.5 297.519989014
579743.75 4180427.5 297.609985352
579744.5 4180427.75 297.489990234
579744.9375 4180427.5 297.709991455
579745.75 4180427.75 297.179992676
579746.1875 4180428 297.359985352
579746.875 4180427.5 297.329986572
579747.3125 4180427.5 297.450012207
579748.125 4180427.75 297.279998779
579748.5625 4180427.5 297.5
579749.25 4180427.5 297.290008545
579749.75 4180427.75 297.359985352
579750.4375 4180427.75 297.220001221
579750.875 4180428 297.059997559
579751.625 4180427.75 297.140014648
579752.0625 4180427.75 297.149993896
579752.8125 4180427.75 297.309997559
579753.3125 4180427.5 297.470001221
579754.125 4180427.5 297.25
579754.5625 4180427.75 297.559997559
579755.3125 4180427.5 298.850006104
579759.1875 4180427.5 298.75
579759.25 4180428 297.660003662
579760.5625 4180428 299.019989014
579761.125 4180427.5 298.760009766
579762.4375 4180427.5 299.529998779
579764.75 4180427.75 299.709991455
579742.6875 4180428.25 297.579986572
579743.375 4180428 297.470001221
579743.8125 4180428 297.600006104
579744.5625 4180428.5 297.600006104
579745 4180428 297.220001221
579745.75 4180428.5 297.170013428
579746.9375 4180428 297.350006104
579747.375 4180428 297.309997559
579748.125 4180428.25 297.440002441
579748.5625 4180428 297.640014648
579749.3125 4180428 297.420013428
579749.75 4180428.25 297.230010986
579750.5 4180428.25 297.279998779
579750.9375 4180428.5 297.309997559
579751.625 4180428.5 297.260009766
579752.125 4180428.5 297.290008545
579752.875 4180428.5 297.109985352
579753.375 4180428.25 297.269989014
579754.1875 4180428.25 297.190002441
579754.5625 4180428.5 298.739990234
579755.3125 4180428 298.690002441
579755.8125 4180428 298.720001221
579758.375 4180428 298.839996338
579759.3125 4180428.5 297.619995117
579759.8125 4180428.25 297.670013428
579761.125 4180428 299.190002441
579763.375 4180428.5 299.660003662
579763.9375 4180428.5 299.540008545
579742.6875 4180428.75 297.700012207
579743.4375 4180428.75 297.5
579743.875 4180428.5 297.299987793
579744.625 4180429 297.390014648
579745 4180428.75 297.459991455
579745.8125 4180429 297.220001221
579746.1875 4180428.5 297.399993896
579747 4180428.5 297.149993896
579747.375 4180428.5 297.320007324
579748.1875 4180429 297.329986572
579748.625 4180428.75 297.190002441
579749.3125 4180428.75 297.440002441
579749.8125 4180428.75 297.179992676
579750.5 4180429 297.070007324
579751.6875 4180429 297.179992676
579752.1875 4180429 297.190002441
579752.9375 4180429 297.140014648
579753.4375 4180428.75 297.200012207
579754.1875 4180428.75 297.470001221
579754.6875 4180429 297.649993896
579755.5 4180429 297.320007324
579755.8125 4180428.5 298.660003662
579756.625 4180428.5 298.549987793
579757.125 4180429 298.899993896
579757.9375 4180428.5 298.799987793
579758 4180429 297.489990234
579758.5 4180428.5 298.299987793
579759.8125 4180429 298.910003662
579760.5625 4180428.5 299.420013428
579763.4375 4180429 299.019989014
579764 4180429 298.910003662
579742.75 4180429.25 297.510009766
579743.5 4180429.25 297.420013428
579743.875 4180429.25 297.459991455
579744.625 4180429.5 297.410003662
579745.0625 4180429.25 297.559997559
579746.25 4180429 297.369995117
579747 4180429.25 297.209991455
579747.4375 4180429.25 297.390014648
579748.25 4180429.5 297.279998779
579748.6875 4180429.25 297.200012207
579749.375 4180429.25 297.130004883
579749.875 4180429.25 297.130004883
579750.5625 4180429.5 297.230010986
579750.9375 4180429 297.399993896
579751.75 4180429.5 296.910003662
579752.1875 4180429.5 297.160003662
579753 4180429.5 297.019989014
579753.4375 4180429.25 297.25
579754.25 4180429.25 297.440002441
579754.75 4180429.5 297.299987793
579755.5 4180429.5 297.200012207
579755.875 4180429 298.540008545
579756 4180429.5 297.260009766
579756.6875 4180429.25 298.600006104
579757.1875 4180429.5 298.480010986
579758.5625 4180429 297.529998779
579759.3125 4180429.25 298.739990234
579763.5 4180429.5 298.720001221
579764.0625 4180429.5 298.429992676
579742.8125 4180430 297.679992676
579743.5 4180429.75 297.619995117
579743.9375 4180429.75 297.5
579745.125 4180430 297.619995117
579745.8125 4180429.75 297.309997559
579746.3125 4180429.75 297.309997559
579747.0625 4180429.75 297.399993896
579747.5 4180429.75 297.380004883
579748.25 4180430.25 297.559997559
579748.6875 4180429.75 297.130004883
579749.4375 4180429.75 297.239990234
579749.875 4180430 297.359985352
579750.5625 4180430 297.140014648
579751 4180429.75 297.140014648
579751.75 4180430.25 297.149993896
579752.25 4180430.25 296.940002441
579753 4180430.25 297.049987793
579753.5 4180430 297.290008545
579754.25 4180430 297.119995117
579754.75 4180430 297.100006104
579756 4180430.25 297.269989014
579756.6875 4180429.75 299.059997559
579758 4180429.75 298.429992676
579758.5 4180429.75 298.880004883
579762.625 4180429.75 299.329986572
579742.8125 4180430.5 297.779998779
579743.5 4180430.5 297.779998779
579744 4180430.25 297.440002441
579744.6875 4180430.25 297.450012207
579745.1875 4180430.5 297.230010986
579745.875 4180430.25 297.190002441
579746.3125 4180430.25 297.410003662
579747.0625 4180430.25 297.230010986
579747.5 4180430.25 297.209991455
579748.3125 4180430.75 297.5
579748.75 4180430.5 297.200012207
579749.4375 4180430.25 297.200012207
579749.9375 4180430.5 297.299987793
579750.625 4180430.75 297.609985352
579751.0625 4180430.25 297.170013428
579752.3125 4180430.75 296.950012207
579753 4180430.75 297.179992676
579753.5 4180430.5 297.079986572
579754.3125 4180430.5 297.109985352
579754.8125 4180430.75 297.260009766
579755.5625 4180430.25 297.200012207
579756.8125 4180430.25 297.709991455
579757.25 4180430.75 298.519989014
579758.0625 4180430.25 298.589996338
579758.5 4180430.5 299.410003662
579762.125 4180430.75 299.239990234
579762.6875 4180430.25 298.739990234
579742.875 4180431 297.619995117
579743.625 4180431 297.359985352
579744 4180431 297.450012207
579744.75 4180430.75 297.369995117
579745.1875 4180431 297.339996338
579745.875 4180430.75 297.350006104
579746.375 4180430.75 297.200012207
579747.125 4180431 297.279998779
579747.5625 4180431 297.200012207
579748.3125 4180431.25 297.299987793
579748.8125 4180431 297.170013428
579749.5 4180431 297.369995117
579749.9375 4180431 297.140014648
579750.625 4180431.25 297.779998779
579751.0625 4180430.75 297.010009766
579751.75 4180430.75 297.299987793
579753.0625 4180431.25 297.100006104
579753.5625 4180431 297.109985352
579754.3125 4180431 297.209991455
579754.8125 4180431.25 297.380004883
579755.5625 4180430.75 297.290008545
579757.375 4180431.25 297.339996338
579758.0625 4180431 299.25
579758.5625 4180431 298.920013428
579761.3125 4180431 298.890014648
579742.9375 4180431.5 297.519989014
579743.625 4180431.5 297.470001221
579744.0625 4180431.5 297.559997559
579744.75 4180431.25 297.380004883
579745.25 4180431.75 297.640014648
579745.9375 4180431.5 297.200012207
579746.375 4180431.5 297.489990234
579747.1875 4180431.5 297.309997559
579747.5625 4180431.5 297.220001221
579748.375 4180431.75 297.179992676
579748.8125 4180431.5 297.279998779
579749.5 4180431.5 297.489990234
579750 4180431.75 297.329986572
579751.125 4180431.5 297.480010986
579751.8125 4180431.25 297.179992676
579752.3125 4180431.25 297.049987793
579753.625 4180431.75 297.109985352
579754.875 4180431.75 297.220001221
579756.0625 4180431.25 297.549987793
579757.375 4180431.75 297.739990234
579758.0625 4180431.5 298.839996338
579758.625 4180431.5 299.200012207
579760.75 4180431.5 299.149993896
579761.375 4180431.5 298.679992676
579742.9375 4180432.25 297.859985352
579743.6875 4180432.25 297.549987793
579744.125 4180432 297.269989014
579744.8125 4180432 297.540008545
579745.25 4180432.25 297.540008545
579746 4180432 297.239990234
579746.4375 4180432 297.850006104
579747.1875 4180432 297.440002441
579747.625 4180432 297.489990234
579748.4375 4180432.5 297.220001221
579748.875 4180432.25 297.130004883
579749.5625 4180432.25 297.420013428
579750 4180432.25 297.329986572
579750.6875 4180431.75 297.619995117
579751.1875 4180432 297.100006104
579751.875 4180432 297.309997559
579752.3125 4180432 297.420013428
579753.625 4180432.25 297.019989014
579756.125 4180432 297.619995117
579756.9375 4180432 297.549987793
579758.125 4180432 298.570007324
579758.6875 4180432 298.619995117
579759.5 4180432 298.799987793
579759.9375 4180432 299.489990234
579760.8125 4180432 298.829986572
579743 4180432.75 298
579743.6875 4180432.75 297.450012207
579744.125 4180432.75 297.549987793
579744.8125 4180432.5 297.329986572
579745.3125 4180432.75 297.290008545
579746 4180432.5 297.230010986
579746.4375 4180432.75 297.869995117
579747.25 4180432.75 297.320007324
579747.625 4180432.75 297.589996338
579748.875 4180432.75 297.220001221
579749.625 4180432.75 297.029998779
579750.0625 4180432.75 297.260009766
579750.6875 4180432.5 297.700012207
579751.1875 4180432.5 297.290008545
579751.875 4180432.5 297.019989014
579752.375 4180432.5 297.600006104
579753.125 4180432.5 297.100006104
579753.6875 4180432.75 297
579754.4375 4180432.75 297.140014648
579755.6875 4180432.5 297.170013428
579756.125 4180432.5 297.760009766
579757.375 4180432.5 298.489990234
579758.25 4180432.5 297.440002441
579758.6875 4180432.75 298.730010986
579759.5 4180432.75 298.660003662
579760 4180432.5 298.890014648
579760.9375 4180432.5 297.619995117
579743 4180433.5 297.660003662
579743.75 4180433.25 297.519989014
579744.1875 4180433.25 297.609985352
579744.875 4180433.25 297.980010986
579745.3125 4180433.5 297.470001221
579746.0625 4180433.25 297.380004883
579746.5 4180433.25 297.290008545
579747.25 4180433.25 297.309997559
579747.6875 4180433.25 297.450012207
579748.4375 4180433 297.190002441
579748.9375 4180433.25 297.429992676
579749.625 4180433.25 297
579750.125 4180433.5 297.209991455
579750.75 4180433 297.399993896
579751.25 4180433.25 297.309997559
579751.9375 4180433 296.910003662
579752.4375 4180433 297.459991455
579753.1875 4180433 296.950012207
579753.6875 4180433.5 297.190002441
579755.75 4180433 297.329986572
579756.1875 4180433 297.630004883
579743.0625 4180434 297.5
579743.75 4180434 297.480010986
579744.1875 4180433.75 297.790008545
579744.875 4180433.75 297.850006104
579745.375 4180434 297.529998779
579746.0625 4180433.75 297.220001221
579746.5625 4180433.75 297.470001221
579747.3125 4180433.75 297.25
579747.75 4180433.75 297.420013428
579748.5 4180433.5 297.589996338
579749 4180434 297.269989014
579749.6875 4180433.75 297.260009766
579750.125 4180434 297.299987793
579750.8125 4180433.5 297.049987793
579751.25 4180433.75 296.940002441
579751.9375 4180433.75 297.440002441
579752.5 4180433.75 296.929992676
579753.25 4180433.75 297.119995117
579753.75 4180434 297.100006104
579755 4180433.5 297.160003662
579755.75 4180433.75 297.359985352
579756.25 4180433.75 297.480010986
579758.25 4180433.75 298.100006104
579759.625 4180433.75 297.670013428
579742.625 4180434.5 297.5
579743.125 4180434.5 297.700012207
579743.8125 4180434.5 297.579986572
579744.25 4180434.5 297.559997559
579744.9375 4180434.25 297.339996338
579745.4375 4180434.5 297.480010986
579746.125 4180434.25 297.309997559
579746.625 4180434.25 297.339996338
579747.3125 4180434.5 297.410003662
579747.75 4180434.5 297.429992676
579748.5 4180434.25 297.579986572
579749 4180434.5 297.119995117
579749.75 4180434.5 297.040008545
579750.1875 4180434.5 297.149993896
579750.8125 4180434.25 297.399993896
579751.3125 4180434.25 297.220001221
579752 4180434.25 297.549987793
579752.5 4180434.25 297.209991455
579753.8125 4180434.5 297
579754.5625 4180434.5 297.190002441
579755 4180434.25 297.179992676
579757.5625 4180434.25 297.359985352
579758.3125 4180434.25 297.640014648
579759.6875 4180434.25 297.5
579742.6875 4180435 297.440002441
579743.125 4180435 297.549987793
579743.875 4180435 297.570007324
579744.25 4180435 297.559997559
579745 4180434.75 297.429992676
579745.4375 4180435.25 297.970001221
579746.125 4180435 297.660003662
579746.625 4180435 297.739990234
579747.375 4180435 297.549987793
579747.8125 4180435 297.440002441
579748.5625 4180434.75 297.660003662
579749.0625 4180435 297.390014648
579749.75 4180435 297.070007324
579750.25 4180435.25 296.950012207
579750.875 4180434.75 297.089996338
579751.3125 4180434.75 297.170013428
579752 4180434.75 297.679992676
579752.5 4180434.75 297.269989014
579753.3125 4180434.75 297.140014648
579753.8125 4180435.25 297.059997559
579754.5625 4180435.25 297.290008545
579755.0625 4180434.75 297.290008545
579757.625 4180434.75 297.350006104
579742.6875 4180435.75 297.570007324
579743.1875 4180435.75 297.529998779
579743.875 4180435.75 297.720001221
579744.3125 4180435.5 297.739990234
579745 4180435.5 297.850006104
579745.5 4180435.75 297.559997559
579746.1875 4180435.5 297.200012207
579746.625 4180435.5 297.920013428
579747.4375 4180435.5 297.5
579747.875 4180435.5 297.239990234
579748.5625 4180435.25 297.429992676
579749.0625 4180435.75 297.670013428
579749.8125 4180435.5 297.269989014
579750.25 4180435.75 297.380004883
579750.9375 4180435.25 296.970001221
579751.375 4180435.5 297.109985352
579752.0625 4180435.5 297.390014648
579752.5625 4180435.5 297.010009766
579753.3125 4180435.25 297.079986572
579753.875 4180435.75 297.170013428
579755.125 4180435.25 297.160003662
579755.875 4180435.5 297.329986572
579756.375 4180435.5 297.200012207
579742.75 4180436.25 297.859985352
579743.25 4180436.25 297.450012207
579743.9375 4180436.25 297.690002441
579744.375 4180436.25 297.470001221
579745.0625 4180436 297.609985352
579745.5625 4180436.25 297.489990234
579746.25 4180436 297.480010986
579746.75 4180436 297.320007324
579747.4375 4180436.25 297.559997559
579747.875 4180436.25 297.489990234
579748.625 4180436 297.399993896
579749.125 4180436.25 297.679992676
579749.8125 4180436.25 296.959991455
579750.9375 4180436 297.359985352
579751.4375 4180436 297.209991455
579752.125 4180436 297.429992676
579752.625 4180436 296.959991455
579753.375 4180436 297.269989014
579753.875 4180436.25 297.149993896
579754.6875 4180436.25 297.109985352
579755.125 4180435.75 297.079986572
579755.9375 4180436 297.179992676
579742.75 4180436.75 297.529998779
579743.25 4180436.75 297.790008545
579743.9375 4180436.75 297.779998779
579744.375 4180436.75 297.739990234
579745.125 4180436.5 297.359985352
579745.5625 4180437 297.609985352
579746.25 4180436.75 297.609985352
579746.75 4180436.75 297.410003662
579747.5 4180436.75 297.420013428
579747.9375 4180436.75 297.269989014
579748.6875 4180436.5 297.540008545
579749.125 4180436.75 297.779998779
579749.875 4180436.75 297.089996338
579750.3125 4180436.25 297.25
579751 4180436.5 297.220001221
579751.4375 4180436.5 297.320007324
579752.125 4180436.5 297.239990234
579752.625 4180436.5 297.140014648
579753.375 4180436.5 297.470001221
579753.9375 4180436.75 297.140014648
579755.1875 4180436.5 297.160003662
579757.6875 4180436.5 297.309997559
579742.8125 4180437.5 297.730010986
579744 4180437.5 297.779998779
579744.4375 4180437.25 297.649993896
579745.125 4180437.25 297.359985352
579746.3125 4180437.25 297.480010986
579746.8125 4180437.25 297.410003662
579747.5625 4180437.25 297.200012207
579748 4180437.25 297.179992676
579748.6875 4180437 297.5
579749.1875 4180437.5 297.790008545
579749.9375 4180437.25 297.170013428
579750.3125 4180437 297.220001221
579751 4180437 297.820007324
579751.5 4180437.25 297.220001221
579752.1875 4180437.25 297.190002441
579752.6875 4180437.25 297.100006104
579753.4375 4180437 297.160003662
579755.1875 4180437 297.220001221
579756 4180437.25 297.339996338
579757.75 4180437 297.429992676
579742.875 4180438 297.600006104
579743.25 4180437.5 297.989990234
579744.0625 4180438 297.559997559
579744.5 4180438 297.649993896
579745.1875 4180437.75 297.519989014
579745.625 4180437.5 297.470001221
579746.375 4180437.75 297.480010986
579746.8125 4180438 297.679992676
579747.5625 4180438 297.239990234
579748 4180437.75 297.309997559
579748.75 4180437.75 297.450012207
579749.9375 4180438 297.329986572
579750.375 4180437.5 297.079986572
579751.0625 4180437.75 297.369995117
579751.5 4180437.75 297.630004883
579752.25 4180437.75 297.309997559
579752.75 4180437.75 297.25
579753.5 4180437.75 297.220001221
579754 4180437.5 297.149993896
579756 4180437.75 297.119995117
579742.875 4180438.5 297.450012207
579744.0625 4180438.5 297.600006104
579744.5 4180438.5 297.489990234
579745.25 4180438.25 297.470001221
579745.625 4180438 297.660003662
579746.375 4180438.5 297.690002441
579746.875 4180438.5 297.279998779
579747.625 4180438.5 297.279998779
579748.0625 4180438.5 297.579986572
579748.8125 4180438.25 297.329986572
579749.1875 4180438 297.790008545
579749.9375 4180438.5 297.5
579750.375 4180438.25 297.709991455
579751.125 4180438.25 297.239990234
579751.5625 4180438.5 297.709991455
579752.25 4180438.25 297.029998779
579752.75 4180438.25 297
579753.5 4180438.25 297.239990234
579754.75 4180438 297.350006104
579756.0625 4180438.25 297.149993896
579742.9375 4180439.25 297.600006104
579743.375 4180438.5 297.470001221
579744.5625 4180439 297.640014648
579745.25 4180439 297.660003662
579745.6875 4180438.5 297.529998779
579746.4375 4180439 297.350006104
579746.9375 4180439 297.260009766
579747.625 4180439 297.390014648
579748.0625 4180439 297.359985352
579748.8125 4180438.75 297.260009766
579749.25 4180438.5 297.700012207
579750 4180439 297.600006104
579750.4375 4180438.75 297.700012207
579751.125 4180438.75 297
579751.625 4180439 297.109985352
579752.25 4180439 297.429992676
579752.8125 4180439 297.119995117
579753.5625 4180438.75 297.130004883
579754.0625 4180438.75 297.339996338
579756.125 4180439 297.140014648
579756.5625 4180439 297.170013428
579757.375 4180439 297.309997559
579743.4375 4180439.25 297.720001221
579744.125 4180439.25 297.859985352
579744.5625 4180439.75 297.820007324
579745.3125 4180439.5 297.369995117
579745.75 4180439.25 297.480010986
579746.4375 4180439.5 297.440002441
579746.9375 4180439.5 297.529998779
579747.6875 4180439.75 297.109985352
579748.125 4180439.75 297.290008545
579748.875 4180439.5 297.299987793
579749.3125 4180439.25 297.190002441
579750.4375 4180439.25 297.779998779
579751.1875 4180439.5 297.089996338
579751.625 4180439.5 297.149993896
579752.3125 4180439.5 297.109985352
579752.8125 4180439.5 297.25
579753.5625 4180439.5 297.290008545
579754.0625 4180439.25 297.450012207
579742.9375 4180439.75 297.730010986
579743.5 4180439.75 297.470001221
579744.1875 4180439.75 297.399993896
579744.625 4180440.25 297.679992676
579745.3125 4180440 297.480010986
579745.75 4180439.75 297.739990234
579746.5 4180440.25 297.290008545
579747 4180440.25 297.549987793
579748.875 4180440 297.390014648
579749.375 4180439.75 297.350006104
579750 4180439.75 297.660003662
579750.5 4180439.75 297.450012207
579751.1875 4180440 297.290008545
579751.6875 4180440 297.109985352
579752.375 4180440 297.070007324
579752.875 4180440 297.040008545
579753.625 4180440 297.029998779
579754.125 4180439.75 297.140014648
579754.875 4180439.75 297.070007324
579756.6875 4180440 297.220001221
579743 4180440.25 297.970001221
579743.5 4180440.25 297.559997559
579744.1875 4180440.25 297.540008545
579745.375 4180440.75 297.480010986
579745.8125 4180440.5 297.619995117
579746.5625 4180440.75 297.239990234
579747 4180440.75 297.5
579747.6875 4180440.25 297.540008545
579748.1875 4180440.25 297.5
579748.9375 4180440.5 297.320007324
579749.375 4180440.25 297.369995117
579750.0625 4180440.25 297.320007324
579750.5625 4180440.5 297.299987793
579751.25 4180440.5 297.25
579751.75 4180440.75 297.230010986
579752.4375 4180440.75 297.230010986
579752.9375 4180440.75 297.279998779
579753.6875 4180440.5 297.079986572
579754.1875 4180440.5 297.269989014
579754.9375 4180440.25 297.089996338
579756.1875 4180440.75 297.510009766
579743 4180441 297.779998779
579743.5625 4180441 297.660003662
579744.25 4180441 297.619995117
579744.6875 4180440.75 297.739990234
579745.4375 4180441.25 297.339996338
579745.875 4180441 297.5
579746.5625 4180441.25 297.260009766
579747.0625 4180441.25 297.470001221
579747.75 4180440.75 297.600006104
579748.1875 4180440.75 297.440002441
579749 4180441.25 297.410003662
579749.4375 4180441 297.239990234
579750.125 4180440.75 297.230010986
579750.625 4180441 297.290008545
579751.3125 4180441.25 297.220001221
579751.75 4180441.25 297.540008545
579752.4375 4180441.25 297.350006104
579752.9375 4180441.25 297.269989014
579753.6875 4180441.25 297.230010986
579754.1875 4180441 297.279998779
579754.9375 4180441 297.320007324
579755.5 4180441 297.070007324
579743.0625 4180441.5 297.640014648
579744.75 4180441.5 297.480010986
579747.75 4180441.5 297.649993896
579748.25 4180441.5 297.390014648
579750.1875 4180441.5 297.279998779
