# .PCD v.7 - Point Cloud Data file format
VERSION .7
FIELDS x y z
SIZE 4 4 4
TYPE F F F
COUNT 1 1 1
WIDTH 110
HEIGHT 1
VIEWPOINT 0 0 0 1 0 0 0
POINTS 110
DATA ascii
579756.4 4180410 304.12
579754.4 4180412 304.25
579756.5 4180410 304.36
579748.9 4180410 304.41
579755.7 4180411 304.58
579748.9 4180411 304.68
579749.3 4180411 304.73
579755.2 4180411 304.77
579748.8 4180409 304.96
579743.4 4180412 305.11
579748.9 4180410 305.15
579743.1 4180413 305.18
579749.2 4180410 305.22
579743 4180412 305.31
579743.3 4180410 305.35
579744.6 4180411 305.39
579765.7 4180411 301.26
579763.8 4180413 301.41
579774.1 4180428 301.41
579744.2 4180412 305.58
579765.4 4180416 301.43
579773.3 4180414 301.49
579744.1 4180410 305.65
579765.9 4180415 301.56
579742.9 4180410 305.8
579771.8 4180414 301.64
579744.6 4180412 305.82
579764.4 4180416 301.67
579771.8 4180415 301.71
579765.1 4180411 301.74
579773.2 4180414 301.8
579745.3 4180412 305.97
579743.5 4180414 305.97
579764.3 4180414 301.82
579774.6 4180421 301.84
579749.2 4180410 306
579765.7 4180412 301.85
579765.3 4180415 301.87
579771.9 4180426 301.87
579745.8 4180412 306.06
579763.9 4180416 301.93
579743.3 4180411 306.1
579763.9 4180415 301.95
579763.8 4180412 301.97
579743.4 4180413 306.14
579745.4 4180412 306.15
579764.3 4180414 302
579765.3 4180415 302.06
579745.8 4180412 306.23
579744.6 4180412 306.23
579743.1 4180414 306.23
579763.8 4180414 302.1
579745.4 4180412 306.26
579757 4180409 302.13
579764.2 4180412 302.13
579745.8 4180413 306.3
579764.4 4180415 302.14
579743 4180412 306.31
579771.8 4180426 302.16
579762.9 4180414 302.17
579771.8 4180415 302.19
579742.9 4180411 306.35
579762.9 4180414 302.24
579765.2 4180413 302.26
579745.8 4180412 306.42
579773.1 4180422 302.28
579745.9 4180414 306.44
579772.5 4180427 302.3
579763.9 4180415 302.32
579771.2 4180415 302.33
579774 4180428 302.32
579762.8 4180413 302.41
579773.4 4180427 302.42
579764.3 4180414 302.46
579763.8 4180414 302.5
579773.4 4180428 302.51
579743.6 4180415 306.67
579765.1 4180412 302.54
579745.4 4180413 306.7
579772.5 4180428 302.58
579773.2 4180425 302.59
579771.9 4180428 302.68
579743.5 4180414 306.87
579767.4 4180417 302.73
579765.8 4180414 302.78
579771.9 4180427 302.78
579771.3 4180418 302.86
579742.9 4180411 307.02
579743.1 4180414 307.03
579764.2 4180413 302.91
579755.3 4180411 302.97
579743.1 4180415 307.14
579773.1 4180424 303.01
579765.2 4180414 303.06
579744.7 4180414 307.26
579765.1 4180412 303.15
579754.5 4180412 303.19
579755.7 4180410 303.2
579744.1 4180413 307.35
579773.8 4180425 303.23
579772.4 4180426 303.25
579754.4 4180410 303.27
579743.4 4180414 307.48
579773.3 4180426 303.35
579755.8 4180412 303.4
579772.3 4180426 303.49
579765.2 4180414 303.55
579754.4 4180410 303.6
579772.3 4180425 303.61
579757 4180410 303.64
