# .PCD v.7 - Point Cloud Data file format
VERSION .7
FIELDS x y z
SIZE 4 4 4
TYPE F F F
COUNT 1 1 1
WIDTH 63
HEIGHT 1
VIEWPOINT 0 0 0 1 0 0 0
POINTS 63
DATA ascii
-0.4963797 0.8292814 -0.6906419
-0.4924314 0.8595354 -0.6947667
-0.4897993 0.8887088 -0.6808456
-0.5126113 0.9113992 -0.6633153
-0.6249169 0.8989735 -0.6365042
-0.6214074 0.928147 -0.6354731
-0.636323 0.808752 -0.6230987
-0.3867063 0.9032955 -0.6230987
-0.408641 0.9135602 -0.6220676
-0.6130722 0.7984873 -0.6184584
-0.6100013 0.828201 -0.6148492
-0.4665485 0.8730416 -0.6148492
-0.3906545 0.8725014 -0.6179428
-0.6196526 0.9567801 -0.6127868
-0.647729 0.9756888 -0.6122712
-0.6341339 0.8379254 -0.606084
-0.6073692 0.8573744 -0.6024749
-0.4130279 0.8838466 -0.6081464
-0.4634776 0.9027553 -0.6081464
-0.4393495 0.9184225 -0.6024749
-0.3845128 0.9330092 -0.6071152
-0.4178535 0.8530524 -0.5931941
-0.4432977 0.8887088 -0.5962877
-0.6183365 0.9854133 -0.584429
-0.5814862 0.8579146 -0.547306
-0.6674658 0.8541329 -0.5375097
-0.6025435 0.9443544 -0.5318381
-0.5595516 0.8546731 -0.5210106
-0.6060531 0.9146407 -0.5277133
-0.6372004 0.8654781 -0.5189482
-0.6108787 0.8838466 -0.512761
-0.577538 0.915181 -0.512761
-0.4985732 0.91302 -0.5184326
-0.5735942 0.9454349 -0.5174014
-0.4950636 0.9432739 -0.5184326
-0.517437 0.9654241 -0.510183
-0.5999114 0.9729876 -0.5199794
-0.5319139 0.8460292 -0.5029647
-0.5814862 0.8854673 -0.5029647
-0.5573625 0.8838466 -0.5024491
-0.4073249 0.9989195 -0.5019335
-0.3309922 0.9929768 -0.5034803
-0.528843 0.8762831 -0.4967775
-0.5538486 0.9135602 -0.4993555
-0.468742 0.928147 -0.4941995
-0.3349404 0.9638034 -0.4962619
-0.5227013 0.9351702 -0.4849188
-0.5731511 0.9735278 -0.4756381
-0.4950636 0.9719071 -0.4761536
-0.4468073 0.9432739 -0.4534674
-0.3603803 0.974068 -0.4596545
-0.5178757 0.993517 -0.4550142
-0.4147871 0.9675851 -0.4483114
-0.3893384 0.9864938 -0.4483114
-0.3941641 0.9562399 -0.4349059
-0.4204813 0.9362507 -0.4204692
-0.4463686 0.9719071 -0.414282
-0.5582355 0.9400324 -0.4003609
-0.4726902 0.9546191 -0.3946894
-0.5547259 0.9697461 -0.3962362
-0.5525325 0.9989195 -0.3817994
-0.5007666 0.9967585 -0.3565352
-0.4726902 0.982712 -0.34777
