# .PCD v.7 - Point Cloud Data file format
VERSION .7
FIELDS x y z
SIZE 4 4 4
TYPE F F F
COUNT 1 1 1
WIDTH 641
HEIGHT 1
VIEWPOINT 0 0 0 1 0 0 0
POINTS 641
DATA ascii
-0.1541986 -0.4970286 0.7839649
0.09936631 -0.4003241 0.7829338
-0.3924093 -0.360886 0.7844805
0.2204458 -0.1723393 0.7844805
-0.4788319 0.06104808 0.7880897
0.1998271 0.1555916 0.7849962
0.1726281 0.2036737 0.7896365
-0.4296983 0.2339276 0.7860273
0.1502504 0.2539168 0.7886053
-0.1230514 -0.4846029 0.7927301
-0.2103514 -0.465154 0.7947925
-0.2678203 -0.4554295 0.7958237
0.000660234 -0.4516478 0.7984017
0.03444403 -0.4251756 0.7953081
-0.3200248 -0.4197731 0.7994328
-0.3437099 -0.4046461 0.7953081
0.06777598 -0.4068071 0.7968549
-0.3700359 -0.3819557 0.7994328
0.1019985 -0.371691 0.7947925
0.1388531 -0.3322528 0.7947925
0.1423583 -0.3036197 0.7937613
-0.4397882 -0.2965964 0.7989172
0.1735055 -0.2906537 0.7999485
0.1770195 -0.2620205 0.7999485
-0.4819028 -0.1971907 0.7978861
-0.4783932 -0.1685575 0.7911833
-0.475318 -0.1393841 0.7994328
-0.4713742 -0.1107509 0.7932457
0.2270218 -0.1150729 0.7963393
0.2309744 -0.08643977 0.7906677
-0.4832189 0.03241491 0.7999485
0.2156245 0.0545651 0.7984017
0.2195684 0.08319827 0.7937613
-0.4757611 0.0902215 0.7942769
-0.4722515 0.1188547 0.7922145
0.1954402 0.1264182 0.7984017
-0.4371516 0.1766613 0.7958237
0.1182301 0.2647218 0.7963393
-0.3674037 0.3068612 0.7978861
-0.3406434 0.3225284 0.7978861
0.06383212 0.3241491 0.7989172
0.03707181 0.3398163 0.7958237
-0.3064253 0.3581848 0.7911833
-0.2805424 0.3657483 0.7932457
0.007674946 0.360886 0.7984017
-0.1678025 0.3787142 0.7947925
-0.1928037 0.3873582 0.7968549
-0.04759168 0.3943814 0.7906677
-0.1813976 -0.4721772 0.8071668
-0.03399656 -0.4797407 0.8045888
-0.2388665 -0.4624527 0.8051044
-0.1520008 -0.4678552 0.803042
-0.1204192 -0.4559698 0.8051044
-0.0309301 -0.4511075 0.8066512
-0.2945762 -0.445705 0.8045888
-0.2077193 -0.4365208 0.808198
-0.316954 -0.3911399 0.8092292
-0.2880002 -0.3884387 0.8097448
-0.3410821 -0.376013 0.8040732
0.07085122 -0.3781739 0.803042
-0.3674037 -0.3527823 0.8097448
-0.3902158 -0.3317126 0.8014953
-0.4130279 -0.2820097 0.80562
-0.4608455 -0.2301459 0.8014953
0.1796473 -0.2328471 0.8076824
0.1831524 -0.2042139 0.8076824
-0.4542651 -0.1734198 0.80562
0.2226392 -0.1442464 0.8040732
-0.5003279 -0.1112912 0.8014953
-0.4972527 -0.08265802 0.808198
-0.4937475 -0.0534846 0.808198
0.2331679 -0.05834684 0.8076824
-0.490238 -0.02539168 0.8040732
-0.4590863 0.00378174 0.8097448
0.2112332 0.02539168 0.8076824
0.1875437 0.06915181 0.8087136
0.191492 0.09778498 0.8040732
0.1678025 0.17396 0.8097448
-0.4103957 0.199892 0.8051044
-0.4340852 0.2052944 0.800464
-0.4064475 0.2290654 0.8025264
0.1454291 0.2252836 0.8040732
0.1138432 0.2355483 0.80562
-0.4029379 0.258779 0.8014953
-0.3450304 0.2938952 0.8092292
0.05988388 0.2949757 0.8045888
0.121301 0.2938952 0.803042
-0.3108079 0.3284711 0.8040732
-0.2278992 0.3560238 0.8087136
-0.1971906 0.3581848 0.8092292
-0.05198301 0.3657483 0.8071668
-0.2239509 0.3851972 0.8009796
-0.07611115 0.3884387 0.8035576
-0.1340187 0.3992437 0.8066512
-0.1072584 0.3965424 0.8014953
-0.1647273 0.4073474 0.8014953
-0.0940976 -0.4727175 0.8123227
-0.06251165 -0.462993 0.8138695
-0.09058805 -0.443544 0.8138695
-0.2357956 -0.4343598 0.8128384
-0.05900211 -0.4343598 0.8149008
-0.02785485 -0.4230146 0.8123227
0.003292396 -0.4230146 0.8128384
-0.2919484 -0.4170718 0.8169631
0.03619442 -0.3960022 0.8185099
-0.3384456 -0.3468395 0.8169631
0.073479 -0.3490005 0.8185099
0.1041919 -0.3430578 0.8123227
-0.3643329 -0.3246894 0.8164476
-0.4169761 -0.3111832 0.813354
0.1445474 -0.2749865 0.8112916
-0.4371516 -0.2679633 0.8102604
-0.4103957 -0.2533765 0.8179944
0.1480613 -0.2458131 0.8159319
-0.4340852 -0.2393301 0.8102604
-0.4310187 -0.2106969 0.8164476
-0.4582133 -0.202053 0.8102604
-0.4275048 -0.1815235 0.8195411
-0.448119 -0.1161534 0.8149008
0.1932468 -0.1177742 0.8164476
-0.4696237 -0.08211777 0.8154163
0.1967563 -0.089141 0.8159319
0.2002659 -0.06050783 0.8179944
-0.4665485 -0.05402485 0.8169631
0.2037754 -0.03187466 0.8149008
-0.4626003 -0.02485143 0.810776
0.2072849 -0.003241491 0.8169631
-0.4876058 0.003241491 0.8154163
-0.4555812 0.03241491 0.8118072
0.1835955 0.04051864 0.8128384
-0.4520716 0.06104808 0.813354
-0.4490008 0.0902215 0.8138695
-0.4450525 0.1188547 0.810776
-0.4704967 0.1474878 0.8102604
-0.4419861 0.1474878 0.8143852
-0.4178535 0.1431659 0.8195411
0.1634156 0.1458671 0.8179944
-0.4139053 0.171799 0.8128384
0.1410422 0.1961102 0.8159319
0.1094563 0.2069152 0.8190255
-0.3753002 0.2490546 0.8123227
-0.348983 0.2647218 0.8185099
0.08796027 0.265262 0.810776
-0.3717907 0.278228 0.8118072
0.09146982 0.2944354 0.8128384
0.03224618 0.3117234 0.8169631
-0.2318474 0.3273906 0.8138695
-0.2858067 0.3365748 0.8154163
-0.2546595 0.3419773 0.813354
-0.08006378 0.3598055 0.8102604
-0.2511499 0.3711507 0.810776
-0.137967 0.3700702 0.8138695
-0.1791998 -0.4440843 0.8226347
-0.1498117 -0.4386818 0.8226347
-0.2660655 -0.4262561 0.8236659
-0.1186688 -0.4273366 0.8283063
-0.08795588 -0.4149109 0.8267595
-0.2055258 -0.4084279 0.8246971
-0.05636994 -0.4062669 0.8236659
-0.02522708 -0.3943814 0.8226347
0.005924558 -0.3949217 0.8231503
0.008995414 -0.3662885 0.8293375
0.03970397 -0.367369 0.8216035
0.106381 -0.3149649 0.8293375
-0.3880223 -0.3030794 0.8205723
-0.361262 -0.2955159 0.8200567
0.109895 -0.2857915 0.8293375
-0.3849515 -0.2744462 0.8272751
0.1138432 -0.2571583 0.8267595
0.1511322 -0.2171799 0.8246971
0.154203 -0.189087 0.8272751
0.185789 -0.1750405 0.8231503
-0.4525103 -0.1447866 0.8241815
0.1892985 -0.1464074 0.8200567
0.1647317 -0.1031875 0.8298531
-0.442416 -0.05834684 0.8257283
0.2353613 -0.02971367 0.8272751
-0.43584 -0.001080497 0.8277907
0.1792085 0.01134522 0.8236659
-0.4283822 0.05672609 0.8226347
-0.4248726 0.08535927 0.8226347
-0.4218017 0.1134522 0.8226347
0.159906 0.1172339 0.8205723
-0.3906545 0.1339816 0.8298531
-0.3867063 0.163155 0.8241815
-0.3831967 0.191248 0.8257283
-0.3568751 0.2069152 0.8288218
-0.3796872 0.2198811 0.8210879
-0.3529269 0.2355483 0.8241815
0.08401641 0.2360886 0.8200567
0.05505825 0.2663425 0.8226347
-0.2937032 0.2787682 0.8293375
0.02829793 0.2830902 0.8226347
-0.2893163 0.3074014 0.8205723
-0.001533234 0.3030794 0.8288218
-0.2586077 0.3138844 0.8210879
-0.1770107 0.3198271 0.8298531
-0.2020162 0.3290114 0.8277907
-0.1160323 0.3381956 0.8288218
-0.08488503 0.3306321 0.8288218
-0.05724733 0.3371151 0.8293375
0.001971928 0.3317126 0.8277907
-0.1730625 0.3490005 0.8226347
-0.1423539 0.3408968 0.8246971
-0.1125227 0.3668287 0.8262439
-0.01996275 0.376013 0.8231503
-0.1761333 -0.4154511 0.8319154
-0.1476182 -0.4100486 0.8381026
-0.2336066 -0.4051864 0.8313999
-0.2629946 -0.3981632 0.8303686
-0.05373778 -0.3770935 0.8370714
-0.3151992 -0.3625067 0.8319154
-0.2858067 -0.3603458 0.8308843
0.04189744 -0.3387358 0.8386182
-0.3358178 -0.3176661 0.8329467
-0.3327426 -0.2895732 0.8381026
-0.3586299 -0.2668828 0.8303686
-0.4082023 -0.2242031 0.8319154
0.1169184 -0.2285251 0.8339778
-0.4046927 -0.19557 0.8329467
-0.4016218 -0.1669368 0.8355246
0.1572739 -0.1604538 0.8319154
-0.4253113 -0.1523501 0.8365558
0.1607878 -0.1312804 0.8370714
-0.4213631 -0.1242572 0.8303686
-0.4463686 -0.08752026 0.8344934
0.1678025 -0.07509454 0.8370714
0.1713121 -0.04592112 0.8344934
-0.4397882 -0.03025392 0.8370714
-0.4117118 -0.03835765 0.8386182
0.1752603 -0.0167477 0.832431
-0.4323304 0.02755267 0.8319154
-0.4016218 0.04808212 0.8386182
-0.3976736 0.07671529 0.8365558
0.1555147 0.08752026 0.8334622
-0.3946027 0.1053485 0.8381026
0.1291975 0.1102107 0.8329467
0.132707 0.1383036 0.8334622
0.1362166 0.1669368 0.8313999
-0.3608233 0.1777418 0.8360402
0.1050693 0.178282 0.8313999
-0.2976514 0.2501351 0.8370714
-0.2669385 0.2555375 0.8386182
0.02347669 0.2533765 0.8381026
-0.06470512 0.2787682 0.8396494
-0.2629946 0.2841707 0.8319154
-0.3165109 0.2998379 0.8344934
-0.236673 0.2982172 0.835009
-0.2059645 0.2998379 0.8344934
-0.06075688 0.3079416 0.8339778
-0.0243453 0.3468395 0.8355246
-0.1160323 -0.3987034 0.842743
-0.1735055 -0.3868179 0.8453209
-0.1449861 -0.3819557 0.8499613
-0.08576681 -0.3862777 0.8442898
-0.23097 -0.376013 0.842743
-0.2033323 -0.3797947 0.8417118
-0.1129658 -0.3700702 0.8453209
-0.2608012 -0.3689897 0.8442898
-0.3130057 -0.3338736 0.8463522
-0.283179 -0.3317126 0.8432586
-0.2572916 -0.3398163 0.8448054
0.01118888 -0.3371151 0.8468677
0.07523815 -0.3203674 0.840165
-0.3301148 -0.2614803 0.8494458
-0.382315 -0.2458131 0.840165
-0.3559977 -0.2382496 0.842743
0.08532811 -0.2344678 0.8489301
-0.3796872 -0.2171799 0.8489301
0.1195462 -0.199892 0.8448054
0.1230558 -0.1712588 0.8432586
0.1265653 -0.1420854 0.8422274
-0.3985466 -0.1383036 0.8411962
0.1300749 -0.1134522 0.8417118
-0.3954801 -0.1096704 0.8484145
-0.4191696 -0.09562398 0.842743
0.1331501 -0.08481902 0.847899
-0.415217 -0.06699082 0.8406806
0.1441174 0.001080497 0.840165
-0.4055701 0.0189087 0.8489301
0.1476226 0.03025392 0.8411962
0.1511322 0.05888709 0.8417118
0.1243718 0.08049703 0.8484145
0.100678 0.1491086 0.8432586
-0.3309922 0.1853052 0.8494458
0.04628437 0.2085359 0.8453209
0.07874332 0.2074554 0.8422274
-0.3015997 0.2215019 0.8442898
0.04979393 0.2371691 0.8448054
-0.2406213 0.269584 0.842743
-0.3209022 0.2712047 0.8494458
-0.1204192 0.3095624 0.840165
-0.08927196 0.3014587 0.842743
-0.1471795 0.3122636 0.840165
-0.02873224 0.3176661 0.8499613
-0.02346792 -0.3657483 0.8504769
-0.2007045 -0.3506213 0.8515081
-0.170869 -0.3581848 0.8535705
-0.1419152 -0.3533225 0.8551173
-0.08269156 -0.3576445 0.8504769
-0.2278992 -0.34792 0.8504769
-0.1103293 -0.3414371 0.8587265
-0.05154431 -0.3484603 0.8546017
-0.08006378 -0.3284711 0.8587265
-0.2546595 -0.3111832 0.8587265
-0.310378 -0.3052404 0.8561485
0.01425974 -0.3090222 0.8551173
0.0445296 -0.3095624 0.8525393
0.0783134 -0.2922744 0.8509925
0.01776929 -0.2809292 0.8561485
0.04760046 -0.2809292 0.8551173
-0.3064253 -0.276067 0.8515081
-0.2774759 -0.273906 0.8576953
0.08137987 -0.263101 0.8535705
0.05111439 -0.2528363 0.8515081
-0.3533655 -0.2101567 0.8556329
0.08839896 -0.2052944 0.8587265
-0.3766119 -0.1885467 0.8535705
-0.349856 -0.1809832 0.8551173
0.09190851 -0.1772015 0.8546017
-0.3731067 -0.1599136 0.8520237
-0.3700359 -0.1312804 0.8592421
-0.3928524 -0.08103728 0.8551173
0.1094563 -0.03403566 0.8571797
-0.3858289 -0.02377093 0.8546017
0.1397261 -0.02809292 0.8556329
-0.409514 -0.01026472 0.8566641
0.1129658 -0.005402485 0.8561485
-0.382315 0.005942733 0.8556329
0.1164754 0.02377093 0.8582109
0.1199849 0.05186386 0.8592421
-0.3691585 0.1204754 0.8566641
-0.3656446 0.1491086 0.8556329
-0.3353791 0.1561318 0.8592421
0.07436077 0.178282 0.8530549
-0.3059866 0.1923285 0.8571797
-0.3279213 0.2139384 0.8504769
-0.2717685 0.2269044 0.8566641
0.01864229 0.2242031 0.8561485
-0.3244118 0.2425716 0.8525393
-0.1862233 0.2620205 0.8561485
-0.0940976 0.2722853 0.8597577
-0.007236252 0.2733657 0.8582109
-0.1515709 0.2836305 0.8535705
-0.1248062 0.280389 0.8520237
-0.182275 0.291194 0.8540861
-0.02083576 -0.3365748 0.8633668
-0.198068 -0.3219881 0.8638824
-0.04891215 -0.3203674 0.8690384
-0.225267 -0.3192869 0.8607889
-0.2814198 -0.3030794 0.8659448
-0.2221961 -0.2906537 0.8690384
-0.3037932 -0.2474338 0.8613045
-0.3274782 -0.2323069 0.8602732
0.05374217 -0.2242031 0.8664604
0.09498376 -0.1485683 0.8643981
0.09848892 -0.1199352 0.8633668
-0.3669651 -0.1026472 0.8643981
0.1015598 -0.09076175 0.869554
0.1357779 -0.05618585 0.86182
-0.3792485 0.03403566 0.8607889
0.08532811 0.03349541 0.8654292
-0.349856 0.04051864 0.8674916
-0.3766119 0.06266883 0.866976
-0.3463464 0.07023231 0.8649136
-0.3726681 0.091302 0.86182
0.06295473 0.09292275 0.8690384
0.06646428 0.1210157 0.8685228
0.09585676 0.1204754 0.8623357
0.04145874 0.1799028 0.8659448
-0.2761555 0.197731 0.8690384
0.01469843 0.1961102 0.866976
-0.2493951 0.2117774 0.8690384
-0.01468966 0.2160994 0.866976
-0.2458856 0.2398703 0.8628513
-0.1901671 0.2333874 0.8649136
-0.07040814 0.2495948 0.8685228
-0.01118449 0.2447326 0.8649136
-0.1287544 0.2517558 0.8602732
-0.2116719 0.2706645 0.8602732
-0.03311918 0.2895732 0.8623357
-0.1691142 -0.3295516 0.8778036
-0.1401604 -0.3246894 0.8757412
-0.1077015 -0.3128039 0.8705852
-0.07786593 -0.3003782 0.8788347
-0.01820359 -0.3079416 0.872132
-0.1954402 -0.2933549 0.8752255
-0.252466 -0.2830902 0.8741944
-0.01468966 -0.2793085 0.8700696
-0.2752781 -0.2452728 0.8793504
-0.301161 -0.2188006 0.8752255
-0.3252892 -0.2036737 0.8741944
0.05988388 -0.1663965 0.8778036
-0.3481012 -0.1523501 0.8736788
-0.3415208 -0.09562398 0.8767723
-0.3647716 -0.0734738 0.8798659
0.1050693 -0.06266883 0.8726476
-0.3906545 -0.05240411 0.8711008
-0.3538042 0.01188547 0.872132
-0.3244118 0.04808212 0.8798659
0.05900649 0.06374933 0.8700696
0.08796027 0.06212858 0.8757412
-0.34328 0.09886548 0.872132
-0.3397661 0.1269584 0.8700696
0.03356226 0.1215559 0.8752255
-0.3143218 0.1345219 0.8788347
0.06953514 0.1491086 0.8711008
0.03707181 0.1507293 0.8762568
-0.3108079 0.163155 0.8767723
-0.2805424 0.1690978 0.8798659
-0.2533434 0.182604 0.8757412
-0.01864229 0.1874662 0.8731632
-0.219564 0.2128579 0.8762568
-0.07479946 0.2209616 0.8783191
-0.2156157 0.2414911 0.8705852
-0.1563921 0.2549973 0.8705852
-0.03750611 0.2603998 0.8752255
-0.1660434 -0.3009184 0.8845063
-0.2204414 -0.2614803 0.8881155
-0.2498339 -0.2544571 0.8834751
-0.01250058 -0.2506753 0.8875999
0.01908537 -0.2517558 0.8839907
-0.246763 -0.2263641 0.8891467
0.05593564 -0.1950297 0.8855375
-0.3222183 -0.1755808 0.8824439
0.06295473 -0.1383036 0.8855375
-0.3454691 -0.1237169 0.8855375
0.06602559 -0.1091302 0.8896623
-0.361262 -0.04484063 0.8829595
0.07655424 -0.02377093 0.8896623
-0.3577525 -0.0167477 0.8808972
0.08050248 0.004862237 0.8819283
-0.32836 0.0189087 0.8850219
0.05418086 0.03403566 0.8865687
-0.3213453 0.07671529 0.8855375
0.02917971 0.093463 0.8881155
0.09103113 0.091302 0.8839907
-0.2844906 0.1399244 0.8896623
0.005924558 0.1383036 0.8881155
-0.2572916 0.1539708 0.8819283
-0.02346792 0.1582928 0.8896623
0.009434107 0.1669368 0.8870843
-0.1028715 0.2144787 0.8824439
-0.1340187 0.2231226 0.8860531
-0.04232736 0.2306861 0.8881155
-0.09936192 0.2436521 0.8819283
-0.137967 -0.2960562 0.8953338
-0.04716176 -0.2917342 0.8901779
-0.1059423 -0.284711 0.8953338
-0.1634112 -0.2722853 0.8968806
-0.07522938 -0.2722853 0.8906935
-0.04408652 -0.2625608 0.8994586
-0.1897372 -0.2360886 0.8948182
-0.009425334 -0.2225824 0.8958495
0.02259492 -0.2225824 0.8901779
-0.2730846 -0.2166397 0.8937871
-0.2994106 -0.1907077 0.8948182
-0.005481477 -0.1939492 0.8917246
0.02566577 -0.1944895 0.8912091
-0.2700137 -0.1880065 0.8994586
-0.2958967 -0.1620746 0.8958495
0.02873663 -0.1663965 0.8979118
-0.3200248 -0.1474878 0.8968806
-0.2928258 -0.1329011 0.8973962
0.03224618 -0.1372231 0.8968806
-0.3165109 -0.1183144 0.8984274
-0.3130057 -0.089141 0.898943
0.03926528 -0.07995678 0.8994586
-0.3388886 -0.06699082 0.8922403
-0.3362565 -0.03835765 0.8968806
0.04628437 -0.02215019 0.898943
-0.3323126 -0.009724474 0.8922403
-0.2994106 0.02485143 0.898943
0.02171753 0.03511615 0.8968806
0.02566577 0.06428957 0.8912091
-0.3187087 0.1053485 0.8922403
0.001971928 0.1091302 0.896365
-0.2612443 0.1253377 0.8912091
-0.02741616 0.1291194 0.8999742
-0.2243896 0.1842247 0.8922403
-0.1068197 0.1858455 0.8906935
-0.1384057 0.1939492 0.8953338
-0.07918201 0.1917882 0.8906935
-0.1954402 0.2036737 0.8912091
-0.1941198 -0.2647218 0.9030678
-0.1353304 -0.267423 0.9030678
-0.1033102 -0.2560778 0.909255
-0.0730403 -0.2431118 0.9035834
-0.2178048 -0.2339276 0.901521
-0.1318253 -0.2382496 0.9056458
-0.04101566 -0.2344678 0.9030678
-0.03794481 -0.2063749 0.9077082
-0.2665086 -0.1588331 0.9010054
-0.289755 -0.104268 0.9056458
0.06865775 -0.08049703 0.9025522
-0.3099349 -0.06104808 0.9035834
0.0721673 -0.05294435 0.9010054
-0.3064253 -0.03241491 0.9010054
0.04935523 0.005402485 0.9071926
-0.2963354 0.05402485 0.9087394
-0.2928258 0.08265802 0.9071926
-0.2656268 0.09616423 0.9025522
-0.03136002 0.1010265 0.9056458
-0.2893163 0.1118314 0.9061614
-0.2322861 0.1264182 0.9061614
-0.2287722 0.1550513 0.9056458
-0.1423539 0.165316 0.9035834
-0.08356895 0.163155 0.9071926
-0.1998228 0.1750405 0.9056458
-0.04716176 0.202053 0.9051302
-0.1620951 0.2247434 0.9020366
-0.1612177 -0.2441923 0.9164733
-0.06996945 -0.2144787 0.9102861
-0.2156157 -0.2052944 0.9195669
-0.187978 -0.2079957 0.9175045
-0.2454469 -0.197731 0.9149265
-0.03443526 -0.1772015 0.9102861
-0.003722316 -0.165316 0.9123486
-0.000655847 -0.1366829 0.9159577
0.002853702 -0.1080497 0.9180201
0.03487395 -0.10859 0.9102861
-0.2871228 -0.07617504 0.9175045
0.04189744 -0.05132361 0.9113173
-0.2801037 -0.01836845 0.9164733
0.01733059 0.006482982 0.9118329
-0.2770329 0.01026472 0.9169889
-0.2700137 0.06753106 0.9138953
-0.002849315 0.08103728 0.9113173
-0.236673 0.09724473 0.9185357
-0.0581291 0.1161534 0.9113173
-0.203771 0.1464074 0.9102861
-0.05154431 0.1734198 0.9185357
-0.166482 0.1966505 0.9149265
-0.100678 -0.2269044 0.9211137
-0.1585856 -0.2155592 0.9288477
-0.1296362 -0.2101567 0.9236917
-0.09760714 -0.1988115 0.9257541
-0.2125449 -0.176121 0.9267852
-0.2428147 -0.1690978 0.9298788
-0.0318031 -0.1480281 0.9231761
-0.2643107 -0.1307401 0.9211137
-0.2388665 -0.1399244 0.9252385
-0.284052 -0.04754187 0.9216293
-0.3042319 -0.00378174 0.9200825
-0.01468966 -0.005402485 0.9278165
-0.0107458 0.02323069 0.9226605
-0.273962 0.03835765 0.9200825
-0.007236252 0.05186386 0.9226605
-0.2121018 0.089141 0.9298788
-0.06251165 0.08698001 0.9257541
-0.09190413 0.1053485 0.9242073
-0.2081579 0.1172339 0.9242073
-0.1471795 0.1366829 0.9252385
-0.05505386 0.1447866 0.9205981
-0.1129658 0.1572123 0.9247229
-0.1555147 -0.186926 0.9324568
-0.1274383 -0.1820637 0.9396752
-0.06777598 -0.1863857 0.9324568
-0.1857846 -0.1793625 0.9319412
-0.09497499 -0.1701783 0.9381284
-0.1524439 -0.1577526 0.9381284
-0.2099127 -0.1474878 0.9376128
-0.236673 -0.1118314 0.9376128
-0.02873224 -0.1199352 0.9319412
0.00504717 -0.07995678 0.933488
-0.02215184 -0.06266883 0.9370972
-0.01908098 -0.03403566 0.9396752
0.01206627 -0.02215019 0.9370972
-0.2480791 0.01242572 0.9340036
-0.2450038 0.04105889 0.9376128
-0.24106 0.06915181 0.9309101
-0.2156157 0.06050783 0.9303944
-0.03662434 0.07185305 0.9329724
-0.1204192 0.09994598 0.9340036
-0.1783268 0.1102107 0.9329724
-0.1169097 0.1285791 0.9314256
-0.1752559 0.1383036 0.938644
-0.08883327 0.1339816 0.9329724
-0.170869 0.167477 0.9309101
-0.1831524 -0.1507293 0.9427688
-0.1243631 -0.1528903 0.9474092
-0.09190413 -0.1415451 0.9468935
-0.2629946 -0.1026472 0.9458624
-0.02610008 -0.091302 0.9407064
-0.2336066 -0.08319827 0.9427688
0.008118026 -0.05078336 0.9432843
-0.2559712 -0.04592112 0.9458624
-0.2270218 -0.02593193 0.9463779
-0.2520273 -0.0167477 0.9422532
-0.04496391 0.01404646 0.9468935
-0.2200027 0.03133442 0.9453467
-0.04101566 0.04321988 0.941222
-0.1857846 0.05294435 0.9432843
-0.06733728 0.05888709 0.9427688
-0.1559534 0.07833604 0.9474092
-0.09716406 0.07617504 0.9479247
-0.1524439 0.1069692 0.9448311
-0.0660212 -0.1577526 0.9535963
-0.1805203 -0.1220962 0.9551431
-0.1502504 -0.1296596 0.9556587
-0.06251165 -0.1285791 0.9525651
-0.2077193 -0.1199352 0.9551431
-0.05900211 -0.1004862 0.9505027
-0.2599238 -0.0734738 0.9515339
-0.2011345 -0.06212858 0.9582366
-0.2305313 -0.0545651 0.9505027
-0.2239509 0.002701242 0.9530807
-0.1252448 0.07023231 0.9520495
-0.1835911 0.08157752 0.9597834
-0.08971066 -0.1129119 0.965455
-0.1471795 -0.1010265 0.965455
-0.2050871 -0.091302 0.9664862
-0.1774494 -0.093463 0.9602991
-0.05636994 -0.07185305 0.9633926
-0.198068 -0.03349541 0.9670018
-0.04978954 -0.01458671 0.9690642
-0.1945584 -0.004862237 0.962877
-0.07567246 0.001620746 0.9613302
-0.1055036 0.0178282 0.968033
-0.1910489 0.02377093 0.9639082
-0.07216291 0.02971367 0.9633926
-0.1603403 0.04970286 0.9618458
-0.1300661 0.04159914 0.9690642
-0.1015554 0.04700162 0.9649394
-0.1230514 -0.1242572 0.9716422
-0.1195418 -0.09616423 0.975767
-0.0870785 -0.08427877 0.9762825
-0.1752559 -0.06482982 0.9773138
-0.0532947 -0.04267963 0.9700954
-0.1717464 -0.0367369 0.975767
-0.08006378 -0.02701243 0.9762825
-0.1090132 -0.01026472 0.9726734
-0.1686755 -0.008103727 0.9783449
-0.165166 0.02052944 0.9773138
-0.1449861 -0.0723933 0.9840165
-0.08400764 -0.0556456 0.9804073
-0.1384057 -0.01566721 0.9881413
-0.1344574 0.01350621 0.9829853
-0.1177871 -0.06753106 0.997422
-0.1147162 -0.03889789 0.9994844
-0.1427926 -0.04430038 1
