# .PCD v.7 - Point Cloud Data file format
VERSION .7
FIELDS x y z
SIZE 4 4 4
TYPE F F F
COUNT 1 1 1
WIDTH 1511
HEIGHT 1
VIEWPOINT 0 0 0 1 0 0 0
POINTS 1511
DATA ascii
-0.8885718 0.5748244 -0.9773138
-0.8337351 0.5748244 -0.9731889
-0.8043382 0.5715829 -0.9721578
-0.6385164 0.5796866 -0.9711266
0.6503655 0.5737439 -0.9773138
0.6828288 0.5726634 -0.9721578
0.7433686 0.5764452 -0.9773138
0.8622546 0.5769854 -0.9731889
0.8890149 0.5780659 -0.9742202
0.9223556 0.5764452 -0.9773138
-0.9122612 0.5867099 -0.9762825
-0.7788984 0.5802269 -0.970611
0.5025258 0.5840086 -0.970611
0.5635042 0.5823879 -0.9742202
0.6236053 0.5802269 -0.9711266
-0.7218726 0.5958941 -0.9716422
0.2564186 0.5948136 -0.9726734
0.2849337 0.5953538 -0.9716422
0.3463508 0.5904917 -0.9711266
0.381885 0.5996758 -0.9788606
0.5920193 0.5958941 -0.9711266
0.7710063 0.5910318 -0.9742202
0.8311073 0.5991356 -0.9711266
-0.9403377 0.6045381 -0.9783449
-0.885501 0.6045381 -0.9747357
-0.8547924 0.6083198 -0.9700954
0.6867771 0.6023771 -0.9731889
0.8657641 0.6061589 -0.9726734
0.9535028 0.6099406 -0.9721578
0.9868436 0.6029173 -0.9788606
-0.9087473 0.6169638 -0.9752514
-0.7753888 0.6104808 -0.9711266
0.4450569 0.6169638 -0.9721578
0.5069127 0.6142626 -0.9778293
0.5345504 0.6180443 -0.9767981
0.5670093 0.6126418 -0.9700954
-0.6626446 0.6272285 -0.9711266
0.2603669 0.6250675 -0.9752514
0.288882 0.6250675 -0.9711266
0.3502991 0.6207455 -0.9731889
0.5959675 0.626148 -0.975767
0.7749589 0.6212858 -0.975767
0.8354899 0.6293895 -0.975767
-0.826716 0.6358725 -0.9721578
-0.5779767 0.6310103 -0.9742202
0.6578233 0.6337115 -0.9778293
0.6907254 0.632631 -0.9783449
0.717047 0.6358725 -0.9726734
0.7503877 0.6358725 -0.9737046
0.8697124 0.6364127 -0.9742202
0.8964727 0.6380335 -0.9737046
0.9903531 0.632631 -0.975767
-0.9052421 0.6466775 -0.9773138
0.3248549 0.6423555 -0.9767981
0.4156644 0.645597 -0.975767
0.4775202 0.6472177 -0.9762825
0.5714007 0.6428958 -0.9788606
0.9574511 0.6401945 -0.9783449
-0.7394159 0.654241 -0.9778293
-0.6042983 0.658563 -0.9700954
0.2643151 0.6553214 -0.9783449
0.2923959 0.6547812 -0.9716422
0.5994815 0.6558617 -0.9737046
0.7789028 0.6515397 -0.9798917
0.8390038 0.6596434 -0.9737046
-0.957008 0.6634251 -0.9793761
-0.9333186 0.6645057 -0.9773138
0.6613329 0.6639654 -0.9737046
0.6942349 0.6618044 -0.9716422
0.7543359 0.6661264 -0.9773138
0.9004209 0.6682874 -0.9711266
0.9341959 0.6661264 -0.9778293
0.9947357 0.6623447 -0.9798917
-0.9021713 0.6763911 -0.9726734
-0.767931 0.6704484 -0.9737046
0.3283644 0.6726094 -0.9767981
0.419174 0.6753107 -0.9767981
0.4529534 0.6769314 -0.9778293
0.4810298 0.6769314 -0.9711266
0.5143705 0.6736899 -0.9798917
0.5749102 0.6726094 -0.9793761
-0.6556255 0.6871961 -0.9731889
0.7824124 0.6812534 -0.975767
-0.982891 0.6996218 -0.9788606
-0.9539372 0.6925986 -0.9778293
-0.9302521 0.6942194 -0.9742202
-0.8196969 0.6952999 -0.9752514
-0.7898657 0.6915181 -0.9793761
-0.5709576 0.6909779 -0.9742202
0.7578455 0.6958401 -0.9737046
0.8170691 0.6947596 -0.9752514
0.9039305 0.6980011 -0.9716422
-0.89778 0.7066451 -0.9798917
-0.7644215 0.7007023 -0.9783449
0.3323126 0.7023231 -0.9778293
0.456906 0.7071853 -0.9767981
0.5183188 0.7039438 -0.9783449
0.3963663 0.719611 -0.9737046
0.7859263 0.7109671 -0.9752514
0.8469003 0.719611 -0.9788606
-0.9267381 0.7244732 -0.9773138
-0.8714628 0.7244732 -0.9762825
-0.8403155 0.728255 -0.9773138
-0.7863562 0.7212318 -0.9778293
0.6687907 0.7233928 -0.9767981
0.7021314 0.7223123 -0.9767981
0.761355 0.7255538 -0.9716422
0.8214561 0.7250135 -0.9798917
0.8811184 0.726094 -0.9773138
0.3353835 0.7314965 -0.9711266
0.4266318 0.7352782 -0.9737046
0.4889263 0.736899 -0.9798917
0.5218283 0.7336575 -0.9773138
0.5490273 0.7379795 -0.9711266
0.582368 0.7320367 -0.9798917
0.6429077 0.730416 -0.9778293
0.2752825 0.7444624 -0.9773138
0.3998715 0.7493247 -0.9742202
-0.9232286 0.7541869 -0.9762825
-0.8683919 0.7541869 -0.9747357
-0.6170204 0.7590492 -0.9731889
-0.5634998 0.7504052 -0.9762825
0.6464173 0.7595894 -0.9773138
0.6727389 0.7536467 -0.9762825
0.7324013 0.7563479 -0.9742202
0.7653033 0.7558077 -0.9737046
0.8850623 0.7558077 -0.9783449
0.9113883 0.7574284 -0.9721578
0.9723711 0.7595894 -0.9773138
-0.7578411 0.7606699 -0.9731889
0.3388931 0.7612101 -0.9711266
0.4301413 0.7649919 -0.9762825
0.4924358 0.7666126 -0.9762825
0.5529755 0.7676932 -0.975767
-0.7258165 0.7741761 -0.9721578
-0.5358577 0.7784981 -0.9716422
-0.5069084 0.7709346 -0.9767981
0.2783533 0.7747164 -0.970611
0.6143926 0.7757969 -0.9773138
0.7933797 0.7714749 -0.9762825
0.8539194 0.7784981 -0.9742202
-0.972801 0.7898433 -0.9773138
-0.9434085 0.7822798 -0.9767981
-0.8332964 0.7871421 -0.9762825
-0.8096113 0.7855213 -0.9737046
-0.7797758 0.7806591 -0.9742202
0.6499268 0.7887628 -0.9731889
0.7363539 0.7860616 -0.9762825
0.8885762 0.7855213 -0.975767
0.9153365 0.7876824 -0.9726734
-0.8876944 0.7968665 -0.9747357
-0.7543315 0.7909238 -0.9737046
0.4336509 0.7947056 -0.9726734
0.4959454 0.7968665 -0.9742202
0.5288474 0.7930848 -0.9726734
0.5898258 0.7920043 -0.9773138
-0.6973014 0.8060508 -0.9788606
-0.5323526 0.8082118 -0.9726734
-0.5038375 0.8011885 -0.9721578
0.3108166 0.8049703 -0.9737046
0.6179022 0.8060508 -0.970611
-0.8613728 0.8141545 -0.9752514
-0.8302255 0.817396 -0.9747357
-0.8056587 0.8157753 -0.9798917
-0.7762662 0.810913 -0.9726734
0.8324234 0.8146948 -0.9731889
0.8925244 0.815235 -0.9747357
0.9197235 0.8179362 -0.9798917
-0.8841849 0.8265802 -0.9752514
-0.7503833 0.8211777 -0.9793761
-0.6643993 0.8265802 -0.975767
0.3467895 0.8222582 -0.975767
0.4713785 0.82604 -0.9737046
0.5332344 0.8233387 -0.9788606
0.5933354 0.821718 -0.9747357
-0.7187974 0.8341437 -0.9716422
-0.6937918 0.8363047 -0.9742202
-0.5292817 0.8379254 -0.9700954
0.3143306 0.8341437 -0.9742202
0.6218461 0.8357645 -0.9742202
-0.9372668 0.8422474 -0.970611
-0.8578632 0.8449486 -0.9726734
-0.8262729 0.8476499 -0.9767981
-0.8021492 0.8454889 -0.9762825
0.6573846 0.8498109 -0.9731889
0.8363717 0.8449486 -0.9798917
0.8964727 0.8454889 -0.9747357
0.9565737 0.8460292 -0.9726734
-0.7477512 0.8503512 -0.9700954
-0.6608898 0.8562939 -0.9726734
0.3502991 0.8514317 -0.9752514
0.4753268 0.8557537 -0.9767981
0.5639429 0.8579146 -0.9737046
-0.7148491 0.8643976 -0.9798917
-0.690721 0.8654781 -0.9700954
0.25598 0.8665586 -0.970611
0.4143484 0.8687196 -0.9700954
0.6257987 0.8654781 -0.9773138
0.8047857 0.8611561 -0.9778293
-0.8543537 0.8752026 -0.9773138
-0.7990739 0.8752026 -0.9762825
0.7810963 0.8757429 -0.9793761
0.8999822 0.8752026 -0.9742202
0.3542473 0.8816856 -0.9778293
0.4788407 0.8860075 -0.9747357
0.5069127 0.8860075 -0.9731889
0.5678911 0.8881686 -0.9762825
0.6007932 0.8811453 -0.9716422
0.321784 0.8946515 -0.9762825
0.8692737 0.8984333 -0.9788606
-0.9587628 0.9097785 -0.9798917
-0.8512828 0.9049163 -0.9711266
0.6652855 0.908698 -0.9767981
0.7841671 0.9054565 -0.9721578
0.9039305 0.9054565 -0.9747357
-0.8740949 0.9168018 -0.9742202
0.2340453 0.9124798 -0.975767
0.4485665 0.915181 -0.9783449
0.4823459 0.9157212 -0.9721578
0.510861 0.9162615 -0.9773138
0.5714007 0.9178822 -0.9721578
0.6047458 0.9113992 -0.9747357
0.2638764 0.9265262 -0.9767981
0.2972172 0.923825 -0.9788606
0.3257279 0.9249055 -0.9793761
0.3867106 0.9200432 -0.9767981
0.4222448 0.9286872 -0.9721578
0.6332565 0.9259859 -0.9793761
0.8122435 0.9216639 -0.9793761
0.8727832 0.9286872 -0.9747357
-0.9030443 0.9335494 -0.9711266
-0.8473346 0.9340897 -0.9783449
0.6946736 0.9330092 -0.9747357
0.7881153 0.9351702 -0.9742202
0.934639 0.9378714 -0.9798917
0.9951788 0.9394922 -0.9767981
-0.8701423 0.9465154 -0.9788606
-0.7372225 0.9411129 -0.9721578
0.3617051 0.9411129 -0.9742202
0.5148092 0.9465154 -0.9798917
0.6086897 0.9411129 -0.9778293
0.267386 0.9573204 -0.9767981
0.3011654 0.9540789 -0.9788606
0.3292418 0.9546191 -0.9788606
0.815753 0.9513776 -0.975767
0.8762928 0.9584008 -0.9737046
-0.8442637 0.9638034 -0.9731889
-0.7885497 0.9659643 -0.9773138
0.6986175 0.9632631 -0.9793761
0.7587185 0.9659643 -0.9778293
0.9113883 0.9648839 -0.9747357
0.9381486 0.9681253 -0.9752514
0.9986883 0.9697461 -0.9788606
0.4560243 0.9751486 -0.975767
0.490238 0.9756888 -0.9783449
0.2708911 0.987034 -0.9752514
0.304675 0.9843328 -0.9742202
0.4296983 0.9886548 -0.9731889
0.8197013 0.9805511 -0.975767
0.8798023 0.9875743 -0.9726734
-0.8403155 0.9945975 -0.9773138
-0.8091683 0.9972988 -0.9747357
-0.7547746 0.9902755 -0.9783449
0.7622324 0.9951378 -0.9767981
0.7960119 0.9951378 -0.9778293
0.9416581 0.9972988 -0.9742202
0.5727168 -0.9918963 -0.9602991
0.8135552 -0.9940572 -0.9685486
0.6332565 -0.9843328 -0.9649394
0.516564 -0.9773096 -0.9633926
0.6051757 -0.9767693 -0.9670018
0.7240661 -0.9751486 -0.9618458
0.5771037 -0.9621826 -0.9690642
0.668352 -0.9459751 -0.9639082
0.7876766 -0.9492167 -0.9633926
0.5801746 -0.9319287 -0.9608147
0.6402756 -0.9243652 -0.962877
0.6126379 -0.9168018 -0.9623615
0.701254 -0.9157212 -0.9602991
0.7319626 -0.9157212 -0.9664862
0.7916205 -0.9189627 -0.965455
0.7052022 -0.8860075 -0.9659706
0.7354721 -0.8860075 -0.9618458
0.7657419 -0.8838466 -0.968033
0.6793193 -0.8568342 -0.9618458
0.7087118 -0.8557537 -0.962877
0.7688128 -0.8541329 -0.9633926
0.8618159 -0.8557537 -0.9613302
0.6832676 -0.8265802 -0.9608147
0.8030309 -0.8298217 -0.9639082
0.8662028 -0.82604 -0.9670018
0.8973501 -0.8265802 -0.9670018
0.8354899 -0.815235 -0.9644238
0.8069792 -0.8001081 -0.9639082
0.8697124 -0.7963263 -0.9644238
0.7797801 -0.7644516 -0.9602991
0.9043692 -0.7676932 -0.9633926
0.9385872 -0.7541869 -0.9675174
0.9083174 -0.7379795 -0.9649394
0.847339 -0.7255538 -0.9664862
0.8811184 -0.7066451 -0.9618458
0.9122612 -0.7082658 -0.9670018
0.8218948 -0.6812534 -0.9613302
0.9776354 -0.6893571 -0.9664862
0.8846323 -0.6774716 -0.9613302
0.9811406 -0.6601837 -0.9685486
0.8885762 -0.6472177 -0.965455
0.9846501 -0.6299298 -0.9639082
0.8925244 -0.6169638 -0.9618458
0.8618159 -0.6061589 -0.962877
0.9886028 -0.6002161 -0.965455
0.9614037 -0.5748244 -0.9639082
0.9921079 -0.5705025 -0.9613302
-0.990783 -0.5591572 -0.9659706
0.9960561 -0.5402485 -0.9618458
-0.9771879 -0.439222 -0.9602991
0.8841892 -0.4278768 -0.9602991
0.3792529 -0.4024851 -0.9613302
0.9197235 -0.4078876 -0.9685486
-0.4617229 -0.3976229 -0.9649394
0.8604998 -0.3824959 -0.9664862
-0.9701688 -0.3787142 -0.9623615
0.5942084 -0.3506213 -0.9613302
-0.9666593 -0.3490005 -0.9602991
0.9267426 -0.3484603 -0.9613302
0.9574511 -0.3495408 -0.9633926
0.8960296 -0.3376553 -0.9675174
-0.6657155 -0.3290114 -0.9613302
0.5380599 -0.3241491 -0.9618458
0.5696459 -0.3225284 -0.9623615
0.8675189 -0.3230686 -0.9602991
-0.9631541 -0.3198271 -0.9613302
0.807861 -0.3192869 -0.9644238
-0.9890327 -0.2944354 -0.9670018
0.5420082 -0.2938952 -0.9623615
0.5735942 -0.2933549 -0.9675174
0.6916028 -0.2906537 -0.962877
0.6328134 -0.2895732 -0.9613302
0.7802233 -0.2884927 -0.9670018
0.484105 -0.2712047 -0.9602991
0.8754154 -0.263101 -0.968033
-0.9824523 -0.2339276 -0.962877
0.6086897 -0.2312264 -0.9613302
0.6994992 -0.2301459 -0.962877
0.7587185 -0.2301459 -0.9608147
0.8793592 -0.2333874 -0.9659706
0.6696681 -0.2160994 -0.9623615
0.5850002 -0.2042139 -0.9659706
0.7030088 -0.2009725 -0.9623615
0.7302078 -0.2085359 -0.9659706
0.5262153 -0.1961102 -0.9685486
0.7911906 -0.1988115 -0.965455
0.946045 -0.1993517 -0.965455
0.4955023 -0.1815235 -0.965455
0.6736163 -0.1858455 -0.9644238
-0.9754332 -0.17396 -0.965455
0.5885141 -0.17396 -0.9623615
0.706957 -0.1712588 -0.9675174
0.4691851 -0.1642355 -0.9618458
0.5292861 -0.1658563 -0.962877
0.8267204 -0.169638 -0.965455
0.8547968 -0.167477 -0.9613302
0.9179643 -0.1588331 -0.9613302
-0.9719236 -0.1447866 -0.9633926
-0.8885718 -0.1469476 -0.965455
0.7376656 -0.1480281 -0.9644238
0.8903266 -0.1437061 -0.9618458
0.9837683 -0.1404646 -0.9633926
-0.560429 -0.1323609 -0.9623615
0.5332344 -0.1356024 -0.9618458
0.8302255 -0.1399244 -0.9602991
0.4419861 -0.1296596 -0.9644238
0.5025258 -0.1226364 -0.9602991
0.6810741 -0.1258779 -0.9685486
0.9219169 -0.1291194 -0.9639082
-0.9684184 -0.1145327 -0.9659706
0.5643816 -0.1145327 -0.9644238
0.6240439 -0.1118314 -0.9685486
0.7416138 -0.1188547 -0.9675174
0.9872823 -0.1107509 -0.9633926
0.3849559 -0.1010265 -0.9639082
0.4766428 -0.1048082 -0.9613302
0.5371826 -0.106429 -0.9670018
0.9263039 -0.09886548 -0.9675174
-0.9653432 -0.08481902 -0.9644238
0.5683298 -0.08373852 -0.9664862
0.5994815 -0.08427877 -0.962877
0.718363 -0.08103728 -0.962877
0.7451234 -0.08860075 -0.9649394
0.8982275 -0.08319827 -0.9644238
0.9907918 -0.08103728 -0.9602991
-0.9894714 -0.07185305 -0.968033
0.3889041 -0.07077256 -0.9664862
0.4204901 -0.0734738 -0.9659706
0.4490052 -0.07023231 -0.9608147
0.4801524 -0.07509454 -0.9613302
0.8065405 -0.07941653 -0.9685486
0.9614037 -0.07995678 -0.962877
0.9293747 -0.06915181 -0.9623615
-0.9618337 -0.0545651 -0.9613302
0.5718437 -0.0545651 -0.962877
0.6034253 -0.05402485 -0.9623615
0.6315017 -0.05186386 -0.968033
0.6630877 -0.05078336 -0.9633926
0.9021757 -0.05402485 -0.9649394
0.9951788 -0.05132361 -0.9685486
-0.9859618 -0.04213938 -0.9633926
0.4525147 -0.04051864 -0.962877
0.484105 -0.04538088 -0.9644238
0.5442017 -0.04646137 -0.962877
-0.6564985 -0.02755267 -0.9602991
0.6350113 -0.02160994 -0.9639082
0.7258165 -0.02160994 -0.962877
0.7521425 -0.02863317 -0.9618458
0.7859263 -0.02106969 -0.9690642
0.999127 -0.02160994 -0.9670018
-0.9824523 -0.01188547 -0.9675174
0.456906 -0.01026472 -0.9670018
0.4876102 -0.01512696 -0.9613302
0.8135552 -0.01998919 -0.9664862
0.9692959 -0.01944895 -0.9664862
0.517437 -0.002160994 -0.9613302
0.9372712 -0.009184225 -0.9664862
-0.9548146 0.004862237 -0.962877
0.5788585 0.004862237 -0.9644238
0.6113218 0.005402485 -0.9685486
0.6709797 0.009184225 -0.9690642
0.7297691 0.008103727 -0.9659706
0.7894315 0.008643976 -0.962877
0.8175078 0.009184225 -0.9659706
0.9091948 0.005402485 -0.9602991
0.4604112 0.01998919 -0.9664862
0.5209509 0.02755267 -0.9618458
-0.9517437 0.03511615 -0.9608147
0.6420304 0.0367369 -0.9602991
0.6744937 0.03889789 -0.9659706
0.7596003 0.03079417 -0.9633926
0.7933797 0.03889789 -0.9649394
0.8214561 0.03997839 -0.9675174
0.913143 0.0356564 -0.9623615
0.4354013 0.04592112 -0.9685486
0.4955023 0.04484063 -0.962877
0.8811184 0.04159914 -0.962877
0.5244604 0.05672609 -0.9602991
-0.9477955 0.06537007 -0.9633926
-0.9179643 0.06969206 -0.9623615
0.586755 0.06537007 -0.9695798
0.6459786 0.06753106 -0.9623615
0.6784419 0.06807131 -0.9690642
0.7631098 0.06050783 -0.9608147
0.8574246 0.06915181 -0.9690642
0.9170913 0.06537007 -0.962877
0.9802632 0.06969206 -0.9602991
-0.9723623 0.07779579 -0.962877
0.4389152 0.07617504 -0.9623615
0.4674303 0.07941653 -0.9633926
0.4990162 0.07509454 -0.9623615
0.8850623 0.07131281 -0.9613302
-0.670541 0.08968125 -0.9623615
0.7073957 0.08319827 -0.9695798
-0.9995613 0.09454349 -0.9639082
0.6222891 0.09562398 -0.9613302
0.7407364 0.09778498 -0.9608147
0.7670581 0.0902215 -0.9633926
0.8284752 0.09940573 -0.962877
0.9210395 0.09508374 -0.9664862
0.9842114 0.09940573 -0.9670018
-0.9688483 0.1075095 -0.962877
0.3814463 0.10859 -0.9618458
0.4713785 0.1096704 -0.965455
-0.4792706 0.1161534 -0.9613302
0.7109053 0.1129119 -0.9644238
0.7705676 0.1199352 -0.9602991
0.9521868 0.1102107 -0.9664862
-0.9960561 0.1247974 -0.9664862
-0.8569859 0.1220962 -0.9659706
0.6262374 0.1253377 -0.968033
0.6534364 0.1269584 -0.9633926
0.685461 0.1280389 -0.9602991
0.8319847 0.1296596 -0.9613302
0.9249878 0.1247974 -0.9670018
0.987721 0.1285791 -0.9602991
-0.528843 0.1366829 -0.9608147
-0.4525103 0.1345219 -0.9623615
0.4753268 0.1388439 -0.9685486
0.8929631 0.1312804 -0.9659706
0.9561306 0.1399244 -0.9685486
0.7148491 0.1426256 -0.9695798
-0.9074357 0.1593733 -0.965455
-0.8824301 0.1555916 -0.965455
-0.8539106 0.1518098 -0.9623615
0.598161 0.1545111 -0.9695798
0.6569459 0.1572123 -0.9618458
0.6894093 0.1577526 -0.9659706
0.7745159 0.1501891 -0.9633926
0.8683919 0.1582928 -0.965455
0.9289317 0.1545111 -0.9664862
-0.9618337 0.1669368 -0.9613302
0.3889041 0.1690978 -0.9639082
0.4503212 0.1658563 -0.9690642
0.5705233 0.1620746 -0.9649394
0.8960296 0.1609941 -0.962877
-0.6064962 0.1793625 -0.9602991
0.5398147 0.1766613 -0.9649394
0.718363 0.1728795 -0.9659706
0.9600832 0.1701783 -0.9695798
-0.9890327 0.184765 -0.968033
-0.9346346 0.184765 -0.9602991
-0.8504055 0.1820637 -0.9608147
-0.4994505 0.1815235 -0.962877
0.6613329 0.1880065 -0.9675174
0.8723446 0.1885467 -0.965455
0.9328843 0.184765 -0.9670018
-0.957881 0.197731 -0.9690642
-0.5218239 0.1961102 -0.9613302
0.4538308 0.19557 -0.9670018
0.9635928 0.199892 -0.9670018
-0.7117783 0.2074554 -0.9618458
0.5433243 0.2069152 -0.962877
0.7218726 0.2031334 -0.962877
-0.9855187 0.2144787 -0.9675174
-0.9302521 0.2150189 -0.9690642
0.3327513 0.2117774 -0.965455
0.6051757 0.2150189 -0.9675174
0.6648424 0.2171799 -0.9675174
0.6973057 0.2177202 -0.9659706
0.8758541 0.2182604 -0.9633926
-0.8205787 0.2209616 -0.9608147
0.3634643 0.2258239 -0.965455
0.4862941 0.2290654 -0.968033
0.5468338 0.2366288 -0.9633926
0.7258165 0.2323069 -0.9664862
-0.9820136 0.2447326 -0.968033
-0.9271768 0.2441923 -0.968033
-0.8433864 0.2420313 -0.9613302
0.641153 0.2436521 -0.962877
0.668352 0.2463533 -0.9618458
0.7008153 0.2479741 -0.962877
0.8197013 0.2474338 -0.9618458
0.880241 0.2485143 -0.9675174
0.939899 0.2441923 -0.9644238
-0.8170648 0.2506753 -0.9623615
-0.5148048 0.2560778 -0.9602991
0.5218283 0.2539168 -0.965455
0.90744 0.2512155 -0.9623615
-0.7047592 0.267423 -0.9608147
-0.5420038 0.2679633 -0.9649394
0.7293304 0.2625608 -0.9639082
-0.9789427 0.2749865 -0.9659706
-0.8929588 0.2787682 -0.9690642
-0.8688306 0.2755267 -0.9618458
0.6451012 0.273906 -0.9670018
0.7047635 0.2776877 -0.9695798
0.8232108 0.2776877 -0.9602991
0.8512872 0.2798487 -0.968033
0.8837506 0.2787682 -0.9670018
0.9438516 0.273906 -0.9659706
-0.9477955 0.2874122 -0.9633926
0.4933132 0.289033 -0.9659706
0.5257766 0.2836305 -0.9675174
0.9113883 0.280389 -0.9664862
-0.7012496 0.2965964 -0.962877
0.7328399 0.2928147 -0.9639082
-0.9205964 0.3052404 -0.9633926
-0.8898879 0.3090222 -0.962877
-0.4854123 0.3014587 -0.9618458
0.3437187 0.3014587 -0.9649394
0.6157131 0.3041599 -0.9613302
0.6762528 0.3068612 -0.968033
0.7087118 0.3079416 -0.9670018
0.7679355 0.3068612 -0.9690642
0.8547968 0.3095624 -0.9633926
0.9477999 0.3041599 -0.9639082
-0.9442859 0.3176661 -0.965455
0.283179 0.3138844 -0.965455
0.5292861 0.3133442 -0.9664862
0.5898258 0.3122636 -0.9670018
0.3130101 0.3209076 -0.9633926
-0.9170869 0.3349541 -0.9649394
-0.8863828 0.3381956 -0.968033
-0.8618115 0.3349541 -0.9618458
-0.4823415 0.3317126 -0.9608147
-0.4007445 0.3327931 -0.962877
0.6793193 0.3365748 -0.9649394
0.771445 0.3365748 -0.9675174
0.858745 0.3392761 -0.9664862
0.9517481 0.3338736 -0.968033
0.2871228 0.3441383 -0.9685486
0.3783755 0.3457591 -0.9690642
0.4112775 0.3484603 -0.965455
0.2265919 0.356564 -0.9649394
0.2551025 0.3554835 -0.9608147
0.3169584 0.3511615 -0.9685486
0.5621881 0.3560238 -0.9695798
0.8012761 0.3598055 -0.9670018
-0.9684184 0.3646677 -0.9690642
-0.9131386 0.3646677 -0.9690642
-0.8833075 0.3679093 -0.9623615
-0.8583019 0.3657483 -0.9623615
-0.4788319 0.360886 -0.9613302
-0.3972349 0.3625067 -0.9659706
0.3511765 0.360886 -0.9664862
0.6231666 0.3641275 -0.9623615
0.6832676 0.3668287 -0.962877
0.8350599 0.3668287 -0.9685486
-0.9372668 0.3770935 -0.9639082
0.2906367 0.3733117 -0.9649394
0.381885 0.376013 -0.968033
0.4437408 0.3776337 -0.965455
0.4762042 0.3749325 -0.9633926
0.5047193 0.3787142 -0.968033
-0.7714362 0.3857374 -0.9675174
-0.447246 0.3857374 -0.9618458
0.230097 0.3851972 -0.9649394
0.2590508 0.3851972 -0.9639082
0.5656977 0.3857374 -0.9649394
-0.9894714 0.3933009 -0.968033
-0.9105065 0.3943814 -0.962877
0.6275535 0.3938412 -0.9695798
0.6600124 0.3938412 -0.9675174
0.6872202 0.3965424 -0.9649394
0.7196791 0.3970827 -0.9675174
0.8385651 0.3976229 -0.9633926
0.8986661 0.3976229 -0.962877
-0.4209244 0.4041059 -0.9649394
0.1713121 0.4041059 -0.9690642
0.294585 0.4035656 -0.968033
0.419174 0.4078876 -0.9685486
0.4476891 0.4078876 -0.9690642
0.4797137 0.4046461 -0.9623615
0.5406922 0.4030254 -0.9664862
-0.7429255 0.4159914 -0.9649394
-0.4432977 0.4154511 -0.9639082
0.2015819 0.4176121 -0.9675174
0.2336066 0.4154511 -0.9618458
-0.9065583 0.4246353 -0.9690642
-0.8758453 0.4284171 -0.9690642
-0.8218904 0.4213938 -0.9695798
-0.1735055 0.4224743 -0.9623615
0.1410422 0.4257158 -0.9618458
0.6635264 0.4235548 -0.9649394
0.7231887 0.4273366 -0.9623615
0.782851 0.4262561 -0.968033
0.8425134 0.4273366 -0.965455
0.9627154 0.4235548 -0.9623615
-0.7964461 0.4300378 -0.9633926
-0.1480569 0.4305781 -0.9608147
0.2980902 0.4332793 -0.9659706
0.3889041 0.4354403 -0.9608147
0.4226835 0.4381416 -0.9690642
0.9302521 0.4305781 -0.9675174
-0.7398546 0.445705 -0.9608147
-0.5753446 0.4484063 -0.9608147
-0.4402269 0.4451648 -0.9602991
-0.3094962 0.4424635 -0.9608147
-0.2002615 0.4462453 -0.968033
0.2660699 0.445705 -0.9613302
-0.9030443 0.454349 -0.9695798
-0.8477777 0.4554295 -0.9649394
-0.8183808 0.4511075 -0.968033
-0.0594408 0.4527282 -0.9649394
0.6674746 0.4527282 -0.9639082
0.906567 0.4570502 -0.9664862
0.967098 0.4532685 -0.9690642
-0.4139053 0.4646137 -0.9633926
0.02654316 0.4635332 -0.9649394
0.1787699 0.4640735 -0.9690642
0.4261931 0.467315 -0.9670018
0.4551468 0.4667747 -0.9664862
0.4876102 0.4640735 -0.9664862
-0.7613506 0.4748784 -0.9639082
-0.7359064 0.4748784 -0.968033
-0.5713963 0.4786602 -0.9618458
-0.5433199 0.471637 -0.9613302
-0.517437 0.4781199 -0.9690642
-0.3599503 0.4700162 -0.9623615
-0.3296761 0.4775797 -0.968033
-0.2761555 0.4732577 -0.9659706
-0.1967519 0.4759589 -0.9664862
0.2410644 0.4754187 -0.962877
0.2700181 0.4754187 -0.9613302
-0.8447024 0.4856834 -0.9623615
-0.8153056 0.4813614 -0.9639082
-0.6494837 0.4894651 -0.9639082
-0.5964018 0.4808212 -0.9602991
-0.08663981 0.4808212 -0.9664862
0.6714228 0.4829822 -0.9695798
0.9105109 0.4867639 -0.9690642
-0.7038818 0.4975689 -0.9602991
-0.3559977 0.4997299 -0.968033
-0.1406035 0.4905457 -0.9670018
0.0304914 0.4932469 -0.9659706
0.08928074 0.4905457 -0.9613302
0.1822794 0.4943274 -0.968033
0.4911197 0.4937871 -0.9675174
0.5516595 0.4921664 -0.9664862
0.6117605 0.4905457 -0.9664862
-0.6771215 0.5067531 -0.9639082
-0.6222848 0.5083739 -0.9618458
-0.5678868 0.5089141 -0.9623615
-0.2730846 0.5029714 -0.9608147
0.2125493 0.5072933 -0.9690642
0.2450126 0.5051324 -0.9690642
0.3700403 0.5099946 -0.9690642
-0.9754332 0.5121556 -0.968033
-0.951305 0.5137764 -0.9664862
-0.8118004 0.5110751 -0.9613302
-0.2164931 0.5191788 -0.9664862
-0.1625382 0.5121556 -0.9644238
-0.08313026 0.5116153 -0.9644238
0.0651482 0.5143166 -0.9618458
0.8811184 0.5186386 -0.9649394
-0.7003679 0.5272825 -0.962877
-0.106381 0.5256618 -0.9602991
0.007245026 0.5251216 -0.9649394
0.09322459 0.5202593 -0.9670018
0.185789 0.5245813 -0.9659706
0.4950724 0.5240411 -0.968033
0.5227101 0.5278228 -0.9664862
0.555169 0.5224203 -0.9633926
0.6152701 0.5207996 -0.9602991
0.9416581 0.5202593 -0.9670018
-0.6736119 0.537007 -0.9613302
-0.6187752 0.5386277 -0.9613302
-0.5108566 0.5375473 -0.9633926
-0.4292595 0.534846 -0.9649394
-0.2691364 0.5332253 -0.9675174
-0.02390661 0.5332253 -0.9675174
0.2156245 0.537007 -0.9608147
0.2770372 0.5353863 -0.9618458
-0.9723623 0.5424095 -0.9649394
-0.8618115 0.547812 -0.9659706
-0.8082909 0.541329 -0.9659706
-0.2129836 0.5488925 -0.9644238
0.1563965 0.545651 -0.9695798
0.738543 0.5461913 -0.9690642
0.9785084 0.5429497 -0.968033
-0.7824036 0.5505132 -0.9649394
-0.6968627 0.5569962 -0.9623615
-0.4033766 0.554295 -0.9659706
0.4985775 0.5537547 -0.965455
0.5591173 0.5526742 -0.965455
-0.6152657 0.5688817 -0.9602991
-0.3191474 0.5672609 -0.962877
-0.2656268 0.5629389 -0.965455
0.2520317 0.5651 -0.9649394
0.2809855 0.5651 -0.965455
0.5876324 0.5651 -0.9639082
0.8275978 0.5694219 -0.9690642
-0.8583019 0.5780659 -0.968033
0.159906 0.5759049 -0.9664862
0.8012761 0.5759049 -0.9618458
0.9824566 0.5732037 -0.9695798
0.3165197 0.5829281 -0.9664862
0.5306022 0.5877904 -0.9685486
0.9491159 0.5802269 -0.9685486
-0.7468737 0.5948136 -0.9690642
-0.6665928 0.5964344 -0.962877
-0.5038375 0.5980551 -0.9623615
-0.2915097 0.5926526 -0.9618458
-0.2616742 0.5926526 -0.9659706
-0.9653432 0.6018369 -0.9639082
-0.6350069 0.6094003 -0.9664862
-0.5823637 0.6007563 -0.9639082
0.6534364 0.6034576 -0.9695798
0.7130987 0.6056186 -0.968033
0.7464395 0.6061589 -0.9690642
0.8925244 0.6077796 -0.9690642
-0.6898436 0.6169638 -0.962877
-0.4722515 0.6142626 -0.9602991
-0.2349183 0.6180443 -0.9649394
0.3204679 0.6126418 -0.9670018
0.4735676 0.6169638 -0.9670018
0.6271104 0.6104808 -0.9670018
-0.7187974 0.6256078 -0.9685486
-0.5542873 0.6277688 -0.9633926
-0.4998892 0.628309 -0.9644238
-0.3116896 0.6272285 -0.965455
-0.2880002 0.6223663 -0.9608147
-0.7977622 0.63047 -0.9639082
0.8087339 0.6353322 -0.9649394
-0.7718793 0.6407347 -0.968033
0.5099836 0.643436 -0.9664862
0.5376213 0.6477579 -0.965455
0.631063 0.6407347 -0.9695798
-0.7157265 0.6558617 -0.9618458
-0.659135 0.6569422 -0.9690642
-0.4963797 0.6580227 -0.9659706
-0.3086188 0.6569422 -0.9608147
0.3529269 0.6504592 -0.9613302
0.3884654 0.6596434 -0.9659706
-0.8793592 0.6639654 -0.9613302
-0.8477777 0.6677471 -0.9685486
-0.6284308 0.6688277 -0.9659706
-0.5749059 0.6607239 -0.965455
-0.4432977 0.6601837 -0.9649394
-0.3617007 0.6618044 -0.9613302
0.6345726 0.6699082 -0.9670018
0.7205521 0.6661264 -0.9633926
0.8727832 0.6661264 -0.9670018
-0.4652324 0.6742302 -0.9608147
-0.3893384 0.6742302 -0.962877
0.5411308 0.6780119 -0.962877
-0.7372225 0.6839546 -0.9633926
-0.712217 0.6855754 -0.965455
-0.6012319 0.6882766 -0.965455
-0.4933088 0.6877363 -0.962877
-0.4402269 0.6898974 -0.9613302
-0.3046705 0.6866559 -0.9664862
0.2669473 0.6844949 -0.9644238
0.3564408 0.6801729 -0.962877
0.3915319 0.6898974 -0.9608147
0.6025479 0.6855754 -0.965455
-0.6244782 0.6990816 -0.9690642
-0.3581912 0.6909779 -0.9659706
0.6380777 0.6996218 -0.9649394
0.6977444 0.6920583 -0.9675174
0.8771701 0.6963803 -0.9690642
0.360389 0.7098866 -0.9633926
0.5450747 0.7082658 -0.9659706
-0.7332699 0.7136683 -0.9664862
-0.7082687 0.7152891 -0.9695798
-0.6525546 0.7169098 -0.962877
-0.5433199 0.7185305 -0.9659706
-0.4897993 0.71745 -0.9644238
-0.301161 0.7169098 -0.9664862
-0.2770329 0.7125878 -0.9664862
0.2989719 0.7147488 -0.9618458
-0.6209687 0.7287952 -0.9659706
-0.5678868 0.7206915 -0.968033
-0.4367217 0.7201512 -0.9618458
-0.3546772 0.7212318 -0.962877
0.90744 0.7277148 -0.9675174
-0.6753667 0.736899 -0.965455
0.4599725 0.736899 -0.9695798
-0.7297647 0.743382 -0.9649394
-0.7052022 0.7444624 -0.962877
-0.6494837 0.7471637 -0.9623615
-0.5942084 0.7487844 -0.965455
-0.5398104 0.7482442 -0.9690642
-0.5112953 0.741221 -0.9659706
0.8499712 0.7487844 -0.9675174
-0.8131165 0.7558077 -0.9690642
-0.4327691 0.7504052 -0.9690642
-0.6723002 0.7666126 -0.9644238
-0.3788098 0.7639114 -0.9623615
0.3674081 0.7698541 -0.9623615
-0.6459742 0.7763371 -0.9618458
-0.5902645 0.7790384 -0.9685486
-0.4827802 0.7768773 -0.9623615
-0.4007445 0.7747164 -0.9670018
0.3064297 0.7741761 -0.965455
0.403381 0.7795786 -0.9675174
-0.6143883 0.7882226 -0.9618458
-0.5608677 0.7801189 -0.9690642
0.7688128 0.7860616 -0.9690642
0.8280365 0.7849811 -0.968033
-0.6683476 0.7968665 -0.9685486
0.3428413 0.7920043 -0.9695798
0.556042 0.797947 -0.9664862
-0.6424647 0.806591 -0.9623615
-0.4792706 0.8071313 -0.9659706
-0.3967962 0.8049703 -0.9675174
-0.2906324 0.806591 -0.9649394
0.4064519 0.808752 -0.962877
-0.5569194 0.8103728 -0.9695798
-0.3437099 0.8114533 -0.965455
0.6534364 0.8190168 -0.9695798
-0.3717907 0.823879 -0.9633926
-0.6385164 0.8368449 -0.965455
-0.5007666 0.830362 -0.9618458
-0.3937254 0.8341437 -0.9649394
0.2853724 0.8341437 -0.9670018
-0.5542873 0.8400865 -0.9608147
-0.7701245 0.8698001 -0.9608147
-0.4187309 0.8698001 -0.9690642
-0.283179 0.8670989 -0.9649394
0.2893206 0.8643976 -0.9690642
-0.3366952 0.8708806 -0.9649394
0.6608942 0.8789843 -0.968033
0.6867771 0.8730416 -0.9690642
-0.7446803 0.8800648 -0.9659706
0.2928258 0.8941113 -0.9690642
-0.906997 0.9032955 -0.9659706
-0.7964461 0.9049163 -0.9659706
-0.3327426 0.9011346 -0.9695798
0.7503877 0.9054565 -0.9690642
-0.7411708 0.910859 -0.9644238
-0.8166261 0.9373312 -0.9664862
-0.792941 0.9351702 -0.9664862
-0.3292374 0.9313884 -0.968033
0.7543359 0.9357104 -0.9685486
0.90744 0.9351702 -0.9695798
-0.8999779 0.9638034 -0.9695798
0.9148978 0.9945975 -0.9690642
0.2744051 -0.995678 -0.9530807
0.3042362 -0.9983792 -0.9525651
0.5455177 -0.9762291 -0.9510183
0.6933575 -0.9751486 -0.9541119
0.7534541 -0.9729876 -0.9577211
0.6363273 -0.9546191 -0.9572055
0.5490273 -0.9465154 -0.9520495
0.608251 -0.9470556 -0.9572055
0.6973057 -0.9454349 -0.9561743
0.7275756 -0.9454349 -0.9551431
0.7574068 -0.9427336 -0.9592679
0.3112553 -0.9384117 -0.9510183
0.5529755 -0.9157212 -0.9520495
0.6714228 -0.9157212 -0.9525651
0.5836841 -0.902215 -0.9582366
0.6437808 -0.8941113 -0.9577211
0.6157131 -0.8865478 -0.9525651
0.6753711 -0.8865478 -0.9597834
0.5871937 -0.8730416 -0.9535963
0.6477334 -0.8649378 -0.9587523
0.5301635 -0.8584549 -0.9505027
0.619657 -0.8573744 -0.9577211
0.7389817 -0.8557537 -0.9592679
0.6231666 -0.8276607 -0.9530807
0.7117826 -0.8265802 -0.9530807
0.7429299 -0.82604 -0.9597834
0.5946515 -0.813074 -0.9505027
0.5376213 -0.7984873 -0.9505027
0.6867771 -0.7968665 -0.9561743
0.7152922 -0.7963263 -0.9510183
0.7464395 -0.7963263 -0.9535963
0.9004209 -0.7974068 -0.9592679
0.81005 -0.7709346 -0.9561743
0.749949 -0.7666126 -0.9505027
0.8732219 -0.7666126 -0.9592679
0.2419418 -0.7595894 -0.9525651
0.8420747 -0.7558077 -0.9530807
-0.9315638 -0.7374392 -0.9510183
-0.2875615 -0.7358185 -0.9510183
-0.0002171534 -0.7396002 -0.9510183
0.0309301 -0.7309563 -0.9510183
0.7538972 -0.7363587 -0.9541119
0.7837284 -0.734738 -0.9592679
0.8767315 -0.7363587 -0.9582366
-0.9017326 -0.7212318 -0.9551431
-0.3643329 -0.7066451 -0.9520495
0.7578455 -0.7066451 -0.9530807
0.7867993 -0.704484 -0.9530807
-0.3362565 -0.6915181 -0.9525651
0.9456064 -0.6936791 -0.9577211
-0.9521868 -0.6855754 -0.9530807
-0.924979 -0.6774716 -0.9505027
0.7302078 -0.6763911 -0.9505027
0.761355 -0.6769314 -0.9515339
0.7907475 -0.6742302 -0.9551431
0.9153365 -0.6774716 -0.9535963
-0.8951522 -0.6612642 -0.9520495
-0.8683919 -0.6612642 -0.9535963
-0.6780033 -0.6650459 -0.9505027
0.9491159 -0.6639654 -0.9515339
-0.9758719 -0.6515397 -0.9525651
-0.9486728 -0.6558617 -0.9546275
-0.7306421 -0.6553214 -0.9541119
0.5275313 -0.6515397 -0.9515339
0.8249656 -0.6509995 -0.9525651
-0.9210352 -0.6477579 -0.9546275
-0.3573138 -0.6472177 -0.9566899
0.01031149 -0.649919 -0.9510183
0.4086453 -0.6423555 -0.9520495
0.7946957 -0.6445165 -0.9541119
0.9192848 -0.6477579 -0.9561743
-0.891204 -0.6315505 -0.9561743
-0.8648779 -0.6310103 -0.9530807
-0.5683298 -0.63047 -0.9520495
0.1349005 -0.6310103 -0.9535963
0.9530641 -0.6342518 -0.9582366
0.6766828 -0.626148 -0.9510183
0.8289139 -0.6212858 -0.9561743
0.6494882 -0.6185846 -0.9535963
0.7982053 -0.6148028 -0.9515339
0.9232286 -0.6180443 -0.9582366
-0.5648159 -0.6012966 -0.9515339
0.4428634 -0.6002161 -0.9525651
0.6205344 -0.6045381 -0.9505027
0.9565737 -0.6045381 -0.9525651
-0.9688483 -0.5921124 -0.9572055
-0.5117339 -0.5942734 -0.9520495
0.6806354 -0.5958941 -0.9515339
-0.2695751 -0.5856294 -0.9510183
0.772761 -0.5877904 -0.9541119
0.8021579 -0.5845489 -0.9541119
0.8955997 -0.5872501 -0.9551431
-0.8846236 -0.5715829 -0.9515339
-0.4832189 -0.5769854 -0.9566899
-0.377055 -0.5786062 -0.9505027
0.1419196 -0.5715829 -0.9510183
0.3257279 -0.5775257 -0.9510183
0.6244826 -0.5742842 -0.9546275
0.8648868 -0.5764452 -0.9525651
-0.9657819 -0.5618585 -0.9525651
-0.9381442 -0.5661805 -0.9520495
-0.5880666 -0.5661805 -0.9505027
-0.4555812 -0.5683414 -0.9505027
0.02127884 -0.560778 -0.9505027
0.4797137 -0.554295 -0.9510183
0.598161 -0.5580767 -0.9515339
0.9302521 -0.5586169 -0.9530807
-0.8811097 -0.5418693 -0.9520495
-0.6639606 -0.545651 -0.9515339
-0.480148 -0.5472717 -0.9530807
0.4507599 -0.5407888 -0.9551431
0.868835 -0.5472717 -0.9556587
0.9644702 -0.5440302 -0.9541119
-0.9622723 -0.532685 -0.9551431
-0.9346346 -0.5364668 -0.9535963
-0.7170426 -0.5359265 -0.9520495
-0.5047148 -0.5343058 -0.9505027
0.8403199 -0.5316045 -0.9551431
-0.9877166 -0.5294436 -0.9577211
-0.6073692 -0.5207996 -0.9525651
-0.8776045 -0.5121556 -0.9515339
-0.8508441 -0.5116153 -0.9535963
0.9684184 -0.5143166 -0.9561743
-0.7951301 -0.5099946 -0.9546275
0.8438295 -0.5018909 -0.9510183
0.9995701 -0.5099946 -0.9577211
-0.9846457 -0.4991896 -0.9561743
0.2748438 -0.4910859 -0.9525651
0.4279478 -0.4921664 -0.9566899
0.6648424 -0.4986494 -0.9535963
0.7245048 -0.4986494 -0.9551431
0.7530242 -0.4981091 -0.9535963
0.906997 -0.4975689 -0.9510183
0.9377099 -0.4991896 -0.9546275
-0.4191696 -0.4846029 -0.9551431
0.2138654 -0.4862237 -0.9541119
0.6354499 -0.4846029 -0.9505027
0.8762928 -0.4873042 -0.9561743
-0.9552532 -0.4727175 -0.9541119
-0.7372225 -0.4781199 -0.9525651
-0.7100235 -0.4759589 -0.9505027
-0.4976958 -0.4748784 -0.9505027
0.5788585 -0.4700162 -0.9551431
0.695551 -0.4764992 -0.9530807
0.8482164 -0.4721772 -0.9582366
-0.9806975 -0.4689357 -0.9582366
-0.5235787 -0.4635332 -0.9525651
0.4314574 -0.4624527 -0.9535963
0.6687907 -0.4689357 -0.9556587
0.9416581 -0.4689357 -0.9572055
-0.4696237 -0.4575905 -0.9530807
0.1563965 -0.4516478 -0.9505027
0.3099393 -0.4581307 -0.9515339
0.6393982 -0.4548892 -0.9520495
0.880241 -0.4575905 -0.9566899
-0.9521868 -0.4424635 -0.9510183
-0.5735942 -0.4462453 -0.9551431
0.6999379 -0.4473258 -0.9597834
0.8521602 -0.4424635 -0.9572055
-0.8973501 -0.4381416 -0.9525651
-0.5964018 -0.4316586 -0.9561743
-0.5196304 -0.4332793 -0.9561743
0.1901759 -0.432739 -0.9510183
0.4354013 -0.432739 -0.9566899
0.6135153 -0.4386818 -0.9525651
0.6718615 -0.439222 -0.9505027
0.7604777 -0.4376013 -0.9525651
0.9456064 -0.439222 -0.9592679
-0.6499225 -0.4257158 -0.9510183
-0.4121505 -0.4246353 -0.9505027
0.9798245 -0.4246353 -0.9520495
-0.9482341 -0.4127499 -0.9582366
-0.9205964 -0.4165316 -0.9541119
-0.4906767 -0.4159914 -0.9520495
0.5266539 -0.4132901 -0.9530807
0.7030088 -0.4176121 -0.9520495
0.8556741 -0.4122096 -0.9551431
-0.9741215 -0.4095084 -0.9572055
-0.8933975 -0.4078876 -0.9566899
-0.5165596 -0.4035656 -0.9530807
0.2858111 -0.4019449 -0.9551431
0.4389152 -0.4030254 -0.9546275
0.6174635 -0.4084279 -0.9561743
0.7354721 -0.4089681 -0.9525651
0.8245226 -0.4062669 -0.9546275
0.9491159 -0.4095084 -0.9572055
-0.8635663 -0.3927607 -0.9525651
-0.7815306 -0.3905997 -0.9525651
-0.6196526 -0.3900594 -0.9515339
0.3173971 -0.3987034 -0.9520495
0.6464173 -0.3949217 -0.9520495
0.8876988 -0.3976229 -0.9597834
-1 -0.3835765 -0.9551431
-0.9451633 -0.3830362 -0.9515339
-0.9170869 -0.3868179 -0.9582366
-0.7266939 -0.3889789 -0.9561743
-0.6986175 -0.3857374 -0.9582366
-0.4871671 -0.3857374 -0.9505027
0.5301635 -0.3830362 -0.9535963
0.5613064 -0.3830362 -0.9520495
0.706957 -0.3873582 -0.9530807
-0.51305 -0.373852 -0.9510183
0.2897594 -0.371691 -0.9566899
0.3823237 -0.371691 -0.9566899
0.4424247 -0.3727715 -0.9530807
0.5025258 -0.3743922 -0.9530807
0.6209731 -0.3792545 -0.9551431
0.679758 -0.3797947 -0.9541119
0.9227987 -0.3770935 -0.9592679
0.9530641 -0.3797947 -0.9577211
-0.7784597 -0.360886 -0.9510183
-0.6429034 -0.3662885 -0.9530807
0.3213453 -0.3689897 -0.9525651
0.4121549 -0.3684495 -0.9572055
0.6503655 -0.365208 -0.9520495
0.891647 -0.3679093 -0.9582366
0.9872823 -0.365208 -0.9551431
-0.9412194 -0.352242 -0.9577211
-0.9135817 -0.3571043 -0.9592679
-0.6157044 -0.3598055 -0.9572055
-0.5630567 -0.356564 -0.9566899
0.5336774 -0.3527823 -0.9505027
0.565259 -0.3527823 -0.9561743
0.7104666 -0.3571043 -0.9535963
0.8631276 -0.3527823 -0.9551431
-0.8868126 -0.3490005 -0.9556587
-0.5858732 -0.3414371 -0.9515339
0.2937076 -0.3419773 -0.9592679
0.3858289 -0.3419773 -0.9510183
0.4463686 -0.3435981 -0.9541119
0.6244826 -0.3495408 -0.9546275
0.6837063 -0.3495408 -0.9541119
0.8319847 -0.3468395 -0.9520495
-0.7745115 -0.3311723 -0.9530807
-0.6393982 -0.3360346 -0.9515339
-0.6126291 -0.3300918 -0.9556587
0.354686 -0.3398163 -0.9505027
0.4152257 -0.3381956 -0.9530807
0.4762042 -0.3317126 -0.9541119
0.6543182 -0.3354943 -0.9587523
0.9916692 -0.3354943 -0.9577211
-0.9934196 -0.3241491 -0.9525651
-0.9381442 -0.3225284 -0.9546275
-0.9105065 -0.3268504 -0.9510183
0.7139761 -0.3279308 -0.9505027
0.9605219 -0.3203674 -0.9535963
-0.8833075 -0.3182064 -0.9566899
-0.5055922 -0.3138844 -0.9592679
0.2972172 -0.3117234 -0.9572055
0.3586299 -0.3101026 -0.9535963
0.3893428 -0.3122636 -0.9510183
0.7468781 -0.3198271 -0.9530807
0.7758319 -0.3187466 -0.9592679
0.8354899 -0.3165856 -0.9525651
0.9298134 -0.3187466 -0.9541119
-0.8525989 -0.3025392 -0.9566899
-0.6358843 -0.3057806 -0.9520495
0.419174 -0.3090222 -0.9582366
0.4801524 -0.3014587 -0.9577211
0.658262 -0.3057806 -0.9572055
0.8991048 -0.3079416 -0.9566899
0.9951788 -0.3057806 -0.9582366
-0.9346346 -0.2933549 -0.9572055
-0.9065583 -0.2960562 -0.9530807
-0.4761998 -0.2960562 -0.9535963
0.7179244 -0.2971367 -0.9525651
0.7508264 -0.2901134 -0.9520495
0.8710284 -0.2928147 -0.9551431
0.9644702 -0.2901134 -0.9572055
-0.9600789 -0.2895732 -0.9597834
-0.5788541 -0.2820097 -0.9541119
0.3932911 -0.28255 -0.9535963
0.8109274 -0.289033 -0.9572055
0.933766 -0.289033 -0.9515339
-0.8495281 -0.2728255 -0.9505027
-0.631936 -0.2755267 -0.9556587
-0.5257722 -0.2722853 -0.9546275
-0.4485621 -0.278228 -0.9510183
0.4231222 -0.2793085 -0.9582366
0.6617716 -0.276067 -0.9587523
0.9026144 -0.2787682 -0.9577211
0.9986883 -0.276067 -0.9515339
-0.9864005 -0.2641815 -0.9541119
-0.9311251 -0.263101 -0.9546275
0.576665 -0.2636413 -0.9541119
0.6047458 -0.26094 -0.9582366
0.6358886 -0.2603998 -0.9541119
0.6951123 -0.2603998 -0.9582366
0.7218726 -0.267423 -0.9551431
-0.9565693 -0.2598595 -0.9592679
-0.5753446 -0.2517558 -0.9525651
-0.4985732 -0.2539168 -0.9541119
0.397678 -0.2522961 -0.9582366
0.4573359 -0.2539168 -0.9510183
0.7552133 -0.2593193 -0.9587523
0.782851 -0.2582388 -0.9505027
0.8433908 -0.2571583 -0.9546275
0.9377099 -0.258779 -0.9561743
0.967541 -0.2598595 -0.9505027
-0.8196969 -0.2420313 -0.9535963
-0.6021048 -0.2404106 -0.9520495
-0.4450525 -0.2479741 -0.9525651
0.4871715 -0.2420313 -0.9530807
0.6652855 -0.2458131 -0.9515339
0.906567 -0.2490546 -0.9592679
-0.9530598 -0.2301459 -0.9582366
-0.9280542 -0.2339276 -0.9530807
-0.6815084 -0.2366288 -0.9510183
0.5801746 -0.2339276 -0.9546275
0.6398369 -0.2301459 -0.9587523
0.7258165 -0.2377093 -0.9556587
0.971928 -0.2301459 -0.9587523
-0.5713963 -0.2220421 -0.9577211
0.4011875 -0.2225824 -0.9551431
0.4612886 -0.2242031 -0.9551431
0.7863562 -0.2285251 -0.9515339
0.847339 -0.2269044 -0.9597834
0.9412194 -0.2290654 -0.9520495
0.3397704 -0.2193409 -0.9535963
0.4906811 -0.2123177 -0.9525651
0.9105109 -0.2182604 -0.9577211
-0.9798157 -0.2042139 -0.9515339
-0.6780033 -0.2069152 -0.9561743
0.5529755 -0.2036737 -0.9582366
0.7622324 -0.2004322 -0.9572055
0.8819958 -0.2031334 -0.9530807
-0.8697124 -0.1988115 -0.9530807
-0.5683298 -0.1923285 -0.9535963
0.3735498 -0.1901675 -0.9572055
0.4046971 -0.1928687 -0.9546275
0.4652368 -0.1944895 -0.9587523
0.6437808 -0.199892 -0.9566899
0.8223335 -0.1993517 -0.9556587
0.8508486 -0.1971907 -0.9572055
-0.6214074 -0.1858455 -0.9515339
-0.4375947 -0.189087 -0.9577211
0.9135817 -0.1885467 -0.9530807
-0.6744893 -0.1772015 -0.9541119
0.6152701 -0.171799 -0.9515339
0.6472947 -0.1701783 -0.9561743
0.7328399 -0.1788223 -0.9505027
0.7661807 -0.1707185 -0.9551431
0.8863828 -0.1734198 -0.9592679
0.9798245 -0.1707185 -0.9592679
-0.9464837 -0.169638 -0.9515339
-0.8661984 -0.1690978 -0.9561743
-0.7815306 -0.1615343 -0.9530807
-0.7275668 -0.1685575 -0.9510183
-0.5648159 -0.1620746 -0.9525651
0.3774981 -0.1604538 -0.9582366
0.4375991 -0.1604538 -0.9587523
0.9491159 -0.1690978 -0.9546275
-0.8096113 -0.1534306 -0.9530807
0.4985775 -0.1518098 -0.9572055
0.6766828 -0.1555916 -0.9577211
-0.6990561 -0.1496488 -0.9541119
0.5604333 -0.1442464 -0.9592679
0.5920193 -0.1442464 -0.9582366
0.619657 -0.1415451 -0.9592679
0.6512429 -0.1410049 -0.9582366
0.7100279 -0.1410049 -0.9535963
-0.9973679 -0.1312804 -0.9535963
0.3810076 -0.1307401 -0.9582366
0.4121549 -0.1334414 -0.9535963
0.4722559 -0.1345219 -0.9530807
0.7701289 -0.1399244 -0.9572055
0.8583063 -0.1383036 -0.9566899
-0.8319759 -0.1231767 -0.9525651
-0.8060974 -0.1226364 -0.9561743
-0.9140117 -0.1134522 -0.9561743
-0.885501 -0.1166937 -0.9577211
-0.6955466 -0.1199352 -0.9566899
-0.6674658 -0.1166937 -0.9551431
-0.4547038 -0.1161534 -0.9525651
0.5955288 -0.1139924 -0.9587523
0.6547481 -0.1102107 -0.9541119
0.8337395 -0.1102107 -0.9582366
0.8938406 -0.1139924 -0.9546275
-0.9934196 -0.1015667 -0.9577211
-0.9394603 -0.1096704 -0.9546275
-0.859175 -0.1091302 -0.9551431
-0.5573625 -0.1031875 -0.9572055
0.8017148 -0.1096704 -0.9546275
0.8622546 -0.1080497 -0.9592679
0.9570124 -0.1096704 -0.9587523
-0.8025879 -0.09292275 -0.9541119
-0.6385164 -0.0902215 -0.9510183
-0.4275048 -0.09940573 -0.9535963
0.4446182 -0.09940573 -0.9525651
0.5060397 -0.0923825 -0.9561743
-0.9355164 -0.08103728 -0.9582366
-0.9100678 -0.08373852 -0.9597834
-0.8824301 -0.08698001 -0.9515339
-0.6639606 -0.08752026 -0.9505027
0.6271104 -0.08211777 -0.9597834
0.6587007 -0.08049703 -0.9561743
0.777148 -0.08103728 -0.9530807
0.8376877 -0.08049703 -0.9592679
-0.8556698 -0.07941653 -0.9566899
0.8657641 -0.07779579 -0.9582366
-0.6345638 -0.06050783 -0.9587523
-0.5810475 -0.06104808 -0.9535963
-0.4239952 -0.06915181 -0.9505027
0.5091062 -0.06266883 -0.9515339
0.6876501 -0.06699082 -0.9561743
-0.9324412 -0.05078336 -0.9561743
-0.9074357 -0.0534846 -0.9535963
-0.8784819 -0.05726634 -0.9597834
-0.6604511 -0.05726634 -0.9520495
0.7477512 -0.05888709 -0.9541119
0.8411929 -0.05024311 -0.9535963
-0.713533 -0.04916262 -0.9525651
0.391975 -0.04105889 -0.9546275
0.4235609 -0.04321988 -0.9561743
0.8096113 -0.04970286 -0.9582366
0.8692737 -0.04808212 -0.9556587
0.9644702 -0.04970286 -0.9556587
-0.8218904 -0.03403566 -0.9510183
-0.6314973 -0.03079417 -0.9505027
-0.5779767 -0.03079417 -0.9515339
0.5130544 -0.03241491 -0.9520495
0.6916028 -0.0367369 -0.9587523
0.9328843 -0.03943814 -0.9572055
-0.9592015 -0.02485143 -0.9541119
-0.9289317 -0.02052944 -0.9551431
-0.9039261 -0.02323069 -0.9515339
-0.8749723 -0.02809292 -0.9592679
0.5749102 -0.02539168 -0.9577211
0.6069348 -0.02377093 -0.9561743
0.8451455 -0.02052944 -0.9556587
0.9052466 -0.02485143 -0.9566899
-0.7639828 -0.01188547 -0.9561743
-0.7100235 -0.0189087 -0.9505027
-0.4704967 -0.01458671 -0.9577211
0.3954845 -0.01134522 -0.9541119
0.4270705 -0.01350621 -0.9572055
0.5477113 -0.0167477 -0.9582366
-0.8179421 -0.003241491 -0.9556587
-0.6815084 -0.0005402485 -0.9577211
-0.6279878 -0.0005402485 -0.9505027
-0.6003501 -0.007023231 -0.9530807
-0.4169761 -0.009724474 -0.9525651
0.6946736 -0.006482982 -0.9510183
-0.8719015 0.002160994 -0.9505027
-0.6529933 0.002160994 -0.9566899
-0.5213852 0.002160994 -0.9505027
0.6380777 0.007563479 -0.9566899
0.755652 0.001080497 -0.9587523
0.8486551 0.009184225 -0.9541119
-0.9798157 0.0178282 -0.9541119
-0.7604689 0.0178282 -0.9572055
-0.5433199 0.0167477 -0.9566899
-0.4669872 0.01512696 -0.9556587
0.4310187 0.01620745 -0.9587523
0.4911197 0.01512696 -0.9577211
0.5516595 0.01296596 -0.9587523
-0.7889884 0.02647218 -0.9535963
-0.6244782 0.02971367 -0.9546275
-0.5705189 0.02863317 -0.9587523
0.6990606 0.02269044 -0.9592679
0.9403421 0.02052944 -0.9561743
-0.8679532 0.03295516 -0.9561743
-0.5178757 0.03187466 -0.9541119
0.853042 0.03943814 -0.9582366
0.9763149 0.03997839 -0.9597834
-0.9763106 0.04754187 -0.9572055
-0.7025657 0.04051864 -0.9551431
-0.5398104 0.04646137 -0.9572055
0.555169 0.04267963 -0.9561743
0.9438516 0.04970286 -0.9556587
-0.7297647 0.05780659 -0.9510183
-0.5670093 0.05942734 -0.9592679
-0.4867284 0.05672609 -0.9520495
-0.8929588 0.06591032 -0.9592679
-0.6459742 0.06266883 -0.9587523
0.7960119 0.06861156 -0.9530807
-0.5367395 0.07617504 -0.9515339
-0.4599681 0.07563479 -0.9561743
0.4064519 0.07833604 -0.9556587
0.5586786 0.0723933 -0.9572055
-0.7262552 0.08752026 -0.9546275
-0.6174635 0.08860075 -0.9561743
-0.5639385 0.089141 -0.9515339
-0.4832189 0.08589952 -0.9551431
0.5279744 0.08643977 -0.9582366
-0.9451633 0.09508374 -0.9577211
-0.9153321 0.09940573 -0.9510183
-0.8898879 0.09562398 -0.9582366
-0.6424647 0.0923825 -0.9577211
-0.8350512 0.1004862 -0.9541119
0.4104001 0.1080497 -0.9566899
0.4415474 0.1053485 -0.9530807
0.5025258 0.1048082 -0.9561743
0.8885762 0.1015667 -0.9587523
-0.8043382 0.1156132 -0.9515339
-0.7227456 0.1177742 -0.9541119
-0.6679089 0.1193949 -0.9510183
-0.6139496 0.1188547 -0.9556587
-0.560429 0.1183144 -0.9520495
0.5319182 0.1166937 -0.9572055
-0.9416494 0.1247974 -0.9587523
-0.9113839 0.1285791 -0.9582366
-0.8868126 0.1258779 -0.9515339
-0.6389551 0.1220962 -0.9582366
0.8640094 0.1285791 -0.9577211
-0.9657819 0.1372231 -0.9541119
-0.831546 0.1307401 -0.9566899
0.3520539 0.1361426 -0.9582366
0.3840785 0.1388439 -0.9505027
0.4134666 0.1383036 -0.9515339
0.5661364 0.1318206 -0.9535963
-0.7753888 0.1464074 -0.9520495
-0.6643993 0.1496488 -0.9515339
-0.61044 0.1491086 -0.9561743
-0.5569194 0.1485683 -0.9530807
-0.8280321 0.1604538 -0.9577211
-0.7424868 0.1680173 -0.9566899
-0.5257722 0.1663965 -0.9546275
-0.4498782 0.1647758 -0.9541119
0.3555634 0.1663965 -0.9566899
0.4174192 0.1680173 -0.9535963
-0.6604511 0.1799028 -0.9572055
-0.5792972 0.1734198 -0.9530807
-0.5534099 0.1788223 -0.9525651
-0.9043648 0.189087 -0.9572055
-0.8793592 0.1858455 -0.9587523
0.8113661 0.1880065 -0.9525651
-0.3919706 0.199892 -0.9546275
0.3595116 0.1961102 -0.9597834
0.5134931 0.1944895 -0.9566899
0.5735942 0.1923285 -0.9546275
0.8995435 0.191248 -0.9566899
-0.7683697 0.2058347 -0.9510183
-0.6034209 0.2090762 -0.9566899
-0.5753446 0.2025932 -0.9572055
-0.5494616 0.2085359 -0.9561743
-0.468742 0.2052944 -0.9561743
-0.9008552 0.2182604 -0.9587523
-0.8758453 0.2160994 -0.9566899
-0.8473346 0.2117774 -0.9541119
-0.6819471 0.2198811 -0.9510183
-0.6284308 0.2123177 -0.9535963
-0.4156601 0.2128579 -0.9520495
0.6372047 0.2144787 -0.9597834
0.7819737 0.2101567 -0.9597834
-0.7354677 0.2274446 -0.9587523
0.3954845 0.2279849 -0.9530807
0.517437 0.2242031 -0.9572055
0.9034918 0.2215019 -0.9592679
-0.7903044 0.2355483 -0.9510183
-0.7644215 0.2360886 -0.9551431
-0.7087074 0.2377093 -0.9566899
-0.6538707 0.2393301 -0.9556587
-0.6003501 0.2387898 -0.9505027
-0.571835 0.2323069 -0.9541119
-0.8973501 0.2479741 -0.9597834
-0.8723401 0.2452728 -0.9597834
0.3358222 0.2414911 -0.9572055
0.608251 0.2447326 -0.9546275
-0.7323968 0.2576985 -0.9530807
0.4889263 0.2582388 -0.9582366
0.5814906 0.2517558 -0.9572055
-0.7867949 0.265262 -0.9505027
-0.7613506 0.2658023 -0.9515339
-0.6503655 0.2690438 -0.9566899
-0.5968405 0.2685035 -0.9510183
-0.5683298 0.2625608 -0.9535963
-0.9245491 0.2744462 -0.9587523
-0.8403155 0.271745 -0.9592679
-0.674928 0.2793085 -0.9541119
-0.6214074 0.271745 -0.9566899
-0.4893606 0.271745 -0.9592679
0.3393317 0.2712047 -0.9561743
0.6117605 0.2744462 -0.9572055
0.7626711 0.2766072 -0.9551431
-0.8139939 0.280389 -0.9582366
-0.5117339 0.2857915 -0.9535963
0.3700403 0.2852512 -0.9551431
-0.7578411 0.2955159 -0.9561743
-0.6468516 0.2987574 -0.9592679
-0.5648159 0.2922744 -0.9541119
-0.538933 0.2976769 -0.9582366
-0.381442 0.2901134 -0.9582366
-0.8661984 0.3052404 -0.9505027
-0.6178935 0.3014587 -0.9587523
-0.810923 0.3106429 -0.9561743
-0.7253778 0.3176661 -0.9515339
-0.50822 0.3155051 -0.9525651
-0.4318917 0.3144246 -0.9556587
-0.3779324 0.3198271 -0.9572055
0.9148978 0.3106429 -0.9592679
-0.7797758 0.3252296 -0.9520495
-0.7538928 0.3257698 -0.9587523
-0.6981788 0.3268504 -0.9566899
-0.6437808 0.3290114 -0.9530807
-0.5613064 0.3219881 -0.9546275
-0.5354278 0.3279308 -0.9582366
-0.4547038 0.3246894 -0.9535963
-0.3485399 0.3279308 -0.9525651
-0.6674658 0.3398163 -0.9551431
-0.6143883 0.3311723 -0.9587523
-0.8074135 0.3403566 -0.9530807
-0.7218726 0.3473798 -0.9561743
-0.4283822 0.3446786 -0.9551431
-0.3744228 0.3495408 -0.9561743
0.5319182 0.3430578 -0.9546275
-0.7758275 0.3554835 -0.9592679
-0.750822 0.3554835 -0.9530807
-0.6946648 0.3576445 -0.9556587
-0.6402712 0.358725 -0.9541119
-0.5858732 0.3581848 -0.9546275
-0.5577924 0.352242 -0.9572055
-0.5323526 0.3581848 -0.9535963
-0.4511942 0.3549433 -0.9572055
-0.3445917 0.3576445 -0.9572055
-0.6639606 0.36953 -0.9587523
