# .PCD v.7 - Point Cloud Data file format
VERSION .7
FIELDS x y z
SIZE 4 4 4
TYPE F F F
COUNT 1 1 1
WIDTH 246
HEIGHT 1
VIEWPOINT 0 0 0 1 0 0 0
POINTS 246
DATA ascii
0.08094117 0.545651 -0.7540603
0.2542208 0.7082658 -0.7499356
0.05154431 0.5386277 -0.7308584
0.2783533 0.6790924 -0.733952
0.2200071 0.7104268 -0.7313741
0.1932468 0.9881145 -0.7370456
0.01952406 0.5472717 -0.7251869
0.0581291 0.5975149 -0.7226089
0.2160544 0.6807131 -0.7251869
0.2226392 0.7401404 -0.7174529
0.05374217 0.5672609 -0.7076566
0.02785924 0.6358725 -0.6911575
0.121301 0.6445165 -0.6942511
0.2024593 0.5904917 -0.6875483
0.1761377 0.6066991 -0.6885796
0.2094784 0.6493787 -0.6875483
-0.01030711 0.5483522 -0.6746584
0.07874332 0.5737439 -0.6746584
0.1129658 0.5840086 -0.6787832
0.0002215403 0.6374933 -0.6720805
-0.007236252 0.5780659 -0.6695024
0.2296583 0.8271205 -0.6679556
-0.005042783 0.6072393 -0.650941
0.08094117 0.6029173 -0.6560969
-0.06031818 0.6245273 -0.6591905
0.02873663 0.6645057 -0.6571282
0.03268487 0.6947596 -0.6581593
0.1278858 0.9897353 -0.6591905
-0.04364783 0.556456 -0.6499098
0.01733059 0.5753646 -0.6442382
0.02127884 0.6050783 -0.6488786
0.1138432 0.6126418 -0.6426914
0.06339343 0.6844949 -0.6421758
-0.1888554 0.736899 -0.643207
0.2208888 0.7676932 -0.643207
0.2349226 0.8865478 -0.6401134
-0.1726238 0.623987 -0.6359887
-0.1406035 0.6909779 -0.6313483
-0.1616564 0.7125878 -0.6385666
-0.1370896 0.7206915 -0.6308327
-0.07260161 0.8011885 -0.6323795
0.1151593 0.900054 -0.6349575
0.0002215403 0.6661264 -0.6210364
-0.1871006 0.7660724 -0.6220676
0.25598 0.7947056 -0.6256767
-0.08137548 0.9335494 -0.6220676
-0.1305092 0.9800108 -0.6230987
-0.07084683 0.5640194 -0.618974
-0.1449861 0.6607239 -0.6179428
-0.1603403 0.7423015 -0.61124
0.01776929 0.8136142 -0.618974
0.04716176 0.8417072 -0.6133024
0.08313464 0.8622366 -0.6179428
-0.03969958 0.6142626 -0.6065996
-0.08488503 0.7109671 -0.6096932
-0.08137548 0.7406807 -0.6055685
0.03926528 0.7817396 -0.606084
0.04277483 0.8119935 -0.603506
0.1397261 0.8492706 -0.6040217
0.1546417 0.9675851 -0.6050528
0.1577126 0.9972988 -0.6019593
-0.1577082 0.5710427 -0.5921629
0.03180748 0.7228525 -0.5998969
0.03531703 0.7525662 -0.5978345
-0.02259053 0.7628309 -0.5957721
0.1792085 0.9535387 -0.5983501
-0.2107901 0.5861697 -0.5895849
-0.04496391 0.5840086 -0.5813354
-0.2077193 0.6164235 -0.5828822
0.05198739 0.623987 -0.5890694
0.07874332 0.6310103 -0.5813354
0.05505825 0.6531605 -0.5803042
-0.1160323 0.6661264 -0.5864913
0.08269595 0.6612642 -0.5849445
-0.09014935 0.6807131 -0.5864913
0.06251165 0.7136683 -0.5859758
0.06646428 0.7428417 -0.587007
0.06953514 0.7720152 -0.5839134
0.01206627 0.7833604 -0.5875226
0.1936898 0.8114533 -0.5828822
-0.258169 0.8503512 -0.5875226
0.08401641 0.8903295 -0.5803042
0.05198739 0.900054 -0.5859758
0.1458678 0.9081578 -0.5849445
-0.2814198 0.910859 -0.5813354
0.2116719 0.9600216 -0.581851
-0.1046262 0.5618585 -0.5797886
-0.1274383 0.5769854 -0.5756638
0.1976337 0.6175041 -0.5746326
-0.06338904 0.6515397 -0.5725703
0.1414809 0.6553214 -0.5761794
-0.1133957 0.6947596 -0.5725703
-0.1094519 0.7244732 -0.579273
0.1897372 0.7817396 -0.579273
-0.2357956 0.8465694 -0.5725703
0.1410422 0.8773636 -0.5705079
0.2007045 0.8703403 -0.5777262
0.1704347 0.6337115 -0.5658675
-0.03926089 0.6439762 -0.5632895
0.1743829 0.662885 -0.5689611
-0.03575134 0.6731496 -0.5653519
-0.06031818 0.6812534 -0.5653519
-0.000655847 0.6936791 -0.5658675
-0.03224179 0.7023231 -0.5663831
-0.02917093 0.7320367 -0.5601959
-0.2700137 0.7606699 -0.5668987
0.09541368 0.7784981 -0.5617427
0.1620995 0.8336034 -0.5653519
-0.252466 0.908698 -0.5648363
0.02434969 0.9016747 -0.5607115
0.1134045 0.9276067 -0.5668987
0.1726281 0.9222042 -0.5601959
0.08971066 0.9497569 -0.5617427
-0.1028715 0.5910318 -0.5534931
-0.09892323 0.6207455 -0.5596803
-0.122174 0.6353322 -0.5534931
-0.2064076 0.645597 -0.5509152
-0.1752559 0.6515397 -0.5545244
0.1147206 0.6699082 -0.557618
-0.1713077 0.6807131 -0.5581335
0.1186688 0.6996218 -0.5591648
-0.2476404 0.7563479 -0.5519464
-0.05022823 0.7693139 -0.557618
-0.2142997 0.7763371 -0.5586491
0.154203 0.7730956 -0.5534931
0.1291975 0.7887628 -0.5565867
0.07172861 0.8017288 -0.5596803
0.1577126 0.8033496 -0.552462
-0.100678 0.8125337 -0.5550399
0.1954402 0.8406267 -0.5560712
-0.2572916 0.8789843 -0.5519464
-0.2336066 0.8757429 -0.5550399
0.05286478 0.9286872 -0.5514308
0.08576681 0.9200432 -0.5560712
0.02742055 0.9313884 -0.5514308
0.1471839 0.9367909 -0.5555556
-0.1932424 0.9546191 -0.5545244
-0.07216291 0.5921124 -0.549884
-0.09629107 0.649919 -0.549884
-0.2033323 0.6747704 -0.5462748
0.08313464 0.6888168 -0.5406032
-0.04716176 0.7990276 -0.547306
-0.02259053 0.7914641 -0.5467904
-0.1327026 0.8076715 -0.544728
0.04541137 0.8692598 -0.5442124
-0.01250058 0.8795246 -0.5400876
0.2050871 0.9286872 -0.5400876
-0.2265831 0.6871961 -0.5390565
0.1423583 0.6844949 -0.5380253
-0.2002615 0.704484 -0.5390565
-0.05549255 0.7396002 -0.5344161
-0.2129836 0.8049703 -0.5318381
0.073479 0.830362 -0.5385408
0.1638543 0.8622366 -0.5375097
-0.06952637 0.8870881 -0.5302913
0.1673638 0.8919503 -0.5385408
-0.127877 0.6050783 -0.5235885
-0.2344796 0.6277688 -0.5297757
0.1743829 0.6915181 -0.5215262
-0.05987949 0.7104268 -0.5246198
0.00373109 0.7525662 -0.5282289
-0.2660655 0.8190168 -0.5297757
-0.186662 0.8233387 -0.5292601
-0.02127445 0.8206375 -0.5215262
-0.1309479 0.8368449 -0.5215262
-0.09892323 0.8417072 -0.5266821
-0.0177649 0.8498109 -0.5225574
-0.2059645 0.8643976 -0.5292601
0.01776929 0.8708806 -0.5225574
-0.2318474 0.904376 -0.5282289
0.1441174 0.713128 -0.512761
-0.08488503 0.7676932 -0.5143078
-0.246763 0.7855213 -0.5194638
-0.1910489 0.7930848 -0.5189482
0.09541368 0.806591 -0.515339
-0.07786593 0.8265802 -0.5137922
-0.2107901 0.834684 -0.5137922
-0.07391769 0.8562939 -0.5174014
-0.09322021 0.9005943 -0.510183
-0.192365 0.982712 -0.517917
-0.08225287 0.9902755 -0.5132766
-0.2327248 0.6564019 -0.5029647
0.1770195 0.7206915 -0.5065739
0.08708289 0.7471637 -0.5003867
-0.1572651 0.828201 -0.5091518
-0.04671868 0.828201 -0.5081207
-0.5319139 0.8460292 -0.5029647
-0.1849028 0.8519719 -0.5091518
0.1019985 0.8660184 -0.5070894
-0.01118449 0.9092383 -0.5091518
-0.1748172 0.9405727 -0.5050271
-0.4073249 0.9989195 -0.5019335
-0.3309922 0.9929768 -0.5034803
0.08313464 0.71745 -0.4916216
0.1208623 0.7574284 -0.4941995
-0.1401604 0.7768773 -0.4936839
-0.1081314 0.7817396 -0.4998711
-0.2450038 0.8146948 -0.4962619
0.09717284 0.8357645 -0.4921371
-0.528843 0.8762831 -0.4967775
-0.468742 0.928147 -0.4941995
-0.3349404 0.9638034 -0.4962619
-0.1717464 0.9708266 -0.4952307
-0.002410622 0.721772 -0.4890436
0.1169184 0.7277148 -0.4874968
-0.2059645 0.8919503 -0.4844032
-0.03750611 0.9162615 -0.4838876
-0.2020162 0.9222042 -0.4890436
-0.5227013 0.9351702 -0.4849188
-0.1449861 0.7460832 -0.4756381
-0.1669207 0.7671529 -0.4735757
-0.1629681 0.7968665 -0.4792472
-0.1528825 0.8860075 -0.4735757
-0.1489343 0.9157212 -0.4746069
-0.1458678 0.9454349 -0.4709977
-0.4950636 0.9719071 -0.4761536
-0.1142775 0.7520259 -0.4642949
-0.1844729 0.8806051 -0.4679041
-0.1572651 0.8557537 -0.4570766
-0.1327026 0.8638574 -0.4534674
-0.1011167 0.8692598 -0.453983
-0.1291931 0.8930308 -0.4519206
-0.4468073 0.9432739 -0.4534674
-0.06821467 0.9432739 -0.4503738
-0.122174 0.9529984 -0.4503738
-0.3603803 0.974068 -0.4596545
-0.5178757 0.993517 -0.4550142
0.00855672 0.8384657 -0.446249
-0.01250058 0.9367909 -0.4498582
-0.4147871 0.9675851 -0.4483114
0.08444633 0.9751486 -0.4426399
-0.3893384 0.9864938 -0.4483114
-0.1835911 0.908698 -0.4328435
-0.3941641 0.9562399 -0.4349059
0.04803915 0.9551594 -0.4369683
-0.0458413 0.8843868 -0.4235628
-0.073479 0.9135602 -0.4297499
-0.4204813 0.9362507 -0.4204692
-0.0383835 0.9443544 -0.4261408
-0.09234282 0.9573204 -0.422016
-0.03443526 0.9735278 -0.4287187
-0.4463686 0.9719071 -0.414282
-0.06821467 0.9719071 -0.4075793
-0.4726902 0.9546191 -0.3946894
-0.1234901 0.9805511 -0.387471
-0.4726902 0.982712 -0.34777
