# .PCD v.7 - Point Cloud Data file format
VERSION .7
FIELDS x y z
SIZE 4 4 4
TYPE F F F
COUNT 1 1 1
WIDTH 170
HEIGHT 1
VIEWPOINT 0 0 0 1 0 0 0
POINTS 170
DATA ascii
-0.07403438 0.113611 -0.2286804
-0.07679624 0.1252294 -0.2235188
-0.0553609 0.1273359 -0.2280072
-0.08842079 0.1328599 -0.2268851
-0.07638402 0.130229 -0.2212747
-0.05816398 0.1354031 -0.2253142
-0.04752875 0.1361915 -0.2280072
-0.05648763 0.1426234 -0.2241173
-0.04678676 0.1461897 -0.2271095
-0.05700977 0.1503115 -0.2235188
-0.04291191 0.15395 -0.2246409
-0.03394616 0.155354 -0.2258752
-0.02065213 0.1703062 -0.22307
-0.06558391 0.1339123 -0.2116248
-0.06459458 0.1462774 -0.2100539
-0.04645699 0.151277 -0.2185817
0.1165341 0.2610728 -0.2145422
-0.0650068 0.1413664 -0.2078097
-0.02320788 0.1892477 -0.1710054
0.03977905 0.1831976 -0.1714542
0.06327549 0.199859 -0.1768402
0.009852014 0.2123136 -0.1660682
-0.005564945 0.1532063 -0.1508079
-0.01232532 0.1967028 -0.1597846
0.0022672 0.2066993 -0.1503591
0.08619481 0.2172246 -0.1508079
0.02477431 0.2220462 -0.1503591
0.03235912 0.228448 -0.1512567
0.09023456 0.2201177 -0.1512567
-0.001937425 0.1578542 -0.1449731
0.01669483 0.1691653 -0.1413824
0.02065213 0.1731134 -0.1445242
-0.02444454 0.1800396 -0.1422801
0.0319469 0.1811806 -0.1436266
0.04357146 0.1896871 -0.1440754
-0.02007502 0.1918795 -0.1440754
-0.009110021 0.1976666 -0.1404847
0.05519601 0.1966151 -0.1490126
0.005400058 0.2049901 -0.1416068
0.066903 0.2062626 -0.1418312
0.01356198 0.2166984 -0.1440754
0.02427965 0.2173105 -0.1418312
0.0767138 0.2141982 -0.1420557
0.03606909 0.230116 -0.1454219
0.04769364 0.2389733 -0.1413824
0.0553609 0.2436194 -0.1463196
0.06682056 0.2497599 -0.1404847
0.07110763 0.2551962 -0.1440754
0.07877488 0.2612464 -0.1463196
0.005400058 0.1639921 -0.1333034
0.01694217 0.1742525 -0.1342011
0.02823694 0.1795152 -0.1386894
-0.02411476 0.1852146 -0.1355476
0.03969661 0.1889846 -0.1342011
-0.01298487 0.1922303 -0.1395871
-0.00589472 0.195475 -0.1348743
0.05123872 0.1946858 -0.1373429
-0.001772538 0.2028415 -0.1359964
0.05544334 0.2018778 -0.1342011
0.0631106 0.2059118 -0.1333034
0.02056969 0.2182761 -0.1364452
0.0313698 0.2191539 -0.1324057
0.03178202 0.2238878 -0.1382406
0.07902222 0.2215217 -0.1333034
0.0863597 0.2225732 -0.1315081
0.09406818 0.2268712 -0.1337522
0.04332413 0.2334475 -0.1306104
0.05655633 0.2375697 -0.1350987
0.05923575 0.2458118 -0.1386894
0.0663259 0.2451112 -0.1315081
0.07053053 0.2505474 -0.1315081
-0.005482501 0.1587303 -0.1288151
-0.002789343 0.1650737 -0.1228306
0.009274908 0.1682015 -0.1274686
0.01727194 0.1792512 -0.1292639
-0.02073457 0.1875824 -0.1234291
0.03211179 0.1864432 -0.1292639
0.001030545 0.1975789 -0.1238779
0.04188136 0.1946424 -0.1272442
0.008450472 0.203544 -0.1229803
0.01474367 0.2062906 -0.1222322
0.02320788 0.2080165 -0.1216338
0.02188878 0.213234 -0.1267953
0.06521291 0.2113915 -0.1205117
0.07490004 0.2173982 -0.1274686
0.0353271 0.2257311 -0.1247756
0.07935199 0.2266064 -0.1243268
0.08668948 0.2277482 -0.1216338
0.04703409 0.2345885 -0.1207361
0.09814914 0.2331836 -0.1279174
0.05865864 0.2412534 -0.1265709
0.06772744 0.2407268 -0.1238779
0.07003586 0.2458118 -0.1261221
0.0780329 0.2568616 -0.1225314
0.0818253 0.2559855 -0.1252244
-0.0119131 0.1690776 -0.1122083
0.005564945 0.1694284 -0.1162478
-0.011336 0.1764007 -0.1117594
0.00795581 0.1763573 -0.114789
0.02073457 0.1786374 -0.1198384
-0.01218105 0.1856752 -0.1170332
0.01526581 0.1857112 -0.1140036
0.0285255 0.1874947 -0.1182675
-0.002761862 0.1934572 -0.1193896
0.03227668 0.1917041 -0.1113106
0.04027371 0.1993346 -0.1140036
0.02629952 0.2040254 -0.1133303
0.03038048 0.2094188 -0.1198384
0.04398368 0.200386 -0.1131059
0.05342347 0.2036742 -0.1160233
0.01281998 0.2124013 -0.1184919
0.03442021 0.2160837 -0.1162478
0.04171648 0.2166103 -0.116921
0.055938 0.2121373 -0.1135548
0.0636877 0.2160837 -0.1144524
0.03483243 0.220907 -0.1171454
0.04249969 0.2263433 -0.1171454
0.05371203 0.2295012 -0.1162478
0.06801599 0.2241509 -0.1133303
0.04653943 0.2300283 -0.1131059
0.05420669 0.2345008 -0.1184919
0.06694423 0.2335791 -0.1144524
0.08718414 0.2353326 -0.1140036
0.09077044 0.2332717 -0.1151257
0.0767138 0.2423926 -0.1122083
0.08450472 0.2470848 -0.1108618
0.07753823 0.2521277 -0.1157989
-0.01393297 0.1663608 -0.106149
-0.00498784 0.1693407 -0.1023339
-0.01479863 0.1757863 -0.1045781
-0.001277876 0.1735501 -0.1023339
-0.02131168 0.1829345 -0.1099641
-0.003586298 0.1865739 -0.103456
0.006884043 0.186837 -0.1059246
0.01067645 0.1881971 -0.1086176
0.0209819 0.1838123 -0.1090664
0.005262652 0.1954756 -0.1072711
0.01479863 0.1963077 -0.1050269
0.02555753 0.1969663 -0.1048025
0.03260646 0.1967905 -0.1045781
0.01892081 0.2043315 -0.1032316
0.02930871 0.2001221 -0.1023339
0.03351333 0.2065239 -0.1081688
0.0418951 0.2065537 -0.1032316
0.05165093 0.2052093 -0.1081688
0.03223546 0.2131024 -0.1059246
0.05354714 0.2141839 -0.1044285
0.06731522 0.2168738 -0.1099641
0.04571499 0.2227486 -0.1014363
0.05431661 0.224064 -0.10383
0.06405871 0.2237132 -0.1023339
0.05758687 0.231869 -0.1090664
0.06682056 0.2337988 -0.1041293
0.07852756 0.2355528 -0.1036804
0.07704357 0.2473921 -0.1077199
0.08396883 0.2424364 -0.1027828
0.09130632 0.2409026 -0.1063734
0.08116575 0.251513 -0.1059246
-0.02188878 0.178462 -0.09739677
-0.003284005 0.1774096 -0.09739678
-0.0003297745 0.186092 -0.09447935
0.02122923 0.1890723 -0.0964991
0.01475741 0.1965274 -0.09896769
0.02164145 0.1940719 -0.09560144
0.03293623 0.2018778 -0.0991921
0.04484934 0.2130143 -0.09762119
0.05659755 0.2222215 -0.0991921
0.07490004 0.2230994 -0.09739677
0.07564203 0.2331836 -0.09021544
0.07514737 0.2282726 -0.08662478
