# .PCD v.7 - Point Cloud Data file format
VERSION .7
FIELDS x y z
SIZE 4 4 4
TYPE F F F
COUNT 1 1 1
WIDTH 1467
HEIGHT 1
VIEWPOINT 0 0 0 1 0 0 0
POINTS 1467
DATA ascii
0.03223546 -0.2169606 -0.3949731
0.1002927 -0.2115235 -0.3972172
-0.04884785 -0.2031055 -0.3913824
-0.03587672 -0.2038939 -0.3948235
-0.009728348 -0.202842 -0.3972172
0.003091636 -0.2088926 -0.3904848
0.011336 -0.2061731 -0.3927289
0.02263078 -0.2004737 -0.3931777
0.03615153 -0.2033686 -0.3913824
0.1011171 -0.2016129 -0.3945242
0.1115874 -0.2031055 -0.3913824
0.1216456 -0.2080165 -0.3904848
-0.05041428 -0.1904772 -0.3940754
-0.04010883 -0.1931941 -0.3976661
-0.03384311 -0.1949927 -0.396544
-0.01801393 -0.1922298 -0.3951975
0.0462921 -0.1952549 -0.391158
0.07786801 -0.1908263 -0.3927289
0.102024 -0.1919672 -0.3999102
0.1320335 -0.1945108 -0.3931777
0.1408549 -0.1986321 -0.3922801
-0.05371203 -0.1835479 -0.3936266
-0.03936683 -0.1828468 -0.3900359
-0.01867348 -0.1813568 -0.3927289
-0.007007709 -0.1863546 -0.393851
0.02700029 -0.1838123 -0.3963196
0.07869244 -0.1809175 -0.3940754
0.0993858 -0.188897 -0.3904848
0.1105157 -0.1847761 -0.3976661
0.1311266 -0.1887216 -0.3972172
-0.03738818 -0.1754356 -0.3954219
-0.007461148 -0.1752163 -0.3949731
0.05766932 -0.1720601 -0.3954219
0.06038996 -0.1743402 -0.3904848
0.089575 -0.1791644 -0.3954219
0.1218105 -0.1750427 -0.3940754
0.1447573 -0.1747486 -0.3928785
0.1638567 -0.1719724 -0.3949731
-0.05626778 -0.1668852 -0.3904848
-0.04563255 -0.1637299 -0.3900359
-0.005193949 -0.1639916 -0.3918312
0.03903706 -0.1689022 -0.3913824
0.08281463 -0.1666221 -0.3985637
0.09353229 -0.1663608 -0.3949731
0.1011171 -0.1689899 -0.3927289
0.1134012 -0.1668852 -0.3969928
0.124325 -0.1620628 -0.3949731
0.1436168 -0.1659657 -0.3913824
0.1766904 -0.1645174 -0.3946739
-0.07593058 -0.1553102 -0.3940754
-0.06550147 -0.1532063 -0.3931777
-0.05841131 -0.1599572 -0.3913824
-0.04513789 -0.1589934 -0.3958707
-0.03689352 -0.1531186 -0.3954219
-0.02510409 -0.1564794 -0.3936266
0.01578796 -0.1509262 -0.3904848
0.05907086 -0.1543893 -0.3931777
0.08124819 -0.1508385 -0.3949731
0.09456284 -0.1539504 -0.391158
0.1157921 -0.1540824 -0.3927289
0.1264273 -0.1541701 -0.3949731
0.1340121 -0.1535553 -0.3949731
0.1447298 -0.1535553 -0.3945242
0.157591 -0.1585549 -0.3999102
0.167814 -0.1595204 -0.3909336
0.1768416 -0.1571965 -0.3936266
-0.06620224 -0.1454443 -0.3956463
-0.0544128 -0.1447857 -0.3907092
-0.01537574 -0.141191 -0.3931777
-0.003709963 -0.1466282 -0.3913824
0.005977163 -0.1405763 -0.3931777
0.06286327 -0.1448734 -0.3904848
0.08306196 -0.1463647 -0.3958707
0.105734 -0.1475929 -0.3913824
0.1138959 -0.1446103 -0.3958707
0.1479451 -0.1485584 -0.3945242
0.1588276 -0.1435588 -0.3945242
0.176553 -0.1454005 -0.3976661
0.1864463 -0.1497853 -0.3945242
-0.08609176 -0.1336055 -0.3940754
-0.0740756 -0.1333869 -0.3999102
-0.06409992 -0.1360604 -0.3931777
-0.03524465 -0.1330362 -0.3981149
-0.02342773 -0.1367767 -0.3942251
-0.01496352 -0.1362792 -0.3927289
0.006719156 -0.1304921 -0.3913824
0.03487366 -0.1368501 -0.3929533
0.04200503 -0.1346138 -0.3913824
0.0714374 -0.1362792 -0.3909336
0.0840925 -0.1338684 -0.393851
0.09410941 -0.1366601 -0.3957211
0.1387526 -0.1336492 -0.3904848
0.1476153 -0.1361042 -0.393851
0.1581269 -0.1353588 -0.3963196
0.1673193 -0.131719 -0.3949731
0.1774599 -0.135404 -0.3999102
-0.06607857 -0.1275981 -0.3954219
-0.04274702 -0.1295266 -0.3949731
-0.03178202 -0.1237395 -0.3945242
-0.002294681 -0.122921 -0.3916816
0.01009934 -0.1256688 -0.3954219
0.02131168 -0.1218979 -0.3945242
0.05379447 -0.1244419 -0.3918312
0.0941094 -0.1238272 -0.3900359
0.1184303 -0.124705 -0.3976661
0.1275403 -0.1247918 -0.3967684
0.1362381 -0.1286514 -0.3994614
0.1470382 -0.1259319 -0.3916068
0.1573437 -0.1268974 -0.3927289
0.1641453 -0.1252746 -0.3936266
-0.0753947 -0.1135676 -0.3981149
-0.06533658 -0.117513 -0.3931777
-0.0521456 -0.1178647 -0.3940754
-0.04439589 -0.1151452 -0.3927289
-0.03145225 -0.1188285 -0.3927289
0.07333361 -0.1138298 -0.3942998
0.08442228 -0.1133479 -0.3983393
0.1188425 -0.119794 -0.3981149
0.1283235 -0.1148383 -0.3918312
0.1374747 -0.1135676 -0.3963196
0.1476978 -0.1185645 -0.3958707
0.1544169 -0.1180831 -0.3981149
-0.07193206 -0.1061564 -0.3956463
-0.06319304 -0.1082172 -0.3922801
-0.04332413 -0.1027801 -0.3951975
-0.03062781 -0.1090074 -0.3940754
-0.00136032 -0.1002377 -0.3963196
0.008780247 -0.1055855 -0.3909336
0.03355455 -0.1051917 -0.3949731
0.04118059 -0.1093582 -0.3994614
0.05511357 -0.1099703 -0.3994614
0.06665567 -0.1007622 -0.3931777
0.1168638 -0.1096195 -0.3972172
0.1244074 -0.10015 -0.3990126
0.1306319 -0.1050593 -0.3963196
0.1415969 -0.1019908 -0.3972172
-0.1039752 -0.09789801 -0.3913824
-0.09509873 -0.09567709 -0.3960952
-0.08302073 -0.09651022 -0.3999102
-0.07135496 -0.09856976 -0.3904848
-0.06113195 -0.09918451 -0.3913824
-0.00886269 -0.0994476 -0.3931777
0.009604683 -0.09558897 -0.3936266
0.0313698 -0.09523818 -0.3958707
0.09988046 -0.09278268 -0.3976661
0.1181005 -0.094712 -0.3981149
0.1213158 -0.09006322 -0.3918312
0.1389175 -0.09607129 -0.3936266
0.1420092 -0.09699211 -0.3963196
-0.09138876 -0.08646855 -0.3940754
-0.05264026 -0.08997552 -0.3972172
-0.0417577 -0.08274189 -0.3934022
0.002514531 -0.08927571 -0.3922801
0.04641576 -0.08309224 -0.3967684
0.06830455 -0.0810305 -0.3913824
0.07781304 -0.08512416 -0.3945242
0.09707737 -0.08874866 -0.3904848
0.1079599 -0.08910032 -0.3999102
0.114844 -0.08664438 -0.3916068
0.1258502 -0.08274102 -0.3978905
0.1327755 -0.08033068 -0.3954219
-0.05948308 -0.07945284 -0.3922801
-0.04109815 -0.07533112 -0.3981149
0.0007007708 -0.07550651 -0.3990126
0.01125356 -0.07550651 -0.3918312
0.07646646 -0.07647205 -0.3963196
0.08743147 -0.07559421 -0.3918312
0.09435673 -0.0760761 -0.3949731
0.1051569 -0.07598928 -0.3954219
0.1194196 -0.07980363 -0.3994614
-0.06896409 -0.06919238 -0.3904848
-0.04794097 -0.06616642 -0.3931777
-0.03705841 -0.06077441 -0.3949731
0.01207799 -0.06542231 -0.3904848
0.02634074 -0.06296682 -0.3985637
0.04480811 -0.06419369 -0.3922801
0.05733954 -0.06397533 -0.3936266
0.06797478 -0.06660534 -0.3934022
0.07770312 -0.06129884 -0.3931777
0.08833835 -0.06577135 -0.3936266
0.09399948 -0.06515835 -0.3964692
0.1125768 -0.06910468 -0.3945242
0.1238715 -0.06077441 -0.3931777
0.1306319 -0.06989483 -0.3936266
0.04868296 -0.05603793 -0.3972172
0.05647388 -0.054897 -0.3945242
0.06715034 -0.05691402 -0.3909336
0.08561771 -0.05178379 -0.3940754
0.102766 -0.05814264 -0.3913824
0.1123707 -0.05432873 -0.399237
0.1213982 -0.05480931 -0.3954219
0.4713714 -0.05077528 -0.3994614
0.499732 -0.05103924 -0.3949731
0.5027825 -0.05139003 -0.3981149
-0.01801393 -0.04709291 -0.3972172
-0.007296261 -0.04139353 -0.3927289
0.006224494 -0.0449005 -0.3936266
0.02485675 -0.04121814 -0.3936266
0.0644297 -0.043892 -0.3922801
0.07893977 -0.04630277 -0.3922801
0.09048188 -0.04095505 -0.3994614
0.1008698 -0.04402266 -0.3909336
0.114473 -0.04696137 -0.3963196
0.490251 -0.0401649 -0.3940754
0.5019374 -0.04378194 -0.3981149
0.006636712 -0.03990182 -0.3904848
0.01496352 -0.03069283 -0.3922801
0.06896409 -0.03709466 -0.3972172
0.08297952 -0.03806019 -0.3985637
0.09081165 -0.03578009 -0.3918312
0.1026561 -0.03554653 -0.3939258
0.4696401 -0.03472861 -0.3958707
0.476483 -0.03529732 -0.3969928
0.4832846 -0.03525347 -0.3960952
0.4925595 -0.03262302 -0.3960952
0.5011336 -0.03595548 -0.3954219
-0.002761862 -0.02569589 -0.3904848
0.00795581 -0.02534423 -0.3994614
0.01834371 -0.02701046 -0.3900359
0.04769364 -0.02929056 -0.3931777
0.0821963 -0.02727355 -0.3940754
0.4525331 -0.02674693 -0.3972172
0.4702585 -0.02718585 -0.3934022
0.4818967 -0.02712739 -0.3936266
0.4938786 -0.02344385 -0.3948235
0.504926 -0.02648341 -0.3918312
0.01958036 -0.01245375 -0.3954219
0.03038048 -0.01376832 -0.3931777
0.05198071 -0.0166623 -0.3958707
0.07053053 -0.01718935 -0.3940754
0.0818253 -0.01140052 -0.3918312
0.4420215 -0.0159312 -0.3967684
0.4516125 -0.01426556 -0.3949731
0.4628797 -0.01434711 -0.3970377
0.4828036 -0.017218 -0.3922801
0.03474999 -0.007190658 -0.3945242
0.04934251 -0.009295807 -0.3922801
0.06232738 -0.004648342 -0.3972172
0.07184962 -0.002454619 -0.3999102
0.08578259 -0.003859514 -0.3940754
0.4130014 -0.001754803 -0.3963196
0.4313863 -0.006781847 -0.3964692
0.4419116 -0.00561227 -0.3943746
0.4534262 -0.005057153 -0.3921305
0.04274702 0.00306937 -0.3994614
0.3863721 0.006051483 -0.3963196
0.3999753 0.001227748 -0.3985637
0.4121151 0.00414365 -0.3946365
0.4205862 0.0002622119 -0.3918312
0.4328291 0.004078317 -0.3923923
0.4417742 0.004034468 -0.3916068
0.4553774 0.005349474 -0.3900359
0.06203883 0.01245287 -0.3949731
0.07429545 0.01414863 -0.3967684
0.3807659 0.01990794 -0.3967684
0.3915386 0.01271596 -0.3919809
0.4007997 0.01139964 -0.3945242
0.4143205 0.01324302 -0.3904848
0.5193536 0.01797686 -0.3909336
0.526856 0.01999388 -0.3981149
0.06459458 0.0227129 -0.3929533
0.3741704 0.02683419 -0.3931777
0.3811781 0.02499344 -0.3936266
0.3912362 0.02060863 -0.3927289
0.4052517 0.02551962 -0.3931777
0.5079764 0.02306369 -0.3951975
0.5149841 0.0250807 -0.3983393
0.5238468 0.02635274 -0.3974416
0.5352927 0.02665938 -0.3954219
0.3745826 0.03165836 -0.3922801
0.3853827 0.03604318 -0.3913824
0.4585927 0.03998863 -0.3918312
0.5051734 0.03537084 -0.3955715
0.5106558 0.0349917 -0.3936266
0.5257293 0.03417291 -0.3955715
0.1931242 0.04946071 -0.3909336
0.4694752 0.04419806 -0.3904848
0.4764005 0.04016403 -0.3927289
0.4839029 0.04652289 -0.3936266
0.4904984 0.0434978 -0.3925045
0.5011336 0.04384902 -0.3945242
0.511439 0.04226874 -0.3981149
0.5423554 0.04358594 -0.3954219
0.1958723 0.05606775 -0.3945243
0.2042541 0.05709029 -0.3954219
0.2143947 0.05542318 -0.3954219
0.4568614 0.05559902 -0.3922801
0.464034 0.05915115 -0.3963196
0.4741127 0.05439407 -0.3972172
0.4810998 0.05494173 -0.3981149
0.4912404 0.05068758 -0.3954219
0.1974937 0.06164962 -0.3999102
0.2076343 0.0611252 -0.3918312
0.2148069 0.06042275 -0.3940754
0.417948 0.06857894 -0.3936266
0.4282534 0.06787781 -0.3925045
0.4364153 0.06130059 -0.3918312
0.4470506 0.06094893 -0.3990126
0.4539759 0.06344783 -0.399237
0.4609835 0.0643682 -0.3999102
0.471289 0.06375609 -0.3936266
0.1748217 0.07761122 -0.3931777
0.399192 0.07340136 -0.3922801
0.4081372 0.07537541 -0.3918312
0.4148426 0.07807836 -0.3922801
0.427429 0.07463042 -0.3999102
0.4301496 0.07068234 -0.3958707
0.4407436 0.07305057 -0.3922801
0.1785317 0.08296157 -0.3931777
0.1874768 0.08445109 -0.3951975
0.3966775 0.08006672 -0.3981149
0.4036852 0.08331236 -0.3922801
0.4106105 0.08418845 -0.3958707
0.4209984 0.08453923 -0.399237
0.4414444 0.08032981 -0.3963196
0.189744 0.09137954 -0.3922801
0.1901562 0.09620371 -0.3922801
0.2038831 0.09558897 -0.3909336
0.4043036 0.09076522 -0.3913824
0.4320458 0.09023862 -0.3985637
0.211303 0.1028243 -0.3913824
0.2193001 0.1126016 -0.3951975
0.2263077 0.1157157 -0.3922801
0.2315842 0.1160218 -0.3929533
0.2405293 0.1179515 -0.3931777
0.2128282 0.1200562 -0.3913824
0.242982 0.1262169 -0.3958707
0.2553691 0.1281243 -0.3963196
0.2669112 0.1382102 -0.3940754
0.2682303 0.1528547 -0.3963196
0.2787831 0.1524162 -0.3936266
0.286945 0.1608341 -0.3954219
0.2909848 0.1663608 -0.3999102
0.2953955 0.1765327 -0.3974417
0.2925512 0.1862678 -0.3909336
0.3031452 0.1834611 -0.3927289
0.3050826 0.2057364 -0.3931777
0.3133545 0.2053555 -0.3922801
0.3144812 0.2115243 -0.3918312
0.3165698 0.227543 -0.3945243
0.3188507 0.2399371 -0.3900359
0.3252814 0.2326574 -0.3981149
0.3175728 0.2461201 -0.3918312
0.3263531 0.2450677 -0.3931777
0.3274249 0.2574763 -0.3945242
0.3312173 0.2584419 -0.3922801
0.3278371 0.2622996 -0.3945242
0.3321242 0.2682621 -0.3949731
0.3326188 0.273174 -0.3936266
0.3300631 0.2870308 -0.3940754
0.3134919 0.2993075 -0.3904848
0.3308875 0.296852 -0.3931777
0.3247042 0.3040431 -0.3949731
0.3313822 0.3016753 -0.3985637
0.3259409 0.3185998 -0.3900359
0.3254874 0.3347368 -0.3936266
0.3165148 0.3471607 -0.3939258
0.3243333 0.3432433 -0.3978905
0.3184385 0.3532398 -0.3963196
0.3175729 0.3661321 -0.3951975
0.2985696 0.3738493 -0.3913824
0.2999711 0.3884937 -0.3976661
0.3066078 0.385338 -0.3940754
0.2896657 0.3940195 -0.3922801
0.2964673 0.3943268 -0.3927289
0.3003009 0.3934933 -0.3922801
-0.002761862 0.4009483 -0.3900359
0.001112989 0.4023506 -0.3922801
0.2870275 0.409454 -0.3967684
0.2908199 0.4062965 -0.3942998
-0.001937425 0.4107686 -0.3918312
0.008986356 0.4153292 -0.3942998
0.01290243 0.4177852 -0.3900359
0.02337277 0.4172581 -0.3904848
0.03013315 0.4183113 -0.3936266
0.2737541 0.417084 -0.3942998
0.2843069 0.4163386 -0.3945242
0.01999258 0.4235722 -0.3900359
0.02386743 0.4220823 -0.3954219
0.03499732 0.427081 -0.3913824
0.2743312 0.4244501 -0.3920557
0.03128736 0.4330443 -0.3949731
0.04637454 0.435017 -0.3947486
0.2404469 0.4348851 -0.3918312
0.04493178 0.4426475 -0.3934022
0.05379447 0.4447088 -0.3940754
0.2275032 0.4496198 -0.3918312
0.2446515 0.4451021 -0.393851
0.2521538 0.4488297 -0.3949731
0.06752133 0.4541353 -0.3922801
0.07457027 0.4578624 -0.3936266
0.2072221 0.457687 -0.3936266
0.2176924 0.4578632 -0.3904848
0.2284101 0.4592655 -0.3972172
0.2484439 0.4504082 -0.3976661
0.08616734 0.4642639 -0.393477
0.09724226 0.4652289 -0.3924297
0.1034255 0.4613702 -0.3918312
0.1105569 0.4652718 -0.3904848
0.12618 0.4691761 -0.3913824
0.1930143 0.4665446 -0.3921305
0.2075518 0.4625988 -0.3913824
0.2160985 0.4640596 -0.3931777
0.2223917 0.4651403 -0.3936266
0.2323674 0.4606678 -0.3918312
0.1021889 0.4716307 -0.3931777
0.1112577 0.472683 -0.3940754
0.1246548 0.4760155 -0.3934022
0.1350015 0.4768045 -0.3946738
0.1486046 0.475884 -0.3909336
0.1574261 0.4760594 -0.3949731
0.1673743 0.4746997 -0.3946738
0.1771301 0.4795234 -0.3927289
0.1946082 0.4725949 -0.3907092
0.1706171 0.4804871 -0.3954219
0.6624758 -0.9603613 -0.3819569
0.5482914 -0.9158133 -0.3855476
0.5493631 -0.902922 -0.3819569
0.5068222 -0.8916091 -0.3855476
0.5295767 -0.8900288 -0.3859964
0.5482089 -0.8995886 -0.3828546
0.5505173 -0.8902043 -0.3837523
0.5299889 -0.885644 -0.3837523
0.5408714 -0.8725781 -0.3842011
0.5094604 -0.8614398 -0.3801616
0.5198483 -0.8623177 -0.3810593
0.5208376 -0.8695974 -0.3891383
0.5316377 -0.8685433 -0.3882406
0.5115215 -0.8559158 -0.3824058
0.5228163 -0.847761 -0.3846499
0.5527433 -0.8494263 -0.3864453
0.7245559 -0.7307733 -0.3819569
0.7376644 -0.7270909 -0.3801616
0.7059236 -0.7163919 -0.3873429
0.7171359 -0.7120071 -0.3828546
-0.6056309 -0.694335 -0.3889138
-0.5950094 -0.6936491 -0.3843507
-0.5839894 -0.693063 -0.3815081
-0.6150295 -0.6834611 -0.3839767
-0.6057546 -0.6825403 -0.3868941
-0.5955316 -0.6846446 -0.3842011
-0.5840719 -0.6865153 -0.385398
-0.6440084 -0.6717536 -0.3864453
-0.6355991 -0.6732436 -0.3891383
-0.6244143 -0.67684 -0.3865949
-0.6139783 -0.6757876 -0.3849865
-0.6033637 -0.677104 -0.3850988
-0.5932232 -0.6782432 -0.3846499
-0.5833505 -0.6733548 -0.386333
-0.5738489 -0.6715782 -0.3873429
-0.655633 -0.6622816 -0.3819569
-0.6444619 -0.6647375 -0.383079
-0.6341976 -0.6657022 -0.3821813
-0.6237273 -0.6636851 -0.3824058
-0.6132569 -0.6647677 -0.3836026
-0.6036935 -0.663949 -0.3830042
-0.5928659 -0.6667833 -0.3871933
-0.5827528 -0.6660968 -0.3866697
-0.6739355 -0.6501803 -0.3837523
-0.6637949 -0.655924 -0.3880162
-0.6540872 -0.6541703 -0.3855476
-0.6345274 -0.65746 -0.3801616
-0.6219959 -0.6534243 -0.3875673
-0.613147 -0.6550332 -0.3846499
-0.6018797 -0.6585992 -0.3868941
-0.6964425 -0.6444792 -0.3873429
-0.6839936 -0.6442178 -0.3819569
-0.6745126 -0.6452694 -0.3866697
-0.6647842 -0.6435158 -0.3828546
-0.6536269 -0.6435157 -0.3818073
-0.6431015 -0.6478568 -0.3862208
-0.6327136 -0.6464533 -0.3821813
-0.7146626 -0.6307126 -0.3864453
-0.7063358 -0.6343073 -0.3864453
-0.6949174 -0.6360178 -0.3835278
-0.6832516 -0.6350098 -0.3837523
-0.6724514 -0.6315002 -0.3846499
-0.662146 -0.6346581 -0.3824058
-0.6525413 -0.6345266 -0.3866697
-0.6414527 -0.6390429 -0.3850988
-0.7268643 -0.6226428 -0.3864453
-0.7141267 -0.6236084 -0.3842011
-0.7055938 -0.6237838 -0.3815081
-0.6948761 -0.6237838 -0.3846499
-0.6836913 -0.6249238 -0.3840515
-0.6726989 -0.6260929 -0.3858468
-0.6616101 -0.6276424 -0.3828546
-0.6510985 -0.6281686 -0.3895871
-0.7464034 -0.6117698 -0.388465
-0.735191 -0.6170312 -0.3833034
-0.7256001 -0.6146926 -0.3846499
-0.7142916 -0.6120759 -0.383079
-0.7042472 -0.6151901 -0.3837523
-0.6941341 -0.6133488 -0.3801616
-0.6839111 -0.6192235 -0.3828546
-0.7472278 -0.6073837 -0.3877918
-0.7365102 -0.6077353 -0.3850988
-0.7243249 -0.6046839 -0.3836625
-0.7128488 -0.6070346 -0.3842011
-0.7023785 -0.6084369 -0.3833034
-0.6925677 -0.6056302 -0.3853232
-0.6830867 -0.6092271 -0.3868941
-0.7460736 -0.5917737 -0.3833034
-0.7345521 -0.5954797 -0.3855476
-0.7246795 -0.5945805 -0.3895871
-0.7015541 -0.5993165 -0.3882406
0.004163403 -0.2914139 -0.3815081
0.004658065 -0.2866801 -0.3886894
0.01850859 -0.2810666 -0.3806104
-0.003957294 -0.2765946 -0.3873429
0.007172596 -0.2726487 -0.3866697
0.01669483 -0.2703677 -0.3810593
0.02741251 -0.2744894 -0.3873429
-0.01232532 -0.2656312 -0.3842011
-0.001854982 -0.2674728 -0.3882406
0.0171895 -0.2655435 -0.3850988
0.02765984 -0.2692285 -0.3801616
0.03507976 -0.2619931 -0.3806104
0.04159281 -0.2661583 -0.3824058
-0.02197123 -0.2565985 -0.3886894
-0.01393297 -0.2527841 -0.3873429
0.02460942 -0.258002 -0.3824058
0.03953172 -0.2573886 -0.3819569
0.05338225 -0.254977 -0.3846499
-0.02246589 -0.2438834 -0.3812837
-0.002555752 -0.2432257 -0.3853232
4.122181e-05 -0.2429196 -0.3806104
0.02963848 -0.2467778 -0.3850988
0.04148289 -0.245521 -0.3824058
0.05288759 -0.2447161 -0.3833034
0.06212128 -0.2461635 -0.3824058
-0.03075147 -0.2343684 -0.3824058
-0.02320788 -0.236167 -0.3855476
-0.01991014 -0.2319576 -0.3891383
-0.005523723 -0.2309043 -0.3837522
0.008780247 -0.236167 -0.3873429
0.01125356 -0.2393223 -0.3810593
0.03207057 -0.2331853 -0.3821813
0.0521456 -0.2370422 -0.3873429
0.06455337 -0.2351585 -0.3880162
0.07654891 -0.2372181 -0.3850988
0.08759636 -0.2345867 -0.3882406
-0.04266458 -0.2231003 -0.3895871
-0.01166577 -0.224941 -0.3864453
0.009728348 -0.2234063 -0.3821813
0.02089946 -0.2201177 -0.3855476
0.03293623 -0.2232743 -0.3833034
0.04530277 -0.2223101 -0.3828546
0.07481759 -0.2255557 -0.3837523
0.08520549 -0.2288873 -0.3819569
0.09704989 -0.2259928 -0.3822562
-0.04192258 -0.212838 -0.3815081
-0.02889649 -0.2124013 -0.3868941
-0.01883837 -0.2169598 -0.3806104
-0.007873367 -0.2114358 -0.3806104
0.04332413 -0.2121382 -0.3828546
0.07836267 -0.2150304 -0.3819569
0.0967476 -0.2186278 -0.3837523
0.114473 -0.2138465 -0.3866696
-0.04151037 -0.2077534 -0.3828546
-0.03112247 -0.2069633 -0.3859964
-0.02032235 -0.2012639 -0.3873429
-0.01422153 -0.2085422 -0.3844255
-0.007461148 -0.2066125 -0.3810593
0.0005358836 -0.2056487 -0.3877918
0.01463374 -0.200123 -0.3850988
0.02357888 -0.2038939 -0.3810592
0.03310112 -0.2039807 -0.3815081
0.05503112 -0.2016129 -0.3815081
0.06591368 -0.2010885 -0.3828546
0.07968177 -0.2002983 -0.3815081
0.0941094 -0.2044196 -0.3868941
0.1189249 -0.2074022 -0.3868941
0.1296426 -0.2032809 -0.3828546
-0.05832887 -0.1911779 -0.3824058
-0.04579744 -0.1962056 -0.3836027
-0.03804773 -0.1970545 -0.3842011
0.00432829 -0.1940719 -0.3891383
0.01504596 -0.1954742 -0.3882406
0.02601097 -0.1932818 -0.3864453
0.03520343 -0.1961328 -0.3837522
0.05544334 -0.1967037 -0.3828546
0.08776125 -0.1987207 -0.3833034
0.1226349 -0.1954746 -0.3826302
0.130467 -0.1932818 -0.3819569
-0.06055485 -0.1845121 -0.3801616
-0.03730574 -0.1871439 -0.3806104
-0.02819572 -0.1873631 -0.385772
-0.01615895 -0.185083 -0.3815081
0.004905396 -0.1865734 -0.3864452
0.01628262 -0.1806544 -0.3859964
0.04701348 -0.1851269 -0.3845377
0.05747695 -0.1841035 -0.3828546
0.06978853 -0.1897748 -0.3846499
0.08879179 -0.1863108 -0.3826302
0.110021 -0.1895117 -0.3886894
0.133064 -0.1817949 -0.3873429
0.1426687 -0.1862959 -0.3845003
0.1550353 -0.1849072 -0.3837522
-0.06987098 -0.1724118 -0.3846499
-0.05824643 -0.1730248 -0.3808348
-0.04794097 -0.1742087 -0.3828546
-0.03598664 -0.1725872 -0.3842011
-0.02752243 -0.1740187 -0.3870437
-0.01826126 -0.1762696 -0.3895871
-0.006306937 -0.176138 -0.383079
0.003009192 -0.1755671 -0.3886894
0.01690094 -0.1733309 -0.3866697
0.02452698 -0.174955 -0.3806104
0.05849376 -0.1778924 -0.3839767
0.07102519 -0.1750427 -0.3842011
0.09254298 -0.1758311 -0.3850988
0.10054 -0.1736387 -0.3828546
0.110763 -0.1794275 -0.3859964
0.1335999 -0.174253 -0.3828546
0.156107 -0.1727626 -0.3859964
0.1633621 -0.1765326 -0.3855476
0.1751927 -0.1741653 -0.3819569
-0.06791294 -0.1652196 -0.3882406
-0.04604477 -0.1686391 -0.3886894
-0.01615895 -0.1668865 -0.380386
0.006636712 -0.164342 -0.3801616
0.01446886 -0.1656583 -0.3833034
0.02807206 -0.1687268 -0.3873429
0.03796529 -0.1638614 -0.3844255
0.09204832 -0.1649125 -0.3844255
0.1041675 -0.1646494 -0.3853232
0.1116699 -0.1694292 -0.3886894
0.123583 -0.1692534 -0.3877918
0.1328991 -0.1657903 -0.3862208
0.1558047 -0.1658334 -0.3858468
0.1880951 -0.1600449 -0.3824058
-0.06822211 -0.1524162 -0.3886894
-0.0139742 -0.1581156 -0.3801616
0.007048931 -0.1595204 -0.3819569
0.01529329 -0.1557477 -0.3846499
0.02765984 -0.1571084 -0.3891382
0.0398615 -0.1589934 -0.3882406
0.04019127 -0.1538184 -0.3810593
0.0727565 -0.1555724 -0.3868941
0.09134755 -0.1561867 -0.3839767
0.1029584 -0.1565379 -0.3859964
0.1152974 -0.1587303 -0.3846499
0.137145 -0.1506631 -0.3833034
0.147368 -0.1529432 -0.3819569
0.1681438 -0.1544332 -0.3846499
-0.08701925 -0.1430761 -0.3837522
-0.07844511 -0.1479437 -0.3815081
-0.06789233 -0.1472412 -0.3819569
-0.02473309 -0.1451821 -0.3866697
-0.01386427 -0.1459854 -0.3859964
-0.005564945 -0.1496976 -0.3824058
0.008780247 -0.1401378 -0.3891383
0.01784905 -0.1434712 -0.383079
0.02749495 -0.1401378 -0.3873429
0.03771796 -0.1490828 -0.3877918
0.05964797 -0.146715 -0.3877918
0.08479327 -0.1417181 -0.3882406
0.09509873 -0.146366 -0.3859964
0.1061462 -0.142681 -0.3882406
0.1166165 -0.1439982 -0.3850988
0.1347541 -0.1432958 -0.3859964
0.1482749 -0.1432958 -0.3850988
0.1560246 -0.1418058 -0.3895871
0.1690507 -0.1447857 -0.3886894
0.1788615 -0.1492582 -0.3895871
-0.07593058 -0.135272 -0.3815081
-0.04468445 -0.13457 -0.3842011
-0.0326889 -0.1333869 -0.3868941
-0.01207799 -0.1360599 -0.3815081
-0.003215302 -0.1389548 -0.385772
0.00931613 -0.1325968 -0.3821813
0.01991014 -0.1362792 -0.3819569
0.02407354 -0.1331664 -0.3819569
0.04142793 -0.1392617 -0.3828546
0.05259904 -0.1364988 -0.3826302
0.07304506 -0.1333431 -0.3817325
0.09633538 -0.1313682 -0.3819569
0.103508 -0.1384716 -0.3855476
0.1258502 -0.1359877 -0.3825554
0.1351663 -0.1381208 -0.3819569
0.1487695 -0.1384716 -0.3895871
0.1767179 -0.1397888 -0.3801616
-0.09468651 -0.1257565 -0.3882406
-0.08384517 -0.1226433 -0.3864452
-0.07349849 -0.123037 -0.3833034
-0.06583124 -0.1222495 -0.3846499
-0.05560823 -0.124791 -0.3895871
-0.04526155 -0.1250115 -0.3862208
-0.0234827 -0.1241198 -0.3846499
-0.0126551 -0.1250111 -0.3859964
-0.003916072 -0.1297905 -0.3842011
0.007131374 -0.1253171 -0.3868941
0.01034668 -0.1203202 -0.3824058
0.03957294 -0.1263708 -0.3844255
0.04225236 -0.1295266 -0.3842011
0.05185704 -0.1282111 -0.3877918
0.06451214 -0.1251417 -0.3868941
0.07454278 -0.1227748 -0.3864453
0.08475205 -0.1235211 -0.3810593
0.1066134 -0.1246161 -0.3845003
0.1166165 -0.126633 -0.3824058
0.1284884 -0.1293512 -0.3891383
0.1384641 -0.1234469 -0.383453
0.1495115 -0.1284751 -0.3833034
0.1500062 -0.1236518 -0.3864453
0.1600643 -0.1285636 -0.3882406
0.1704934 -0.1274223 -0.3828546
-0.1048271 -0.1193547 -0.3868941
-0.09353229 -0.1108481 -0.3837523
-0.07300384 -0.1183014 -0.3882406
-0.06393503 -0.1153202 -0.383079
-0.05527845 -0.1196178 -0.3833034
-0.03417289 -0.1176016 -0.3855476
-0.0209819 -0.1165918 -0.3837522
-0.01347953 -0.1158477 -0.3801616
-0.002679418 -0.1149698 -0.3855476
0.0004534399 -0.1134799 -0.3864453
0.02205367 -0.1118119 -0.3864453
0.03219424 -0.1195301 -0.3824058
0.04336535 -0.1171623 -0.3859964
0.05424791 -0.1167672 -0.3821813
0.08726658 -0.1122513 -0.3873429
0.09627354 -0.1152546 -0.3848743
0.1084134 -0.1155403 -0.3846499
0.1176883 -0.1143551 -0.3846499
0.1263449 -0.1195301 -0.3837523
0.140113 -0.1162844 -0.3828546
0.1508306 -0.113743 -0.3850988
0.1608887 -0.1185645 -0.3859964
-0.1167814 -0.10164 -0.3810593
-0.1051981 -0.1067273 -0.3877918
-0.09507125 -0.1054694 -0.3833034
-0.08199019 -0.1005008 -0.3859964
-0.0514036 -0.1076902 -0.3850988
-0.04076837 -0.104798 -0.3868941
-0.03029803 -0.1038324 -0.3868941
-0.01216044 -0.101113 -0.3882406
-0.001937425 -0.1048856 -0.3855476
0.005193949 -0.1020351 -0.3844255
0.01974525 -0.1007622 -0.3815081
0.02238345 -0.1067273 -0.3819569
0.0319469 -0.1050163 -0.3889138
0.05383569 -0.1033067 -0.3833034
0.06315182 -0.1041836 -0.3859964
0.07687868 -0.1062002 -0.3837523
0.0876788 -0.1073394 -0.3877918
0.09711859 -0.1054114 -0.3853232
0.1080012 -0.1034373 -0.3873429
0.1199967 -0.1047103 -0.3864453
0.1341358 -0.1064624 -0.3850988
0.1460489 -0.1058199 -0.3831539
-0.1135661 -0.09918451 -0.3859964
-0.09188343 -0.09111645 -0.3842011
-0.08124819 -0.09050258 -0.3828546
-0.07267406 -0.09589678 -0.3868941
-0.06364648 -0.09471156 -0.3839767
-0.05066161 -0.09778138 -0.3806104
-0.04002638 -0.094712 -0.3819569
-0.02609341 -0.0976928 -0.3817325
-0.01916814 -0.09444804 -0.3824058
-0.008532915 -0.09436034 -0.3873429
0.002019869 -0.09383591 -0.3828546
0.02133916 -0.0945369 -0.3819569
0.0423348 -0.09409725 -0.3895871
0.05280514 -0.09699211 -0.3810593
0.07819778 -0.09155581 -0.3846499
0.08570015 -0.09523818 -0.3815081
0.09794303 -0.09545786 -0.3839766
0.1175234 -0.09918451 -0.3833034
0.1458016 -0.09501894 -0.3880162
0.1523146 -0.09659703 -0.3833034
-0.09468651 -0.08778311 -0.3837523
-0.08042376 -0.08059377 -0.3819569
-0.07061297 -0.08866096 -0.3873429
-0.06038996 -0.08901174 -0.3819569
-0.05997774 -0.08427614 -0.3882406
-0.03953172 -0.08980013 -0.3859964
-0.02118801 -0.08431999 -0.3868941
0.002844305 -0.08401305 -0.3837523
0.01199555 -0.08304796 -0.383079
0.02271322 -0.08388238 -0.3810592
0.05692733 -0.0847155 -0.3815081
0.06508925 -0.08182064 -0.3882406
0.09748959 -0.08374996 -0.3886894
0.1003751 -0.08502243 -0.3850988
0.110763 -0.08857326 -0.3859964
0.1256853 -0.08243452 -0.3855476
0.1321984 -0.08489089 -0.3846499
0.1431634 -0.08199604 -0.3886894
-0.07242673 -0.07305101 -0.3815081
-0.06583124 -0.07550696 -0.3839767
-0.03054537 -0.07261166 -0.3882406
-0.02423843 -0.07546266 -0.3853232
-0.01751927 -0.07480407 -0.3846499
0.003338967 -0.07927658 -0.3877918
0.01281998 -0.07313871 -0.3819569
0.02188878 -0.0757696 -0.3833034
0.04390123 -0.07392886 -0.3833034
0.05663877 -0.07125236 -0.388465
0.06888165 -0.07348993 -0.3864453
0.0799291 -0.07208724 -0.3886894
0.08776125 -0.07050695 -0.3850988
0.09023456 -0.07778662 -0.3886894
0.1228822 -0.07024386 -0.3833034
0.1321984 -0.07325505 -0.382705
0.1401954 -0.07822598 -0.3824058
-0.06137928 -0.06717624 -0.3850988
-0.05099139 -0.06717581 -0.3871185
-0.02741251 -0.06936865 -0.3873429
-0.01982769 -0.06664918 -0.3842011
-0.006348159 -0.06713195 -0.3824058
0.004163403 -0.06945635 -0.3877918
0.02576363 -0.06735163 -0.3828546
0.03697596 -0.06301066 -0.3842011
0.05569067 -0.06208898 -0.3828546
0.06673812 -0.06156192 -0.3850988
0.08858568 -0.06051045 -0.3842011
0.0986438 -0.0685785 -0.3806104
0.1056103 -0.06822728 -0.3850988
0.1128241 -0.06384203 -0.3828546
0.1204914 -0.06454448 -0.3895871
0.1339297 -0.06542231 -0.3864453
-0.1504184 -0.05121464 -0.3837523
-0.05799909 -0.05945721 -0.3824058
-0.02658807 -0.05945721 -0.3864453
-0.01595284 -0.05498601 -0.380386
0.003792407 -0.054897 -0.388465
0.01314976 -0.0503368 -0.3828546
0.02386743 -0.05077528 -0.3815081
0.03623398 -0.05292384 -0.3862208
0.0455501 -0.05384552 -0.3833034
0.06748011 -0.05174081 -0.3850988
0.07844511 -0.05112694 -0.3868941
0.08116575 -0.05744107 -0.3895871
0.1132363 -0.05893279 -0.3810593
0.1246135 -0.05068758 -0.3868941
-0.153139 -0.04603968 -0.3801616
-0.0281545 -0.0427081 -0.3855476
-0.007790923 -0.04595198 -0.3810593
0.01652995 -0.04647904 -0.3801616
0.04789975 -0.04503249 -0.3880162
0.05717466 -0.04468127 -0.3848743
0.06797477 -0.04674213 -0.3868941
0.08611237 -0.04406783 -0.3848743
0.09295519 -0.04560295 -0.3842011
0.1112989 -0.04625936 -0.3855476
-0.01380931 -0.03051743 -0.3855476
-0.004946618 -0.03073755 -0.3819569
0.02691785 -0.03450806 -0.3877918
0.05016695 -0.03586778 -0.3828546
0.07605425 -0.03389462 -0.3866697
0.08001154 -0.03095592 -0.3806104
0.09290023 -0.03402558 -0.3843507
0.1043324 -0.0378848 -0.3806104
0.1140333 -0.03735921 -0.3825553
0.4906633 -0.03498995 -0.3886894
0.5032222 -0.03273966 -0.3847996
0.5124284 -0.03481572 -0.3833034
-0.002349644 -0.02078402 -0.3882406
0.006183272 -0.02503729 -0.3837523
0.03689352 -0.02508114 -0.3810593
0.04810586 -0.0242033 -0.3895871
0.05384943 -0.02323923 -0.3845003
0.07003586 -0.0219232 -0.3864453
0.08405128 -0.02297643 -0.3850988
0.09435673 -0.02841272 -0.3833034
0.1038378 -0.02617647 -0.3864452
0.460324 -0.02060863 -0.3895871
0.4842327 -0.02262564 -0.3833034
0.4942083 -0.02972904 -0.3868941
0.5035244 -0.02367888 -0.3839767
0.515149 -0.02604668 -0.3801616
0.04085082 -0.01604842 -0.3810593
0.05981285 -0.01210209 -0.3806104
0.06286327 -0.01604842 -0.3859964
0.07358094 -0.01675087 -0.3801616
0.08133064 -0.01604842 -0.3837523
0.09457659 -0.01429479 -0.3845003
0.4721684 -0.01666259 -0.3871933
0.4851395 -0.01271684 -0.3837523
0.4922297 -0.01758223 -0.3889138
0.0527227 -0.006400953 -0.3882406
0.0636877 -0.006051921 -0.3837523
0.07498248 -0.002279227 -0.3873429
0.0825673 -0.001140052 -0.3833034
0.0950575 -0.002148998 -0.3824058
0.4232244 -0.002806281 -0.3850988
0.4434231 -0.009383503 -0.3877918
0.4511728 -0.006488649 -0.3868941
0.4628523 -0.003595548 -0.3864453
0.474202 -0.005495927 -0.3825554
0.4842327 -0.00596291 -0.383079
0.4941809 -0.006664919 -0.3830042
0.05057917 0.005875652 -0.3886894
0.06104951 0.002805405 -0.3824058
0.07250917 0.00806806 -0.3837523
0.08454594 0.002630889 -0.3842011
0.4223175 0.003815228 -0.3844255
0.4444948 0.002937387 -0.383079
0.45344 0.002191969 -0.3846499
0.4761532 0.003770941 -0.3819569
0.5167154 0.006971856 -0.3824058
0.5272957 0.004589732 -0.3843507
0.06409992 0.01793389 -0.3895871
0.07663135 0.01745244 -0.3859964
0.08701925 0.01166273 -0.3859964
0.4026959 0.01626723 -0.3862208
0.4123968 0.01479173 -0.3825554
0.423829 0.0147625 -0.386146
0.4341069 0.01344647 -0.3840515
0.4529041 0.01359205 -0.3837523
0.4986603 0.01955715 -0.3842011
0.5076191 0.01493731 -0.385398
0.518859 0.01315532 -0.3859964
0.5272133 0.01400247 -0.3883902
0.5366668 0.01740859 -0.3835278
0.07391071 0.02551962 -0.3839767
0.3736758 0.02201265 -0.3895871
0.3935996 0.02487652 -0.3850988
0.4027509 0.02309336 -0.3850988
0.4135785 0.02187979 -0.3835278
0.4238427 0.02126679 -0.3824058
0.4358383 0.02166186 -0.3828546
0.4766066 0.0270109 -0.3808348
0.4862663 0.02265517 -0.3828546
0.4973137 0.0279453 -0.3836026
0.5068222 0.02876351 -0.3886894
0.516633 0.0228883 -0.3833034
0.3827995 0.03221377 -0.3870437
0.4026135 0.03415771 -0.3806104
0.4132487 0.03534073 -0.3801616
0.4580156 0.03534073 -0.3810593
0.4687333 0.03683288 -0.3882406
0.4768677 0.03455205 -0.3873429
0.4873655 0.03411386 -0.3852484
0.4970939 0.03714026 -0.3853232
0.5005565 0.03902485 -0.3891383
0.517375 0.03016753 -0.3886894
0.09773692 0.04910992 -0.3819569
0.2048312 0.04814483 -0.3844255
0.3837064 0.04209393 -0.3870437
0.3928851 0.04077878 -0.3833034
0.4487819 0.0497238 -0.3824058
0.4574797 0.04678641 -0.3826302
0.4682386 0.04919762 -0.3880162
0.4767303 0.04542668 -0.3833034
0.4868709 0.04060338 -0.3859964
0.5220743 0.0474437 -0.3891383
0.2169504 0.05042625 -0.3895871
0.3866194 0.05112606 -0.3810593
0.4150625 0.05533549 -0.3806104
0.4270168 0.05573056 -0.3835278
0.4368276 0.05466403 -0.3858468
0.4484521 0.05676874 -0.3845003
0.4596645 0.05244327 -0.3844255
0.4670019 0.05428401 -0.3833034
0.1132363 0.06524605 -0.3819569
0.2064388 0.06546485 -0.3895871
0.2151366 0.06559771 -0.3855476
0.3984088 0.06620983 -0.3864453
0.4066532 0.06586021 -0.3868941
0.4187724 0.06270285 -0.3873429
0.4270992 0.06214774 -0.3845003
0.4397131 0.063493 -0.3844255
0.3956057 0.07050695 -0.3864453
0.4059936 0.07138479 -0.3815081
0.4197617 0.07243802 -0.3895871
0.1683911 0.08804621 -0.3837523
0.1769653 0.08550344 -0.3824058
0.1859516 0.08778487 -0.3859964
0.1965044 0.08945023 -0.3846499
0.3998104 0.08085686 -0.3891383
0.4073952 0.08611689 -0.3868941
0.1865699 0.09541313 -0.3833034
0.1980433 0.09520866 -0.3847995
0.2077167 0.09971069 -0.3833034
0.197741 0.1042709 -0.3837523
0.2046663 0.10574 -0.3844255
0.2185993 0.1053241 -0.3891383
0.2221444 0.1097089 -0.3868941
0.2090358 0.1144428 -0.3868941
0.2120862 0.1129085 -0.385772
0.2225566 0.1147059 -0.3846499
0.1921349 0.1211954 -0.3806104
0.2164145 0.1228187 -0.3812836
0.2237932 0.1295283 -0.3824058
0.2316254 0.1249088 -0.3818073
0.2439095 0.1200562 -0.3819569
0.2519065 0.127948 -0.3886894
0.2206604 0.1300527 -0.3886894
0.231378 0.1346572 -0.383079
0.2437034 0.1363677 -0.3837523
0.2536928 0.136456 -0.3858468
0.2632013 0.1384716 -0.3806104
0.2463416 0.1471105 -0.3826302
0.2548745 0.1430318 -0.3855476
0.2656952 0.145685 -0.3861086
0.2746609 0.1453119 -0.3859964
0.2576363 0.1555303 -0.3844255
0.2766121 0.1543162 -0.3879414
0.286368 0.1560985 -0.3850988
0.2691372 0.1655706 -0.3824058
0.2785084 0.1633788 -0.3855476
0.2872748 0.1660091 -0.3873429
0.2803496 0.1724109 -0.3806104
0.2948184 0.1719282 -0.3837522
0.2776289 0.1800396 -0.3850988
0.2885939 0.1808298 -0.3868941
0.2970307 0.1834607 -0.3868941
0.2894184 0.1907403 -0.3828546
0.2929634 0.1913524 -0.3842011
0.3018674 0.191616 -0.3815081
0.3112247 0.1955619 -0.3873429
0.2922214 0.2035435 -0.3810592
0.304588 0.2009999 -0.3855476
0.3038666 0.2137816 -0.3844255
0.3065667 0.2231875 -0.3837522
0.317037 0.2202931 -0.3873429
0.3072262 0.2306404 -0.3833034
0.3158553 0.2352009 -0.3843507
0.3255287 0.2379201 -0.3846499
0.3303104 0.2487067 -0.3877918
0.3092048 0.2526522 -0.3846499
0.3161301 0.2524768 -0.3810593
0.3268478 0.2526522 -0.3873429
0.3307226 0.2536177 -0.3891383
-0.1650934 0.2658943 -0.3801616
0.3097819 0.2601072 -0.3815081
0.3136156 0.2637471 -0.3808348
0.3245806 0.2661149 -0.3846499
0.3316295 0.2633511 -0.3895871
0.3178614 0.2722084 -0.3837523
0.3254462 0.2758921 -0.385772
0.3251165 0.2853348 -0.3830042
0.3338555 0.2879938 -0.3891383
0.3237973 0.2968077 -0.3806104
0.3323303 0.2925106 -0.3895871
0.3220935 0.3058853 -0.3821065
0.3043407 0.3193022 -0.3801616
0.31073 0.3129885 -0.3837522
0.3235912 0.3152235 -0.383079
0.313698 0.3246078 -0.383079
0.3244981 0.3249808 -0.3856598
0.3153606 0.3358766 -0.3855476
0.3230554 0.3313157 -0.3815081
-0.04530277 0.3498205 -0.3819569
-0.03829506 0.3536783 -0.3850988
0.3040933 0.3585025 -0.3842011
0.3186859 0.3583271 -0.3846499
0.2977452 0.3666573 -0.3810592
0.3073911 0.3667465 -0.3850988
0.2968795 0.3779715 -0.3837523
0.307556 0.3757124 -0.3868941
-0.01463374 0.3866521 -0.3819569
-0.0002061091 0.3877062 -0.3850988
0.2871512 0.3896351 -0.3833034
0.2968383 0.384139 -0.3882406
-0.01380931 0.3964758 -0.3824058
-0.00976957 0.3992804 -0.3855476
0.0004534399 0.3950718 -0.3855476
0.01117111 0.3984043 -0.3801616
0.2792778 0.3989313 -0.3846499
0.2878107 0.3970011 -0.3846499
-0.01339709 0.4013868 -0.3842011
-0.00589472 0.4051126 -0.3837523
0.005839758 0.4062101 -0.385398
0.01537574 0.4084451 -0.3819569
0.022301 0.4052012 -0.3833034
0.2656746 0.4089278 -0.3877918
0.2779587 0.4066473 -0.3828546
0.001854982 0.4122612 -0.3859964
0.01582918 0.4133561 -0.3859964
0.02296055 0.4123489 -0.3868941
0.2678182 0.4120845 -0.3833034
0.2701266 0.4150657 -0.3859964
0.2805969 0.4135757 -0.3877918
0.02419721 0.4271695 -0.3864453
0.03260646 0.4253266 -0.3855476
0.04159281 0.4283078 -0.3855476
0.05255781 0.4298881 -0.3882406
0.2479492 0.4253266 -0.3824058
0.2544348 0.4269351 -0.3830042
0.267241 0.4286595 -0.3801616
0.2714457 0.4298004 -0.3891383
0.03549198 0.4347101 -0.3848743
0.04216991 0.4355875 -0.3859964
0.05437158 0.436815 -0.3852484
0.06389381 0.4369464 -0.3835278
0.07696113 0.4362009 -0.3828546
0.2551493 0.4350616 -0.3846499
0.2645204 0.4342721 -0.3850988
0.03615153 0.442077 -0.3877918
0.05643266 0.4453215 -0.385398
0.06616102 0.447661 -0.3824058
0.07661074 0.4443133 -0.3854354
0.08001154 0.4469889 -0.3877918
0.09056433 0.4414623 -0.3842011
0.223752 0.4453218 -0.3821813
0.2356651 0.4441158 -0.3829668
0.2474546 0.4407625 -0.3868941
0.2547508 0.4434806 -0.3826302
0.2617173 0.44006 -0.3824058
0.05824642 0.4504082 -0.3873429
0.08421616 0.4564154 -0.3824058
0.1026835 0.4540476 -0.3848743
0.1225937 0.4541791 -0.3815081
0.133806 0.4564597 -0.3842011
0.1683087 0.4562829 -0.3806104
0.1855394 0.4563707 -0.3810593
0.206645 0.4529514 -0.3833034
0.2107671 0.454661 -0.3844255
0.2244528 0.4525563 -0.3875673
0.2350468 0.4554512 -0.3846499
0.2421782 0.454793 -0.3882406
0.08116575 0.4618087 -0.3819569
0.0922132 0.4612825 -0.3819569
0.1037553 0.4663689 -0.3846499
0.1143081 0.4604064 -0.3842011
0.1237067 0.4663689 -0.3850988
0.1340671 0.4671877 -0.3850988
0.1432046 0.463343 -0.3815081
0.1585803 0.4675958 -0.3819569
0.1665774 0.4667489 -0.3864453
0.175811 0.4647912 -0.3886894
0.1859516 0.4612825 -0.3815081
0.20108 0.4652289 -0.3808348
0.2119213 0.4668083 -0.3895871
0.2218146 0.4604064 -0.3846499
0.1151325 0.4702275 -0.3850988
0.1245311 0.4761471 -0.3877918
0.1373923 0.4734732 -0.3850988
0.1441115 0.4730343 -0.3877918
0.1568902 0.4712799 -0.3868941
0.1733377 0.475139 -0.3877918
0.1827913 0.4742037 -0.3864453
0.2018632 0.4723323 -0.3895871
0.1447298 0.4803994 -0.3873429
0.1555299 0.4800504 -0.3846499
0.5164681 -0.915901 -0.3774686
0.5380683 -0.9023502 -0.3774686
0.507152 -0.8858194 -0.3716337
0.5080588 -0.876086 -0.3752244
0.5499402 -0.8790668 -0.3747756
0.5106146 -0.8641585 -0.3734291
0.5214972 -0.8601253 -0.3720826
0.5614823 -0.8682802 -0.3747756
0.7358506 -0.7246345 -0.3720826
0.7152397 -0.7109539 -0.3774686
0.727936 -0.7124438 -0.3752244
-0.6046004 -0.6902584 -0.3702872
-0.5858856 -0.6914853 -0.3738779
-0.6052186 -0.6865748 -0.3761221
-0.5938414 -0.6847327 -0.3767954
-0.5850612 -0.6815765 -0.3788151
-0.6253762 -0.6721044 -0.3783663
-0.6151531 -0.671929 -0.3797128
-0.6045179 -0.673654 -0.3774686
-0.5942125 -0.6737411 -0.3755237
-0.5830001 -0.679121 -0.3792639
-0.6434313 -0.6620185 -0.3770198
-0.6332907 -0.6637741 -0.3756733
-0.6231502 -0.6668861 -0.3794883
-0.6144112 -0.6614941 -0.3770198
-0.6027042 -0.6674565 -0.3788151
-0.6654438 -0.6507951 -0.3765709
-0.6437817 -0.654785 -0.3770198
-0.6329816 -0.6538636 -0.3743268
-0.6241395 -0.6569338 -0.3797128
-0.6038584 -0.6565822 -0.3783663
-0.686302 -0.6496542 -0.3783663
-0.6755843 -0.6439548 -0.3761221
-0.6631353 -0.6460152 -0.3761221
-0.652665 -0.6461472 -0.3756733
-0.7042747 -0.6315879 -0.3765709
-0.6844058 -0.636851 -0.3772442
-0.6743202 -0.636032 -0.3734291
-0.6634651 -0.6372894 -0.3774686
-0.6537368 -0.6365874 -0.3792639
-0.7161466 -0.6224675 -0.3797128
-0.7045221 -0.6258601 -0.374626
-0.6943815 -0.627292 -0.3772442
-0.6828806 -0.627335 -0.3714093
-0.7349437 -0.6120316 -0.3752244
-0.714745 -0.6167676 -0.3785906
-0.703203 -0.6173819 -0.3734291
-0.6945463 -0.6181703 -0.3756733
-0.745524 -0.6028533 -0.3783662
-0.7349987 -0.6040515 -0.3765709
-0.7148687 -0.6043595 -0.3779174
-0.6919082 -0.6072083 -0.3765709
-0.7449469 -0.5947861 -0.3770197
-0.0045344 -0.2811109 -0.3745512
0.0158704 -0.2805396 -0.3797128
0.02972093 -0.2761548 -0.3738779
-0.01356198 -0.262739 -0.3770198
0.0196628 -0.2661583 -0.3720826
0.02007502 -0.261335 -0.3734291
0.04991962 -0.2615981 -0.3725314
-0.02180634 -0.2508991 -0.3702872
-0.01471619 -0.2598441 -0.3738779
-0.0007832145 -0.2525653 -0.3792639
0.01784904 -0.2548454 -0.3707361
0.03586298 -0.2519953 -0.377693
0.04274702 -0.2514262 -0.3788151
0.05053794 -0.2541 -0.375
0.06162661 -0.2509868 -0.3752244
0.01479863 -0.2445416 -0.377693
0.04357146 -0.2416033 -0.3783663
0.05115627 -0.246602 -0.3747756
0.0650068 -0.2432687 -0.3716337
0.07300384 -0.2453734 -0.3734291
-0.03347211 -0.2343245 -0.3770198
-0.01306732 -0.239674 -0.3743267
0.04126304 -0.2344999 -0.3720826
0.05415173 -0.233915 -0.3762717
0.06550147 -0.2386225 -0.3774686
0.0844635 -0.236035 -0.3725314
-0.04060349 -0.2259925 -0.3707361
-0.03293623 -0.2266072 -0.3747756
-0.02617585 -0.2237137 -0.3752244
-0.0196628 -0.2266949 -0.3774686
0.0423348 -0.2218716 -0.3720826
0.05288759 -0.2266072 -0.3797128
0.06682056 -0.2239755 -0.3792639
0.07506493 -0.2202054 -0.3711849
0.0869368 -0.2240198 -0.3756732
-0.4349314 -0.2187154 -0.3711849
-0.04249969 -0.2174868 -0.3720826
-0.0394905 -0.2140671 -0.3788151
0.01067645 -0.2106456 -0.3774686
0.02114679 -0.2146797 -0.3711849
0.03474999 -0.2175745 -0.3797128
0.04439589 -0.2145051 -0.3738779
0.05643266 -0.218013 -0.3770198
0.06607857 -0.2148998 -0.3763465
0.07687868 -0.2149002 -0.3720826
0.08751391 -0.2164779 -0.375
0.09835525 -0.2144613 -0.3741023
0.1076302 -0.213979 -0.3716337
0.1101859 -0.2173982 -0.3797128
-0.05189826 -0.2047708 -0.3743267
-0.045344 -0.2049024 -0.3736535
-0.01768416 -0.2020514 -0.3765709
0.01150089 -0.2004737 -0.3729802
0.0468692 -0.2025784 -0.3761221
0.0572571 -0.2081901 -0.3761221
0.06690301 -0.2049901 -0.3761221
0.07630158 -0.2051216 -0.3702872
0.08949256 -0.2095941 -0.3716337
0.1004576 -0.2057364 -0.3725314
0.1110104 -0.2074903 -0.3779174
0.1218105 -0.2024031 -0.3702872
0.1323632 -0.2043324 -0.3734291
-0.0300507 -0.1917918 -0.3797128
-0.01999258 -0.1960012 -0.3797128
0.002638196 -0.1943354 -0.3754488
0.01224288 -0.1903895 -0.3716337
0.02287811 -0.1948621 -0.3761221
0.04480811 -0.1917041 -0.3734291
0.05577312 -0.1916164 -0.3783663
0.06734271 -0.1935454 -0.3728306
0.07720846 -0.1950357 -0.3702872
0.08417495 -0.1918361 -0.3725314
0.09072921 -0.1948621 -0.3716337
0.1094439 -0.1940719 -0.3770198
0.1158333 -0.1961323 -0.3760099
0.1327755 -0.1994205 -0.3752244
0.1437405 -0.1945108 -0.3794883
-0.06813966 -0.182232 -0.3779174
-0.02794839 -0.1820579 -0.3747756
-0.01933303 -0.1857416 -0.3716337
-0.005400058 -0.1821443 -0.3783663
0.01521085 -0.1899511 -0.3702872
0.02320788 -0.1897748 -0.3747756
0.03594542 -0.185917 -0.3763465
0.05890597 -0.1885462 -0.3738779
0.06748011 -0.1806544 -0.3729802
0.07003586 -0.1844244 -0.3716337
0.08124819 -0.1803913 -0.3725314
0.09443918 -0.1830225 -0.3764213
0.1026011 -0.1815322 -0.3792639
0.1128241 -0.1853027 -0.3732046
0.1223326 -0.1866177 -0.3725314
0.1448122 -0.182232 -0.3783663
0.1519848 -0.1862661 -0.3720826
-0.06511673 -0.1763289 -0.3744764
-0.0262583 -0.1774964 -0.3702872
0.01368564 -0.1728494 -0.3711849
0.02708273 -0.1781112 -0.3725314
0.03656375 -0.1784181 -0.3754488
0.04893029 -0.1778472 -0.3716337
0.06830455 -0.1707456 -0.3743267
0.07469393 -0.1774087 -0.3752244
0.08574137 -0.1746024 -0.3774686
0.1032194 -0.174121 -0.3752244
0.1134837 -0.1779349 -0.3743267
0.1242425 -0.1756114 -0.375
0.1334762 -0.1738588 -0.3736535
0.1423389 -0.1778472 -0.3743267
0.1556123 -0.1774087 -0.3774686
0.1661239 -0.1762696 -0.3772442
-0.3158003 -0.1601326 -0.3707361
-0.07700235 -0.1644744 -0.375
-0.05746321 -0.1630274 -0.3785906
-0.03681108 -0.1650001 -0.3783662
-0.02514531 -0.165571 -0.3792639
-0.003916072 -0.162325 -0.3716337
0.006224494 -0.1691653 -0.3783663
0.01607651 -0.1630274 -0.3770198
0.0359042 -0.1685532 -0.3729802
0.04975473 -0.1679384 -0.3720826
0.05400058 -0.1647379 -0.375
0.06504802 -0.1624578 -0.3756732
0.07176718 -0.1649272 -0.3750748
0.08289707 -0.1607473 -0.3702872
0.1011996 -0.1632028 -0.3711849
0.1223876 -0.1644297 -0.3774686
0.1542108 -0.1613612 -0.3761221
0.1667422 -0.1689899 -0.3792639
0.1740797 -0.1694292 -0.3747756
0.1862402 -0.1643858 -0.3752244
-0.5211674 -0.1509262 -0.3707361
-0.07935199 -0.1576771 -0.3711849
-0.06879921 -0.156801 -0.3711849
-0.05560823 -0.1566256 -0.3783663
-0.04706157 -0.1558369 -0.3722322
-0.03755307 -0.1575034 -0.3774686
-0.0268354 -0.1512752 -0.3720826
-0.01364442 -0.1530309 -0.3738779
-0.006059607 -0.1546086 -0.3779174
0.01838493 -0.1532054 -0.3734291
0.02745373 -0.1566256 -0.3738779
0.08339173 -0.1560994 -0.3792639
0.1051568 -0.1521531 -0.3797128
0.1128241 -0.1540824 -0.3788151
0.1365679 -0.1552233 -0.3716337
0.1576734 -0.1525039 -0.3702872
0.1651346 -0.1537312 -0.3763465
0.1782019 -0.153643 -0.3756733
0.1864738 -0.1560412 -0.3744764
-0.5207552 -0.1461029 -0.3738779
-0.07522981 -0.1423302 -0.3743267
-0.06492436 -0.1427687 -0.3747756
-0.0576281 -0.1467597 -0.3734291
-0.04631959 -0.1477098 -0.3783662
-0.03565687 -0.1440555 -0.3722322
-0.02329032 -0.1434711 -0.3792639
0.006389381 -0.1497414 -0.3758977
0.02823694 -0.1466721 -0.3738779
0.0300507 -0.1438219 -0.3747756
0.04476689 -0.1452685 -0.3738779
0.0514036 -0.148383 -0.3707361
0.07209696 -0.1429445 -0.3718582
0.08174286 -0.1400519 -0.3707361
0.09317505 -0.1441727 -0.3731298
0.1029309 -0.1432081 -0.3743267
0.1132363 -0.1491705 -0.3797128
0.1253555 -0.1465414 -0.3765709
0.1451008 -0.1453123 -0.3745512
0.1567253 -0.1469356 -0.3716338
0.1660002 -0.1436908 -0.3758976
0.1791088 -0.1439105 -0.3752244
-0.08537038 -0.1393494 -0.3734291
-0.07770312 -0.1376841 -0.3738779
-0.05659755 -0.1343507 -0.3756733
-0.03318356 -0.1380331 -0.3797128
0.01698339 -0.132948 -0.3720826
0.04958984 -0.1342626 -0.3738779
0.06208006 -0.1328165 -0.3725314
0.07465271 -0.1304921 -0.3720826
0.08231997 -0.1353163 -0.3783663
0.1057065 -0.1343805 -0.3789647
0.1143081 -0.1364988 -0.3781418
0.1579208 -0.1346577 -0.377693
0.1794386 -0.1389109 -0.3716337
-0.09443918 -0.1204938 -0.3765709
-0.08685436 -0.121284 -0.3779174
-0.07654891 -0.1226862 -0.3734291
-0.06352282 -0.1255807 -0.3761221
-0.05449524 -0.1257565 -0.375
-0.03376067 -0.1277731 -0.3790395
-0.01158333 -0.1282997 -0.3702872
0.03169958 -0.1241788 -0.3747756
0.0622312 -0.1257562 -0.3743268
0.07209695 -0.1259319 -0.3797128
0.08627726 -0.1216348 -0.3770198
0.09666516 -0.1263712 -0.3747756
0.1148852 -0.1288267 -0.3729802
0.1252731 -0.1291758 -0.3711849
-0.1065584 -0.1152619 -0.3740276
-0.08531542 -0.1140929 -0.3755237
-0.0744466 -0.1153211 -0.3745512
-0.0534647 -0.1132593 -0.375
-0.03260645 -0.1128213 -0.3745512
-0.02394987 -0.1164598 -0.3756733
-0.0001236654 -0.1182137 -0.3783663
0.01108867 -0.1101466 -0.3738779
0.02518653 -0.1180388 -0.3734291
0.03252401 -0.1144437 -0.3779174
0.04027371 -0.1160222 -0.3745512
0.06407245 -0.1152627 -0.3720826
0.07617791 -0.1134799 -0.3781418
0.08668948 -0.1165475 -0.3711849
0.1053217 -0.1157153 -0.3765709
0.1157096 -0.1189162 -0.3747756
0.1291479 -0.1191793 -0.3774686
0.1405252 -0.1111998 -0.3788151
0.1584154 -0.1112875 -0.3752244
0.1611361 -0.1133045 -0.3752244
-0.105363 -0.1061564 -0.3729802
-0.0825673 -0.1050593 -0.3761221
-0.07490004 -0.1028669 -0.3779174
-0.04278824 -0.1095318 -0.3752244
-0.02164145 -0.1051483 -0.3738779
-0.009934457 -0.1086557 -0.3716337
0.01424901 -0.1037152 -0.3759725
0.02980337 -0.1096195 -0.3747756
0.04262336 -0.1065944 -0.3781418
0.05189826 -0.1069904 -0.3779174
0.08495816 -0.1025617 -0.3758977
0.09872624 -0.1018154 -0.3729802
0.1088668 -0.1077779 -0.3729802
0.1182242 -0.1065953 -0.3765709
0.1514077 -0.1061564 -0.3779174
-0.1235418 -0.09409725 -0.3783663
-0.1134012 -0.09374822 -0.3711849
-0.1056515 -0.09339656 -0.3792639
-0.09246053 -0.09576523 -0.3752244
-0.0844635 -0.09120415 -0.3774686
-0.0740756 -0.09287038 -0.3765709
-0.03235912 -0.09216793 -0.3716337
-0.0196628 -0.09909681 -0.3747756
-0.001195433 -0.09462342 -0.3756733
0.01273754 -0.09059028 -0.3770198
0.03417289 -0.0947997 -0.3770198
0.04381879 -0.09760539 -0.3750748
0.05560823 -0.09935991 -0.3752244
0.08854446 -0.09449232 -0.3707361
0.1079324 -0.0966419 -0.3783662
0.149594 -0.09269498 -0.3747756
-0.1256029 -0.08217143 -0.3707361
-0.112989 -0.08892404 -0.3734291
-0.1054042 -0.08822247 -0.3707361
-0.08227874 -0.08335445 -0.3783662
-0.07201451 -0.08567841 -0.3765709
-0.05000206 -0.08760773 -0.3707361
-0.03420037 -0.08474415 -0.3768702
-0.02881405 -0.08383766 -0.3774686
-0.01863226 -0.08673207 -0.375
-0.004348902 -0.08681955 -0.3742145
0.00976957 -0.08988783 -0.3720826
0.0119131 -0.08287388 -0.375
0.03153469 -0.08971243 -0.3770198
0.04274702 -0.08607347 -0.3741023
0.06451214 -0.08629315 -0.3738779
0.07580692 -0.08076917 -0.3756733
0.08644214 -0.08524168 -0.3765709
0.1080424 -0.08322291 -0.3756733
0.1287357 -0.0893634 -0.3756733
0.1369251 -0.08690675 -0.3764213
0.1425863 -0.08638085 -0.3725314
-0.1325281 -0.07743583 -0.3718582
-0.1251906 -0.07726043 -0.3716337
-0.08210012 -0.07433753 -0.3752244
-0.07292139 -0.07787431 -0.3752244
-0.05173338 -0.07436559 -0.3788151
