# .PCD v.7 - Point Cloud Data file format
VERSION .7
FIELDS x y z
SIZE 4 4 4
TYPE F F F
COUNT 1 1 1
WIDTH 384
HEIGHT 1
VIEWPOINT 0 0 0 1 0 0 0
POINTS 384
DATA ascii
0.9911785 0.8788932 -0.1759426
0.9305 0.8908181 -0.1710054
0.7963642 0.875559 -0.1633752
0.9805433 0.8873112 -0.1638241
0.7993322 0.9093229 -0.1656194
0.8777361 0.9036218 -0.1678635
0.7898512 0.9235289 -0.1606822
0.7903458 0.9284407 -0.1638241
0.89035 0.9269499 -0.1606822
0.7907581 0.933264 -0.1620287
0.8065872 0.9373857 -0.1606822
0.8329692 0.9337034 -0.1611311
0.8027124 0.9482601 -0.1651706
0.9308298 0.9548373 -0.1669659
0.9044204 0.9650685 -0.1641233
0.9891174 0.989301 -0.1624776
0.9937343 0.9815847 -0.1615799
0.9786471 0.997983 -0.1629264
0.7800404 0.8751205 -0.1575404
0.7957872 0.870648 -0.1548474
0.9155777 0.9056405 -0.1566427
0.7891092 0.9163395 -0.1548474
0.9211839 0.9115153 -0.1543986
0.8324745 0.9287915 -0.1561939
0.9172266 0.9250214 -0.1535009
0.9723814 0.9252845 -0.1588869
0.8750979 0.9318618 -0.1539497
0.8906798 0.9318618 -0.1561939
0.7963642 0.9419459 -0.1557451
0.9311596 0.9598359 -0.1575404
0.8086483 0.9616776 -0.1521544
0.8882064 0.960363 -0.1561939
0.8312379 0.978339 -0.1557451
0.8624016 0.9729027 -0.1575404
0.8320623 0.9881619 -0.1521544
0.8451296 0.9860576 -0.1537253
0.884414 0.9813216 -0.1561939
0.9063441 0.9894764 -0.1521544
0.8328868 0.9978076 -0.1535009
0.8911744 0.9943006 -0.1588869
0.9898595 0.9990362 -0.1593357
0.9951358 0.8696842 -0.1476661
0.9742776 0.889679 -0.1427289
0.9965786 0.8866091 -0.1456463
0.7986727 0.9045873 -0.1463196
0.8037017 0.9083574 -0.1413824
0.8562183 0.9051144 -0.1436266
0.9263778 0.9065166 -0.1427289
0.8459953 0.9105498 -0.1404847
0.9158251 0.9106375 -0.1436266
0.8215095 0.9268622 -0.1418312
0.8369265 0.9258089 -0.1454219
0.8697391 0.9385266 -0.1400359
0.8860629 0.9362466 -0.1494614
0.9293458 0.940456 -0.1476661
0.9032112 0.9555397 -0.1422801
0.8151614 0.9743935 -0.1409336
0.8675131 0.9701841 -0.1409336
0.8314028 0.9832509 -0.1400359
0.858032 0.9839525 -0.1404847
0.8383281 0.9968438 -0.1499102
0.8671833 0.9092352 -0.1391382
0.9097242 0.9075699 -0.1359964
0.7835855 0.9188809 -0.1337522
0.9101365 0.9123914 -0.1386894
0.8317326 0.9240559 -0.1350987
0.8684199 0.9238805 -0.1350987
0.8161507 0.9314232 -0.1315081
0.8751804 0.9368587 -0.1337522
0.922503 0.9311593 -0.1324057
0.812111 0.9406314 -0.1342011
0.8231584 0.946243 -0.1391382
0.9086937 0.9543107 -0.1359964
0.9463292 0.9536104 -0.1342011
0.9966198 0.9519424 -0.1319569
0.7977658 0.9615022 -0.1324057
0.942207 0.9661501 -0.1337522
0.8573725 0.9767613 -0.135772
0.9541613 0.9774638 -0.1355476
0.8789728 0.9804437 -0.1328546
0.8322272 0.9931614 -0.1355476
0.8591039 0.9985101 -0.1306104
0.9042417 0.9971073 -0.1359964
0.9956305 0.879593 -0.1252244
0.9301702 0.8960808 -0.1220826
0.980296 0.8924861 -0.1247756
0.7961993 0.9137511 -0.1218582
0.8942248 0.9127422 -0.1243268
0.9818624 0.911867 -0.1207361
0.8687497 0.9287038 -0.1279174
0.816563 0.9363343 -0.1288151
0.9554805 0.9349302 -0.1229803
0.8131827 0.9552758 -0.1202873
0.8872995 0.9558028 -0.1220826
0.9856548 0.9555397 -0.1261221
0.8042789 0.9727273 -0.1247756
0.8262913 0.9851793 -0.1216338
0.9935694 0.9864965 -0.1261221
0.8108743 0.9908813 -0.1283662
0.8910919 0.9992993 -0.1270197
0.9278618 0.9943006 -0.1220826
0.8448411 0.9009926 -0.1193896
0.8411312 0.9155493 -0.1140036
0.8777361 0.9137077 -0.1135548
0.9048601 0.9132692 -0.1153501
0.9158251 0.915637 -0.1149013
0.9600148 0.9198465 -0.1131059
0.8525908 0.9258966 -0.1144524
0.905602 0.9229167 -0.1135548
0.8583618 0.9343155 -0.1198384
0.9505338 0.9388757 -0.1108618
0.8542396 0.9452775 -0.1117594
0.9239045 0.9505402 -0.1149013
0.8184592 0.9607121 -0.1135548
0.8502824 0.9640454 -0.1144524
0.8926584 0.9612391 -0.1180431
0.8198607 0.9751828 -0.1171454
0.9741951 0.8948522 -0.1081688
0.7925718 0.9083574 -0.1050269
0.855229 0.9004656 -0.1090664
0.9253885 0.9018679 -0.1081688
0.9302527 0.9009926 -0.1027828
0.7943031 0.9276506 -0.1059246
0.8783957 0.9235289 -0.1005386
0.9006554 0.9315987 -0.1081688
0.9719692 0.9303691 -0.1068223
0.8061751 0.942473 -0.1063734
0.8976874 0.9565026 -0.1063734
0.7978482 0.9665018 -0.1059246
0.8031246 0.9629922 -0.1090664
0.8717177 0.96764 -0.1027828
0.8781483 0.9757976 -0.1090664
0.8831774 0.9768491 -0.1032316
0.8200256 0.9800947 -0.1005386
0.8680078 0.9825932 -0.1025583
0.9104662 0.9811462 -0.1063734
0.8218393 0.9993879 -0.1090664
0.9864792 0.9090598 -0.09964094
0.7933138 0.9180925 -0.09560144
0.877901 0.9187073 -0.09739677
0.8942248 0.917654 -0.09874327
0.9818624 0.9168639 -0.0938061
0.793726 0.9230044 -0.09335727
0.8733666 0.922565 -0.09829444
0.9539964 0.9230044 -0.09447935
0.8007337 0.9388757 -0.09021544
0.9387444 0.9323862 -0.09560144
0.834041 0.9583443 -0.09156194
0.8864751 0.9510663 -0.09560144
0.891834 0.9564149 -0.09470377
0.8162744 0.9678164 -0.09066427
0.8455006 0.9689572 -0.09425494
0.855229 0.9600123 -0.09560144
0.9575415 0.9642208 -0.09290843
0.8673482 0.9753591 -0.09829444
0.8748094 0.9717631 -0.0951526
0.8099675 0.9863212 -0.09739677
0.8271981 0.9998264 -0.09829444
0.9008203 0.9952661 -0.0938061
0.9098067 0.9175664 -0.08752244
0.9980214 0.9137077 -0.08976661
0.8459953 0.9204612 -0.08842011
0.8948843 0.9274769 -0.08797128
0.9720516 0.9353687 -0.08078995
0.8010635 0.9437876 -0.08168761
0.8163156 0.9414197 -0.08662478
0.8587741 0.9443137 -0.08617594
0.8066697 0.9523818 -0.08123878
0.81714 0.9511549 -0.08527828
0.8131003 0.960363 -0.08572711
0.845006 0.9641331 -0.08976661
0.8248897 0.9756222 -0.08572711
0.9418772 0.9711497 -0.08527828
0.8210973 0.9946514 -0.08931778
0.9061791 0.9994756 -0.08168761
0.9169793 0.9999141 -0.08393177
0.9990107 0.8565297 -0.07630162
0.9916732 0.9038849 -0.07495511
0.8401418 0.9109891 -0.07719928
0.8665237 0.9145838 -0.07046679
0.9046952 0.9183565 -0.07944345
0.9261305 0.9166026 -0.07450628
0.8997486 0.9268622 -0.07899462
0.9102189 0.9249771 -0.07360862
0.9267488 0.9239239 -0.07495512
0.94872 0.9245821 -0.07181329
0.95985 0.9248461 -0.07675045
0.9985985 0.9235289 -0.07001796
0.8437144 0.933556 -0.07360862
0.8524259 0.9310716 -0.07405745
0.8635558 0.936771 -0.07226212
0.8952141 0.9323862 -0.07899462
0.9388268 0.9373857 -0.07495511
0.9941465 0.9329132 -0.07495511
0.8061751 0.9475576 -0.07630162
0.8640504 0.9415951 -0.07585278
0.8857331 0.946243 -0.07630162
0.9181335 0.94975 -0.07989228
0.9551507 0.9400166 -0.07271095
0.8492931 0.9593975 -0.07450628
0.8569603 0.9546615 -0.07405744
0.9344573 0.9544856 -0.07046679
0.8397296 0.9699211 -0.07585278
0.8529618 0.9694387 -0.07405745
0.935694 0.969045 -0.07315978
0.840554 0.97948 -0.07405745
0.8204378 0.9899158 -0.07360861
0.9155777 0.9854433 -0.07675045
0.8261263 0.992591 -0.07405745
0.8444289 0.9062527 -0.06642729
0.9805433 0.9073945 -0.06059246
0.992003 0.9087967 -0.06867146
0.8642977 0.9184872 -0.06059246
0.8990065 0.9221266 -0.06149013
0.9154953 0.9207243 -0.06956912
0.9206892 0.9219512 -0.06912029
0.810627 0.9361588 -0.06418312
0.9826044 0.9315987 -0.06238779
0.8478091 0.9450162 -0.06149013
0.806917 0.9573805 -0.06642729
0.8651222 0.9561518 -0.06418312
0.8966157 0.9519424 -0.06149013
0.9960427 0.9572051 -0.06867146
0.9090647 0.9715864 -0.06732496
0.9308298 0.9748321 -0.06014363
0.9471124 0.9758406 -0.06373429
0.8166179 0.9864364 -0.06104129
0.8249722 0.9806191 -0.06777379
0.9936106 0.8992378 -0.05520646
0.8393998 0.9062527 -0.0529623
0.8629787 0.90393 -0.05722621
0.8556412 0.9153739 -0.05206463
0.9308298 0.9159001 -0.0543088
0.9051898 0.928089 -0.0556553
0.9430314 0.9298429 -0.0570018
0.9647141 0.9246697 -0.05969479
0.8463251 0.9304577 -0.05071813
0.9654561 0.9344909 -0.0516158
0.8797972 0.947997 -0.05385996
0.8117812 0.9508033 -0.0556553
0.8646275 0.9513303 -0.05879713
0.8130178 0.9652722 -0.05475763
0.8340822 0.965755 -0.05520646
0.8550641 0.9650092 -0.0570018
0.9084051 0.9668525 -0.05116697
0.9239045 0.9606243 -0.05789946
0.814337 0.9796562 -0.05834829
0.834783 0.973079 -0.05745063
0.8453357 0.9739542 -0.05610413
0.8502824 0.9739542 -0.05879713
0.8938126 0.9857064 -0.0556553
0.8494579 0.9022195 -0.04712747
0.860258 0.9030097 -0.04712747
0.9702379 0.9211611 -0.04263914
0.9933221 0.9281768 -0.04937163
0.9766685 0.9339665 -0.04982047
0.8112865 0.94598 -0.04847397
0.8479739 0.9498377 -0.0462298
0.9172266 0.9451039 -0.04667864
0.8170576 0.9562395 -0.0489228
0.8378334 0.9555397 -0.04039497
0.8593512 0.9591344 -0.04174147
0.9184632 0.9595729 -0.0435368
0.8384105 0.9602754 -0.04533214
0.9961252 0.9622046 -0.0489228
0.8397296 0.9748321 -0.0475763
0.8455006 0.9789538 -0.0435368
0.8979348 0.9714128 -0.04084381
0.9201121 0.978866 -0.04847397
0.8959974 0.9809707 -0.04443447
0.9478132 0.9880742 -0.04084381
0.8652047 0.9051144 -0.03904847
0.9205244 0.9270384 -0.03231598
0.9309123 0.9208997 -0.03141831
0.9268725 0.9313347 -0.03994614
0.9826868 0.9366833 -0.03680431
0.8957912 0.9472086 -0.03680431
0.8374212 0.9507155 -0.03859964
0.8436869 0.9595729 -0.03276481
0.8534977 0.9507155 -0.03321365
0.8716353 0.9776392 -0.03770198
0.9360238 0.9789538 -0.03949731
0.9144235 0.9807945 -0.03276481
0.9153304 0.9905297 -0.03456014
0.8496228 0.9072182 -0.02737881
0.9687539 0.9067797 -0.02737881
0.973618 0.9050258 -0.02019749
0.9961252 0.9044119 -0.02244165
0.852632 0.913795 -0.02625673
0.8607527 0.9127422 -0.02737881
0.8354425 0.9315109 -0.02154399
0.8565481 0.9300184 -0.02917415
0.9873861 0.9339665 -0.02378815
0.9986809 0.9335271 -0.02378815
0.84278 0.9499254 -0.02827648
0.9828517 0.9416828 -0.02064632
0.9941465 0.9429974 -0.02154399
0.8480564 0.9547496 -0.02648115
0.8798797 0.9529957 -0.02917415
0.9229977 0.9559782 -0.02692998
0.9516056 0.9684302 -0.02019749
0.887382 0.9757099 -0.02064632
0.8981821 0.9762343 -0.02917415
0.8877942 0.9804437 -0.02154399
0.9422895 0.9860572 -0.02782765
0.9267901 0.9994756 -0.02782765
0.9981862 0.9287038 -0.01840215
0.9592729 0.930106 -0.01391382
0.9876335 0.9387003 -0.01211849
0.9112082 0.9469455 -0.01526032
0.9219259 0.9464185 -0.01122083
0.9388268 0.9474699 -0.01795332
0.8430274 0.9548373 -0.01840215
0.9116204 0.9518547 -0.01211849
0.9338802 0.9597483 -0.01032316
0.8598458 0.9687819 -0.01750449
0.8971928 0.9665018 -0.01885099
0.913022 0.9664132 -0.01929982
0.850035 0.9790415 -0.01481149
0.888124 0.9853556 -0.01481149
0.9103838 0.9961414 -0.01929982
0.9793066 0.9030973 -0.007181329
0.99629 0.9094106 -0.004039497
0.844264 0.9162518 -0.002244165
0.9659096 0.9135327 -0.00448833
0.9744425 0.917259 -0.00448833
0.9859021 0.9193194 -0.007181329
0.9918381 0.9187073 -0.008527827
0.8452533 0.9258966 -0.008078994
0.8557236 0.9254581 -0.000448833
0.9643844 0.929757 -0.006283662
0.980873 0.9223019 -0.0008976661
0.8517663 0.9363343 -0.00448833
0.9267901 0.9364202 -0.008527827
0.9107136 0.9422967 -0.009425494
0.9544086 0.9452775 -0.0008976661
0.9883754 0.9484354 -0.006732496
0.9173915 0.9550127 -0.001346499
0.8917515 0.9714987 -0.003141831
0.9135991 0.9761466 -0.003590664
0.909312 0.9864965 -0.0008976661
0.899089 0.9908813 -0.006283662
0.9098067 0.9912304 -0.007181329
0.9787295 0.8983608 0.008976661
0.9690837 0.9166026 0.00583483
0.9913434 0.9140594 0.0008976661
0.8504472 0.9218635 0.000448833
0.9846106 0.9268625 0.004787553
0.9208541 0.936771 0.004039497
0.9425368 0.9351056 0.002692998
0.9594377 0.9351056 0.003141831
0.9496269 0.9492256 0.001346499
0.9606744 0.9495746 0.003590664
0.9878808 0.9436122 0.000448833
0.9388268 0.9522932 0.007181329
0.9516881 0.9732544 0.002244165
0.9361886 0.988952 0.008976661
0.9746898 0.9246697 0.01929982
0.9919205 0.9237042 0.01256732
0.9481429 0.9348425 0.01840215
0.9053547 0.9430851 0.01301616
0.9427841 0.9401043 0.01391382
0.9390742 0.9571174 0.01570916
0.9340451 0.9646602 0.01032316
0.9348695 0.9743935 0.01077199
0.9305 0.9848285 0.01346499
0.9732882 0.910199 0.02917415
0.8549817 0.9207243 0.02109515
0.9209366 0.9417706 0.02423698
0.9544086 0.9503648 0.02917415
0.939404 0.962117 0.02154399
0.9446803 0.9642208 0.02827648
0.9185457 0.9743935 0.02917415
0.8491282 0.9123914 0.03096948
0.9021394 0.9758835 0.04174147
0.9172678 0.9946944 0.04151706
0.8977699 0.9862334 0.05206463
0.902799 0.9856187 0.0502693
0.9189579 0.9843041 0.0556553
0.8924935 0.9910567 0.05924596
0.9201946 0.9986854 0.05745063
0.9021394 0.9807945 0.06867146
0.9191228 0.9891257 0.06956912
0.9070036 0.9771999 0.09201077
