# .PCD v.7 - Point Cloud Data file format
VERSION .7
FIELDS x y z
SIZE 4 4 4
TYPE F F F
COUNT 1 1 1
WIDTH 1495
HEIGHT 1
VIEWPOINT 0 0 0 1 0 0 0
POINTS 1495
DATA ascii
-0.403273 0.6816642 -0.6826751
-0.3714498 0.687539 -0.6826751
-0.3642359 0.6842942 -0.681553
-0.3079132 0.6839428 -0.6849192
-0.2969207 0.6851276 -0.6845826
-0.2745785 0.6850834 -0.6858169
-0.2658945 0.6851417 -0.6883603
-0.2585844 0.6871882 -0.6853681
-0.2447339 0.6829787 -0.6871634
-0.2045839 0.686049 -0.6889587
-0.1946906 0.6863998 -0.6894075
-0.1507482 0.6816642 -0.6880611
-0.1271693 0.6824517 -0.6871634
-0.116699 0.6887658 -0.6889587
0.7987551 0.6863998 -0.6889587
-0.9847891 0.6974486 -0.6822262
-0.9794303 0.6929761 -0.6815529
-0.9665555 0.6960456 -0.68462
-0.9529659 0.6911775 -0.6869389
-0.9450101 0.6936772 -0.6844704
-0.9334406 0.6938823 -0.6844704
-0.9229977 0.6945538 -0.6806553
-0.9158663 0.6928446 -0.6833483
-0.568655 0.6944669 -0.6808797
-0.5017931 0.6927139 -0.6840215
-0.4830372 0.6964393 -0.6826751
-0.4705882 0.6958258 -0.6831239
-0.4442475 0.6941162 -0.6808797
-0.4366627 0.6972741 -0.6806553
-0.3604848 0.6935892 -0.6804309
-0.3452327 0.6977986 -0.6822262
-0.3346799 0.6996402 -0.6853681
-0.318521 0.6969234 -0.6862657
-0.3055773 0.695403 -0.6843208
-0.2963848 0.6925811 -0.681553
-0.2851863 0.6951975 -0.6864154
-0.2765297 0.6945553 -0.6880611
-0.2657983 0.6951686 -0.6869389
-0.2579661 0.6945113 -0.6889587
-0.2282864 0.692714 -0.6885099
-0.2061091 0.6937211 -0.6889587
-0.1880951 0.6991158 -0.6876122
-0.1063935 0.6934137 -0.6849192
0.7678387 0.6971864 -0.6867145
0.7935612 0.697974 -0.6844704
-0.9870839 0.7049317 -0.6843208
-0.9771631 0.7047272 -0.6825255
-0.9685889 0.705561 -0.6880611
-0.9548621 0.7034124 -0.6855925
-0.9476758 0.7054001 -0.6850688
-0.9365734 0.7036752 -0.6844704
-0.9265153 0.7035289 -0.6843208
-0.9091471 0.7050782 -0.6813285
-0.5632961 0.7042881 -0.6817774
-0.4949503 0.7038513 -0.6862657
-0.4801929 0.7045512 -0.6826751
-0.4223999 0.7052536 -0.6840215
-0.4074776 0.7068322 -0.6835727
-0.3970897 0.705429 -0.6808797
-0.3592481 0.7083239 -0.6880611
-0.3388433 0.7025784 -0.6808797
-0.3179851 0.7042881 -0.6858169
-0.3048078 0.7052826 -0.6856673
-0.2931283 0.7065682 -0.6804309
-0.2851313 0.7047284 -0.6876122
-0.2771755 0.7042881 -0.6846948
-0.2650563 0.7051442 -0.6860412
-0.2228039 0.7073584 -0.6889587
-0.1156272 0.7037637 -0.6840215
0.7526691 0.7084975 -0.6885099
0.7897688 0.7042881 -0.6889587
0.790181 0.7091123 -0.6894075
-0.983099 0.719635 -0.6831239
-0.9732882 0.7184958 -0.6840215
-0.9635599 0.7172672 -0.6862657
-0.9543262 0.7108653 -0.6849192
-0.94872 0.7110407 -0.6831239
-0.9370955 0.7146074 -0.6876122
-0.9241931 0.7150317 -0.6862657
-0.9170067 0.7156016 -0.6843208
-0.9080753 0.719898 -0.6804309
-0.5957789 0.716128 -0.681179
-0.5669236 0.7167423 -0.6822262
-0.5041016 0.718408 -0.6835727
-0.4940847 0.716128 -0.6835727
-0.4836555 0.7177942 -0.6804309
-0.4773624 0.7157184 -0.6828246
-0.4589225 0.7124456 -0.6813285
-0.3754071 0.7148134 -0.6804309
-0.3589183 0.7133208 -0.6840215
-0.3440785 0.7125333 -0.6813285
-0.3355044 0.7172242 -0.6835727
-0.3048147 0.7143307 -0.6860412
-0.2946329 0.7147685 -0.6826751
-0.2843893 0.714615 -0.6854802
-0.2749358 0.7159233 -0.6834232
-0.263641 0.714783 -0.6867146
-0.2549844 0.7156314 -0.6843208
-0.1480275 0.7163033 -0.6894075
-0.09839647 0.719898 -0.6880611
0.75877 0.7130578 -0.6864901
0.7691578 0.7119185 -0.6889587
0.7905932 0.7140232 -0.6898564
-0.9868915 0.7273097 -0.6822262
-0.9749784 0.7243276 -0.6824507
-0.9673523 0.7228806 -0.6835727
-0.9535018 0.7206882 -0.6894075
-0.9475659 0.7258631 -0.6853681
-0.9234923 0.7249414 -0.6824507
-0.9155365 0.7253366 -0.684246
-0.9072509 0.7298095 -0.6840215
-0.6148233 0.7281415 -0.6844704
-0.5194361 0.7293701 -0.6808797
-0.4994847 0.7223544 -0.6817774
-0.4860464 0.7241088 -0.682675
-0.476428 0.7272651 -0.6859665
-0.4680737 0.7278801 -0.6844704
-0.3955233 0.7251607 -0.6835727
-0.3864545 0.725249 -0.6822262
-0.3429243 0.7273531 -0.6826751
-0.3354219 0.7280549 -0.6820766
-0.3223958 0.7234076 -0.6885099
-0.3163774 0.7266515 -0.6804309
-0.3047529 0.7250727 -0.6835727
-0.293891 0.7246346 -0.6837971
-0.2844168 0.7241668 -0.6834232
-0.2734243 0.725468 -0.6878366
-0.2612226 0.7293701 -0.6817774
-0.2558638 0.721652 -0.6894075
-0.07795045 0.7219151 -0.6876122
0.7568737 0.7243271 -0.6853681
-0.9738241 0.7391044 -0.6855925
-0.9622821 0.734588 -0.6824507
-0.9467414 0.7356842 -0.6885099
-0.9241519 0.734807 -0.6841712
-0.9147533 0.7352453 -0.6853681
-0.9024692 0.7377012 -0.6808797
-0.8924111 0.7339746 -0.6815529
-0.6251288 0.7348941 -0.6831239
-0.6174616 0.7348654 -0.68462
-0.594872 0.7368243 -0.6840215
-0.5822169 0.7347634 -0.6822262
-0.5712931 0.7373496 -0.6831239
-0.5654396 0.7363862 -0.6817774
-0.5236407 0.7312117 -0.6808797
-0.4825013 0.732614 -0.6817774
-0.4719486 0.7355965 -0.6837971
-0.4643638 0.7378328 -0.6828995
-0.3842285 0.7348941 -0.6817774
-0.3758193 0.737657 -0.6840215
-0.3679871 0.7319142 -0.6835727
-0.3550847 0.733316 -0.6858169
-0.3438312 0.7345445 -0.6823758
-0.3316295 0.7391035 -0.6822262
-0.3246218 0.7345442 -0.6843208
-0.313327 0.7372193 -0.6853681
-0.303104 0.7365621 -0.6862657
-0.2911497 0.7312994 -0.6826751
-0.280803 0.7329214 -0.6862657
-0.2720228 0.7350411 -0.6843208
-0.2404469 0.7373496 -0.6880611
-0.1952677 0.7328771 -0.6885099
0.7442598 0.7334918 -0.6831239
0.7652006 0.7330525 -0.6889587
0.7757533 0.7332287 -0.6894075
0.7861412 0.7321773 -0.6894075
-0.9855723 0.7445416 -0.6835727
-0.9739203 0.7475817 -0.6852185
-0.9614989 0.74441 -0.6864901
-0.9464117 0.7405952 -0.6876122
-0.921761 0.7471725 -0.6826751
-0.9131869 0.7465591 -0.6859665
-0.9016448 0.7476118 -0.6831239
-0.6239746 0.7496288 -0.6831239
-0.6186157 0.7408592 -0.6835727
-0.5920689 0.7437514 -0.6831239
-0.5827528 0.7460617 -0.6832735
-0.5433447 0.7465586 -0.6831239
-0.52834 0.7462069 -0.6858169
-0.5179933 0.7465585 -0.6844704
-0.5018756 0.7479609 -0.6817774
-0.487448 0.7426565 -0.6849192
-0.4767303 0.7491018 -0.6822262
-0.4669195 0.7427877 -0.6817774
-0.4505132 0.7464705 -0.6808797
-0.429655 0.7492772 -0.6813285
-0.4148976 0.7464709 -0.6867145
-0.3726864 0.7493649 -0.6817774
-0.3413579 0.7470847 -0.6840215
-0.3256935 0.7401568 -0.6822262
-0.3104827 0.7453317 -0.6837971
-0.3025681 0.7439711 -0.6841338
-0.2848565 0.7431676 -0.6844704
-0.2771342 0.7431831 -0.6831239
-0.2679281 0.7444539 -0.687313
-0.2521951 0.741998 -0.6876122
-0.2495981 0.7476118 -0.6889587
-0.2344285 0.7422615 -0.6889587
0.7139206 0.7431393 -0.6858169
0.7248031 0.7491018 -0.6862657
0.75135 0.7460315 -0.6880611
0.7614493 0.7425245 -0.6894075
0.8537862 0.7449366 -0.6891831
-0.9804609 0.7543644 -0.6862657
-0.9725668 0.7564023 -0.6837971
-0.9628592 0.7547147 -0.6855925
-0.952485 0.7537202 -0.6856673
-0.9211839 0.7545828 -0.6860413
-0.9154953 0.7553282 -0.6862657
-0.9052311 0.756994 -0.6833483
-0.8938401 0.7538081 -0.6838719
-0.8848262 0.7555913 -0.6826751
-0.8324745 0.7582231 -0.6822262
-0.8174698 0.7545381 -0.6826751
-0.6498619 0.7537497 -0.6831239
-0.6342801 0.7563815 -0.6826751
-0.6278495 0.7598007 -0.6867145
-0.6124325 0.7577837 -0.6871634
-0.5955728 0.756994 -0.6887343
-0.5825879 0.7578706 -0.6837971
-0.5640381 0.7535743 -0.6835727
-0.5562678 0.7554595 -0.6826751
-0.5426852 0.7565568 -0.6813285
-0.5352858 0.7546707 -0.6822262
-0.5174574 0.7539259 -0.6835727
-0.4732676 0.755811 -0.6846948
-0.4553774 0.7569935 -0.6808797
-0.44973 0.7563806 -0.6820018
-0.4393009 0.7583107 -0.6817774
-0.4085494 0.7509434 -0.6813285
-0.3978317 0.7532673 -0.6817774
-0.3847232 0.7572571 -0.6835727
-0.3767262 0.7555913 -0.6813285
-0.3665031 0.7517335 -0.6840215
-0.3301455 0.7589229 -0.6804309
-0.3161301 0.7551239 -0.6832735
-0.2998063 0.7513819 -0.6826751
-0.2895832 0.7510311 -0.6871634
-0.275403 0.7523755 -0.6855177
-0.2632837 0.7548888 -0.6867145
-0.2589554 0.7563806 -0.6882855
0.7360979 0.7582231 -0.6880611
0.7417865 0.7550651 -0.6894075
0.7570387 0.757696 -0.6862657
0.8408838 0.7542768 -0.6889587
0.8577023 0.7559421 -0.6876122
0.8680078 0.7515573 -0.6871634
-0.9741127 0.7645363 -0.6849192
-0.9642195 0.7651063 -0.6820018
-0.9547385 0.7628267 -0.6822262
-0.9243992 0.7693605 -0.6885099
-0.9127334 0.7623878 -0.6833483
-0.9047775 0.7686005 -0.6859665
-0.8944721 0.7649305 -0.6871634
-0.8737788 0.7659386 -0.6808797
-0.8689971 0.7690966 -0.6835727
-0.8569878 0.7669626 -0.6814782
-0.834783 0.767518 -0.6808797
-0.6338679 0.7612907 -0.6840215
-0.624799 0.769492 -0.6851436
-0.6143905 0.7641636 -0.6848069
-0.6036729 0.7629363 -0.6837971
-0.5900903 0.7684826 -0.6840215
-0.5828078 0.7647406 -0.6849192
-0.5650549 0.7663192 -0.68462
-0.555299 0.7677815 -0.6849192
-0.5478792 0.7654124 -0.6804309
-0.5371615 0.7676048 -0.6885099
-0.5165094 0.7663341 -0.6828995
-0.4751638 0.7688335 -0.6813285
-0.4650233 0.7675189 -0.6808797
-0.4550476 0.7619054 -0.6804309
-0.4474903 0.7659974 -0.6820766
-0.3924729 0.7645363 -0.6808797
-0.3238798 0.7647117 -0.6804309
-0.3190156 0.7677802 -0.6831239
-0.303104 0.7662026 -0.6813285
-0.2967833 0.7648871 -0.68462
-0.2856878 0.7643609 -0.6833482
-0.2584195 0.7638348 -0.6867145
-0.2485263 0.7624316 -0.6853681
0.716229 0.7677802 -0.6876122
0.7266994 0.768658 -0.6898564
0.7365926 0.7631341 -0.6898564
0.7555546 0.766684 -0.6891831
0.858197 0.7607663 -0.6894075
-0.9686714 0.7778662 -0.6889587
-0.9567583 0.7709382 -0.6876122
-0.9468238 0.7727355 -0.6860413
-0.9169174 0.7733715 -0.6871634
-0.9094769 0.7743574 -0.6898564
-0.8937302 0.7747968 -0.6889587
-0.8733666 0.7707627 -0.6813285
-0.8553939 0.7737001 -0.6844704
-0.8370914 0.7766376 -0.6822262
-0.6863844 0.7775154 -0.6817774
-0.6761614 0.7707627 -0.6808797
-0.6329197 0.7736572 -0.6822262
-0.6250739 0.7761702 -0.6843208
-0.6137928 0.7715077 -0.6860413
-0.602869 0.7728236 -0.6858169
-0.5939651 0.7792693 -0.6822262
-0.586504 0.7760254 -0.6831239
-0.579084 0.7742268 -0.6833483
-0.566429 0.7739491 -0.6858169
-0.5576899 0.7759373 -0.6828995
-0.5365019 0.7776031 -0.6808797
-0.5054207 0.7781301 -0.6808797
-0.4956099 0.7717283 -0.6804309
-0.4845624 0.7797078 -0.6849192
-0.4794509 0.7720773 -0.6817774
-0.4646111 0.7724281 -0.6826751
-0.4460407 0.7744899 -0.6837971
-0.4167938 0.779093 -0.6804309
-0.4070654 0.7705874 -0.6808797
-0.3650192 0.7713775 -0.6804309
-0.3493549 0.7781301 -0.6808797
-0.3362051 0.7754536 -0.6824507
-0.314756 0.7732478 -0.6814782
-0.3025269 0.7735695 -0.6849192
-0.2951894 0.774139 -0.6820018
-0.2858458 0.7747091 -0.6831239
-0.2719815 0.7733064 -0.6808797
-0.2673647 0.7762438 -0.6869389
0.7166412 0.7726044 -0.6858169
0.8276104 0.7755426 -0.6894075
0.832557 0.7797078 -0.6867145
-0.9654149 0.7851011 -0.686939
-0.9467964 0.785028 -0.6868641
-0.8985943 0.7870752 -0.6831239
-0.8885362 0.7833906 -0.6862657
-0.8785605 0.7801471 -0.6840215
-0.8623191 0.7815494 -0.6813285
-0.8302486 0.7878627 -0.6826751
-0.6689888 0.7856269 -0.6822262
-0.6429778 0.7838295 -0.6808797
-0.6344037 0.7851888 -0.6844704
-0.6243319 0.7860518 -0.6841711
-0.6151531 0.7854072 -0.6844704
-0.604353 0.7853194 -0.6813285
-0.597098 0.7856189 -0.685009
-0.585762 0.7858022 -0.6817774
-0.5783008 0.7840925 -0.6840215
-0.5676656 0.7840487 -0.6840215
-0.5448493 0.7840926 -0.6851436
-0.5301538 0.78111 -0.6880611
-0.5198483 0.7804979 -0.6831239
-0.5095428 0.781374 -0.6804309
-0.4988252 0.7874241 -0.6808797
-0.4782967 0.7870752 -0.6835727
-0.4637866 0.7821633 -0.6840215
-0.4578919 0.7848389 -0.6806553
-0.4434231 0.7804102 -0.6804309
-0.3639474 0.786285 -0.6817774
-0.322066 0.7868993 -0.6858169
-0.3072262 0.7873365 -0.6813285
-0.294365 0.7840049 -0.6826751
-0.2851588 0.7828652 -0.68462
-0.2730395 0.7835667 -0.6832735
-0.2646303 0.78725 -0.6859665
-0.2512057 0.7834344 -0.6855925
-0.2369018 0.7816371 -0.6889587
-0.227091 0.7800586 -0.6898564
0.7129313 0.7802348 -0.6880611
0.7238963 0.7873365 -0.6898564
0.7544004 0.7803226 -0.6894075
0.8176759 0.7832586 -0.688061
0.828476 0.7854085 -0.6891831
0.8329692 0.7846196 -0.6876122
0.8434395 0.7838295 -0.6889587
0.8561358 0.7840633 -0.6870138
0.8652047 0.7875119 -0.6898564
0.8731192 0.7840487 -0.6860413
-0.9647348 0.7949891 -0.6852559
-0.9549239 0.7956249 -0.6875
-0.9478956 0.7947915 -0.6876122
-0.9320664 0.7996148 -0.6889587
-0.9222556 0.799001 -0.6867145
-0.9075807 0.7989132 -0.6898564
-0.8919164 0.7996148 -0.6849192
-0.8848881 0.7929063 -0.6853681
-0.8776124 0.7925549 -0.6822262
-0.8667711 0.798737 -0.6831239
-0.8460777 0.7970716 -0.6822262
-0.7281009 0.7948793 -0.6813285
-0.6958242 0.79409 -0.6824507
-0.6657735 0.7957996 -0.6826751
-0.6549734 0.7957996 -0.6851436
-0.6445855 0.7921611 -0.6851436
-0.6359702 0.7966766 -0.6817774
-0.6218586 0.7975098 -0.6832735
-0.6147409 0.790319 -0.6885099
-0.6064759 0.7961292 -0.6868268
-0.5859131 0.7964876 -0.6840216
-0.5712931 0.7976864 -0.6822262
-0.5607404 0.7980372 -0.6822262
-0.5532792 0.7948788 -0.6808797
-0.5435097 0.7952887 -0.6856673
-0.5351416 0.7948354 -0.6822262
-0.5269797 0.7932135 -0.6878366
-0.5188178 0.7927746 -0.688061
-0.5042664 0.7928622 -0.6804309
-0.4879426 0.7975101 -0.6804309
-0.4630446 0.7921598 -0.6826751
-0.4114349 0.7910206 -0.6804309
-0.373346 0.7999665 -0.6813285
-0.3418525 0.7982126 -0.6862657
-0.3114308 0.7907575 -0.6817774
-0.3066078 0.7947472 -0.6833483
-0.2907375 0.7943965 -0.6858169
-0.2844168 0.7926868 -0.6844704
-0.2722426 0.7933592 -0.6858169
-0.2639982 0.7954636 -0.68462
-0.2552867 0.7950108 -0.6851436
-0.2461355 0.7919844 -0.6871634
0.739643 0.7975978 -0.6880611
0.8157797 0.7952743 -0.6882855
0.8262088 0.7933011 -0.6882855
0.8337112 0.7945284 -0.6804309
0.8764994 0.7968963 -0.6835727
-0.9712272 0.8039997 -0.6813285
-0.9630103 0.8056656 -0.6858169
-0.9470299 0.8072444 -0.6844704
-0.893263 0.8068355 -0.6858169
-0.8815285 0.8000542 -0.6808797
-0.8745208 0.8066306 -0.6859665
-0.8606702 0.8037366 -0.6849192
-0.8558061 0.8077706 -0.6804309
-0.8497877 0.8089115 -0.6840215
-0.7211757 0.8059289 -0.6808797
-0.7163115 0.8085598 -0.6813285
-0.6948761 0.806456 -0.6822262
-0.684076 0.8069822 -0.6822262
-0.6759141 0.8043057 -0.681553
-0.6542108 0.8056657 -0.6860413
-0.6434726 0.8070252 -0.6837971
-0.6305701 0.8032538 -0.6855924
-0.6242632 0.8065871 -0.6889587
-0.6089699 0.8021589 -0.6885099
-0.5872459 0.80549 -0.6837971
-0.5641481 0.8035902 -0.6852185
-0.5442516 0.8096991 -0.6898564
-0.5358149 0.805052 -0.6852185
-0.5262377 0.8031223 -0.6845826
-0.503442 0.802771 -0.6858169
-0.4974649 0.8047012 -0.6849192
-0.4872831 0.8049204 -0.682675
-0.4725257 0.8032981 -0.6804309
-0.4618904 0.8068945 -0.6844704
-0.378375 0.8088238 -0.6858169
-0.3311348 0.8038242 -0.6822262
-0.3102766 0.8056659 -0.6840215
-0.2938429 0.8026547 -0.6855177
-0.2855435 0.8026842 -0.6846948
-0.2752381 0.8043513 -0.6831239
-0.269467 0.8050963 -0.6853681
-0.2594913 0.8042636 -0.6880611
0.730162 0.807946 -0.6894075
0.7460736 0.8043513 -0.6871634
0.8166659 0.8051391 -0.6881732
0.82456 0.8085598 -0.6853681
0.8301661 0.8051388 -0.6882855
0.8452533 0.8034735 -0.6894075
-0.9607568 0.8121554 -0.6831239
-0.9404757 0.8194342 -0.6894075
-0.9326986 0.8171252 -0.6856673
-0.896492 0.814172 -0.6878366
-0.8729544 0.8149621 -0.6833483
-0.862855 0.8123747 -0.6835727
-0.8553939 0.8126816 -0.6822262
-0.8470259 0.815312 -0.6828995
-0.8280226 0.8172418 -0.6831239
-0.817882 0.8119791 -0.6813285
-0.734449 0.8123317 -0.681553
-0.7157344 0.8158825 -0.6817774
-0.709716 0.8162763 -0.6804309
-0.6880333 0.8171541 -0.6844704
-0.6751308 0.8140413 -0.6862657
-0.6642483 0.81551 -0.6841338
-0.6514283 0.812857 -0.6808797
-0.6420572 0.8148164 -0.6861161
-0.6341976 0.8188203 -0.6894075
-0.6266953 0.8147863 -0.6873878
-0.6159363 0.8144353 -0.6855924
-0.6016324 0.8196982 -0.6889587
-0.5867101 0.8129447 -0.6831239
-0.5760748 0.8111916 -0.6894075
-0.5594212 0.812857 -0.6898564
-0.5359042 0.8138657 -0.6861535
-0.5232285 0.8128136 -0.6835727
-0.5148193 0.8165411 -0.6853681
-0.5047611 0.8142165 -0.6835727
-0.4922709 0.8136462 -0.6871634
-0.4761944 0.8139966 -0.6835727
-0.4614782 0.8118038 -0.6826751
-0.4554598 0.816891 -0.6817774
-0.3929263 0.8173299 -0.6833483
-0.3778391 0.8162329 -0.682675
-0.3674513 0.8158825 -0.6828995
-0.3541366 0.8150498 -0.6817774
-0.3364112 0.811367 -0.6813285
-0.3200874 0.8139961 -0.6813285
-0.3176553 0.8156194 -0.6811041
-0.3073911 0.8137778 -0.6840215
-0.2979101 0.8137931 -0.6846201
-0.2868008 0.8157948 -0.6846948
-0.2787007 0.8171541 -0.6885099
-0.268725 0.814874 -0.6871634
-0.2587493 0.8139961 -0.6894075
0.8069582 0.8152682 -0.6851436
0.8204378 0.8152257 -0.6894075
0.8418731 0.8182933 -0.6889587
0.8566305 0.812857 -0.6831239
-0.9600148 0.8220659 -0.6831239
-0.9528422 0.8227233 -0.6869389
-0.9477308 0.8270642 -0.6835727
-0.9304176 0.8242584 -0.6804309
-0.9240694 0.8252225 -0.6841712
-0.899831 0.8284678 -0.6889587
-0.8857331 0.8203103 -0.6862657
-0.8646688 0.8258799 -0.6842459
-0.8543221 0.8276777 -0.6804309
-0.8463663 0.8226789 -0.6862657
-0.8382456 0.8212758 -0.6885099
-0.8276928 0.8222414 -0.6808797
-0.7253802 0.8294307 -0.6831239
-0.7091389 0.8237318 -0.6817774
-0.6967998 0.8231763 -0.6829743
-0.6829218 0.8218029 -0.6822262
-0.6720805 0.8226342 -0.6837971
-0.6634857 0.8253313 -0.6846948
-0.6534345 0.8262453 -0.6850688
-0.6444206 0.8251779 -0.6849192
-0.639845 0.8232047 -0.6849192
-0.6142463 0.8228544 -0.6868641
-0.6030614 0.827034 -0.6883602
-0.5905849 0.8235559 -0.6871634
-0.5586793 0.8226781 -0.6898564
-0.5464227 0.8239942 -0.6837224
-0.5343859 0.8231463 -0.6858169
-0.5247331 0.8228756 -0.684246
-0.5133628 0.8252804 -0.6853681
-0.5031123 0.8251634 -0.6858169
-0.4937755 0.8239945 -0.6834605
-0.4808937 0.8265376 -0.6844704
-0.4730615 0.8246959 -0.6846948
-0.4628385 0.824257 -0.6855925
-0.4340245 0.827326 -0.6804309
-0.3942042 0.8265666 -0.6814782
-0.3815903 0.8289922 -0.6817774
-0.3741292 0.8265815 -0.6842459
-0.3647444 0.8256606 -0.6838719
-0.3355868 0.8211882 -0.6804309
-0.3263257 0.8264794 -0.6828247
-0.316666 0.827853 -0.6824507
-0.3066697 0.8236215 -0.6823385
-0.2957391 0.822123 -0.6841711
-0.285997 0.8257045 -0.6871634
-0.2757739 0.8254852 -0.688061
-0.2675708 0.8296947 -0.6889587
0.8045262 0.8211882 -0.6862657
0.8262088 0.8282915 -0.6822262
0.8368441 0.8289063 -0.6853681
0.847232 0.8282039 -0.6804309
-0.9549858 0.8308356 -0.6826751
-0.9377825 0.8370323 -0.6858169
-0.9291809 0.8389904 -0.6880611
-0.9174739 0.8322378 -0.6885099
-0.9050249 0.8336401 -0.6867145
-0.8788078 0.8346056 -0.6894075
-0.8638443 0.8357896 -0.6844704
-0.8560122 0.834079 -0.6882855
-0.8433571 0.8315354 -0.6840215
-0.8342883 0.8327351 -0.6849192
-0.8242714 0.8355265 -0.6844704
-0.7141267 0.8356142 -0.6837971
-0.7056763 0.8364908 -0.688061
-0.6974319 0.8364473 -0.6826751
-0.6867554 0.834518 -0.6855924
-0.6710911 0.8349569 -0.6851436
-0.6653613 0.8323256 -0.6862657
-0.6544787 0.8329403 -0.6871634
-0.6466054 0.8349569 -0.6873878
-0.6392267 0.8305725 -0.6871634
-0.6280143 0.8352204 -0.6898564
-0.6066614 0.8317994 -0.6894075
-0.5531555 0.8326764 -0.6885099
-0.5237231 0.8352191 -0.6882855
-0.5108619 0.8378496 -0.6822262
-0.5032771 0.8339927 -0.681553
-0.4907045 0.833378 -0.686939
-0.4803578 0.8339032 -0.6849192
-0.4799456 0.8389028 -0.6862657
-0.4646111 0.8316231 -0.6840215
-0.4540995 0.834079 -0.6840216
-0.4390535 0.834518 -0.6844704
-0.4228946 0.8381127 -0.6826751
-0.3946576 0.8324132 -0.6835727
-0.384943 0.8353359 -0.681927
-0.3604848 0.8306602 -0.6826751
-0.3552908 0.8378496 -0.6817774
-0.3497259 0.8342549 -0.6824507
-0.3241684 0.8354387 -0.6817774
-0.3162538 0.8328513 -0.6828995
-0.3035162 0.8342106 -0.6846948
-0.2932932 0.8351327 -0.6804309
-0.2877283 0.8338159 -0.6855925
-0.2729296 0.8339918 -0.6831239
0.7795457 0.8300455 -0.6885099
0.7950864 0.833071 -0.6855925
0.8041964 0.8346061 -0.6871634
0.8244363 0.8340577 -0.6853681
0.8329692 0.8371497 -0.6898564
0.8434395 0.8380249 -0.6808797
-0.9363948 0.8458086 -0.6862657
-0.9263778 0.847365 -0.686939
-0.9173915 0.8441064 -0.6847696
-0.8578672 0.8407444 -0.6858169
-0.842409 0.8439019 -0.6864901
-0.8351402 0.8426155 -0.6841712
-0.8260027 0.8444276 -0.6837971
-0.7243085 0.8442531 -0.6804309
-0.715858 0.8442084 -0.6828995
-0.7026259 0.8444276 -0.6860413
-0.6951236 0.8445449 -0.6844704
-0.6703079 0.8448653 -0.6885099
-0.6699781 0.8497771 -0.6826751
-0.51012 0.8477601 -0.6813285
-0.5024527 0.8438572 -0.6855925
-0.4971351 0.8470142 -0.6820018
-0.4860739 0.8448662 -0.6871634
-0.4796158 0.8439023 -0.6826751
-0.4662187 0.8471019 -0.6831238
-0.4587576 0.8463578 -0.6844704
-0.448617 0.8433315 -0.6837971
-0.4145678 0.8473216 -0.6806553
-0.4043036 0.8449534 -0.6820018
-0.3862072 0.843463 -0.6844704
-0.3799415 0.8486379 -0.6876122
-0.3695536 0.8492501 -0.6817774
-0.3571458 0.844033 -0.6817774
-0.343996 0.8470576 -0.6817774
-0.32355 0.8428491 -0.6808797
-0.3128324 0.8465315 -0.6871634
-0.3057147 0.8454508 -0.6838719
-0.2937879 0.8466493 -0.6876122
-0.2867802 0.8460947 -0.6876122
-0.2744548 0.8428061 -0.6855925
-0.2564409 0.8437269 -0.6885099
0.835731 0.8428925 -0.6831239
-0.9356527 0.855697 -0.6846948
-0.9251137 0.8550097 -0.6829743
-0.9179686 0.8557401 -0.6889587
-0.9058082 0.8536792 -0.686939
-0.8336288 0.8508304 -0.688061
-0.8228287 0.855302 -0.6828995
-0.8146667 0.8539423 -0.682675
-0.7160367 0.8528182 -0.6832735
-0.7051541 0.8544543 -0.6841711
-0.6936395 0.8534601 -0.6836849
-0.6804073 0.8537669 -0.6862657
-0.6666804 0.8534169 -0.688061
-0.5097077 0.8527597 -0.6844704
-0.4993199 0.8546008 -0.6876122
-0.4891793 0.8531096 -0.6851436
-0.4767303 0.8560913 -0.68462
-0.4648309 0.853402 -0.6841711
-0.4562019 0.8546001 -0.6871634
-0.4478338 0.8531096 -0.6855925
-0.4375696 0.8543373 -0.6813285
-0.427429 0.852408 -0.6844704
-0.3956882 0.8574067 -0.6813285
-0.3851354 0.8582836 -0.6817774
-0.3749948 0.8531087 -0.6804309
-0.3666474 0.85596 -0.6849192
-0.3563832 0.8539431 -0.6830117
-0.3355044 0.8516196 -0.6824507
-0.3168309 0.8560031 -0.6824507
-0.3048353 0.8569098 -0.6843208
-0.2963711 0.8550097 -0.6814782
-0.286368 0.851004 -0.6885099
-0.9369306 0.8690703 -0.6804309
-0.9258558 0.8642763 -0.6850688
-0.9148769 0.8667907 -0.6867145
-0.9023867 0.8681942 -0.6867145
-0.8867224 0.8684555 -0.6871634
-0.8244363 0.8641593 -0.6871634
-0.8140896 0.8612662 -0.6853681
-0.8069996 0.8644224 -0.6861161
-0.7164763 0.8674917 -0.6844704
-0.6928151 0.8633705 -0.6858169
-0.6843234 0.8665262 -0.6849192
-0.673853 0.8621414 -0.6876122
-0.4987427 0.8618783 -0.6885099
-0.4742845 0.8633122 -0.68462
-0.4623027 0.8612662 -0.6867145
-0.4519148 0.8611776 -0.6889587
-0.4442475 0.8639839 -0.6828995
-0.4338184 0.86543 -0.6862657
-0.4207923 0.8652117 -0.6824507
-0.4133723 0.8620112 -0.6842459
-0.4077662 0.866396 -0.6855924
-0.3974607 0.8645097 -0.6824507
-0.3892576 0.8641585 -0.6867145
-0.3738819 0.8654314 -0.6867145
-0.3661321 0.8634135 -0.6822262
-0.3564725 0.8625221 -0.6844704
-0.3458373 0.8630786 -0.6876122
-0.3324539 0.8606514 -0.6840215
-0.321695 0.8649048 -0.6885099
-0.3137392 0.8648611 -0.6858169
-0.3033513 0.86543 -0.6862657
-0.2929634 0.8671405 -0.6891831
-0.2838672 0.8637208 -0.6853681
-0.2749907 0.8663508 -0.6858169
-0.924358 0.8744417 -0.6841338
-0.913709 0.8729579 -0.683423
-0.9034311 0.8749164 -0.6856673
-0.7328002 0.8728412 -0.6822262
-0.7249405 0.8765827 -0.6817774
-0.7158992 0.8749468 -0.6867145
-0.7053465 0.8729728 -0.6849192
-0.6896409 0.872929 -0.6885099
-0.4877777 0.8703866 -0.6876122
-0.4743394 0.8745071 -0.6860413
-0.461437 0.8735862 -0.6844704
-0.4424612 0.8748878 -0.6844704
-0.4304382 0.8741133 -0.6833483
-0.425945 0.8721397 -0.6858169
-0.4152273 0.876086 -0.6867145
-0.4044272 0.8796807 -0.6894075
-0.3973646 0.8759112 -0.6844704
-0.3839812 0.8730158 -0.6808797
-0.3755307 0.8755594 -0.686939
-0.3644421 0.8746537 -0.6837224
-0.352158 0.8773129 -0.6867145
-0.3442022 0.8738497 -0.6864901
-0.3359166 0.8770515 -0.6822262
-0.32355 0.8725352 -0.681553
-0.3153057 0.8756471 -0.6849192
-0.3004246 0.8736739 -0.6840216
-0.2946948 0.8746837 -0.6889587
-0.2746609 0.8712627 -0.6817774
-0.9256359 0.8882749 -0.6808797
-0.914451 0.8836574 -0.6828246
-0.9010264 0.8853822 -0.6851436
-0.8926034 0.8847685 -0.6853681
-0.8829919 0.8864341 -0.6869389
-0.7910879 0.8817854 -0.6894075
-0.7832969 0.884329 -0.6855925
-0.7753411 0.8854704 -0.6862657
-0.7692403 0.8886257 -0.6822262
-0.7560493 0.8859738 -0.6840215
-0.7473927 0.8889773 -0.6862657
-0.7343254 0.8847679 -0.6837971
-0.7225498 0.8867268 -0.68462
-0.710458 0.8824002 -0.6889587
-0.6997403 0.8814363 -0.6885099
-0.6827569 0.8862579 -0.6894075
-0.4707119 0.8853827 -0.6867145
-0.4426399 0.8835398 -0.6873878
-0.4396307 0.8868726 -0.6894075
-0.4294077 0.8864333 -0.6889587
-0.4168762 0.88661 -0.6808797
-0.408467 0.8875751 -0.6822262
-0.3957294 0.8866313 -0.6854802
-0.3852591 0.8858641 -0.6860413
-0.3747681 0.8853825 -0.6857046
-0.3651841 0.8849141 -0.68462
-0.3538481 0.8860398 -0.6866024
-0.342567 0.8847092 -0.6861161
-0.3330104 0.8836935 -0.6852558
-0.325034 0.8825755 -0.6831239
-0.3146461 0.8831017 -0.6885099
-0.2998063 0.8810856 -0.6871634
0.7581104 0.8859948 -0.6885099
-0.9401459 0.8986248 -0.6804309
-0.9121701 0.8926018 -0.6840216
-0.9026546 0.8955982 -0.6834605
-0.8906798 0.8907304 -0.6804309
-0.8846613 0.89573 -0.6864901
-0.7749289 0.8903796 -0.6880611
-0.7552249 0.8958177 -0.6871634
-0.7420338 0.8941519 -0.6851436
-0.7329816 0.8956423 -0.6868043
-0.7228245 0.8931863 -0.6851436
-0.4446597 0.8925729 -0.6885098
-0.4266458 0.8916082 -0.6880611
-0.41869 0.892223 -0.6889587
-0.4080547 0.8923984 -0.6880611
-0.3717795 0.892572 -0.6880611
-0.3556206 0.8945908 -0.6835727
-0.3346799 0.8918713 -0.6880611
0.7377468 0.8916082 -0.6898564
0.7564203 0.8943484 -0.6868268
-0.9097242 0.9049381 -0.6813285
-0.8943073 0.9023949 -0.6880611
-0.8840019 0.9054643 -0.6840216
-0.8686673 0.9085336 -0.6858169
-0.7680036 0.9034481 -0.6894075
-0.7553898 0.9050255 -0.6858169
-0.4282534 0.9012557 -0.6898564
-0.3914836 0.9090598 -0.6894075
0.7357682 0.9041199 -0.6883602
0.744837 0.9064289 -0.6885099
0.7595943 0.9032289 -0.6828995
-0.9757204 0.9160751 -0.6811041
-0.9037883 0.9131815 -0.6804309
-0.8962859 0.9123923 -0.6858169
-0.8870522 0.9129474 -0.6865649
-0.8661115 0.9168361 -0.6876122
0.738214 0.9142927 -0.6858169
0.7453728 0.9137082 -0.6858169
0.7529165 0.9141458 -0.6835727
0.7603364 0.9106375 -0.6876122
-0.9757341 0.927213 -0.6855177
-0.8953378 0.9247579 -0.6835728
-0.8843865 0.9252547 -0.6814782
-0.8720063 0.9258094 -0.6837971
-0.8465724 0.9261606 -0.6876122
-0.8251371 0.929757 -0.6894075
0.719939 0.9209874 -0.6898564
0.7258337 0.9253275 -0.6896319
0.7304918 0.9250214 -0.6885099
0.7443148 0.9227983 -0.6862657
0.7565852 0.9246702 -0.6811041
0.76417 0.9241436 -0.6813285
-0.9666927 0.937035 -0.6817774
-0.9572117 0.9308962 -0.6808797
-0.9276969 0.9313347 -0.6826751
-0.9150006 0.9333508 -0.6820018
-0.9023043 0.9329132 -0.6804309
-0.894637 0.9346229 -0.6828995
-0.8845995 0.9338995 -0.6832361
-0.8740674 0.9360047 -0.6827873
-0.8627313 0.9367432 -0.6868641
-0.8562595 0.934579 -0.6867145
-0.8460366 0.9335713 -0.686939
0.7136939 0.9348645 -0.6849192
0.7264521 0.9327378 -0.6862657
0.7340781 0.9350177 -0.6834979
0.7469805 0.9308962 -0.6880611
0.7515973 0.9304577 -0.6853681
0.7677563 0.9327378 -0.6822262
-0.9366833 0.9429974 -0.6813285
-0.8963684 0.9471209 -0.6804309
-0.8812812 0.942473 -0.6804309
-0.8735315 0.9433933 -0.6833483
-0.8529205 0.943086 -0.6835728
-0.8467922 0.9454538 -0.6847696
-0.8393998 0.9474699 -0.6849192
-0.8271432 0.9478222 -0.6855177
0.70749 0.9498377 -0.6885099
0.7136458 0.9440507 -0.6834232
0.7236215 0.9429986 -0.6835728
0.7342018 0.946448 -0.6850688
0.7443423 0.944079 -0.6864154
0.7546753 0.9441971 -0.6829743
0.7659426 0.943831 -0.6822262
-0.9258832 0.9559782 -0.6813285
-0.8931118 0.9543102 -0.6846948
-0.8805392 0.9523818 -0.6826751
-0.865081 0.9553639 -0.6840216
-0.8549817 0.951767 -0.6817774
-0.8447586 0.950891 -0.6867145
-0.8334638 0.9598359 -0.6849192
-0.8231584 0.9568539 -0.6837971
0.6980914 0.958959 -0.6876122
0.7054289 0.9566346 -0.6840216
0.7164214 0.955188 -0.6841711
0.7253803 0.9514171 -0.6878366
0.736098 0.9571174 -0.684807
0.7469255 0.9522359 -0.6846201
0.7533287 0.9501894 -0.6808797
0.7666433 0.9512413 -0.6833483
-0.9283015 0.9636066 -0.6855177
-0.9125686 0.9654051 -0.6817774
-0.8996661 0.9675524 -0.6808797
-0.8880141 0.9659455 -0.6841711
-0.8797972 0.9622046 -0.6817774
-0.8689146 0.96764 -0.6817774
-0.8460777 0.9648786 -0.6876122
-0.8352777 0.9684732 -0.6878366
-0.8246836 0.9692203 -0.6853681
-0.8117812 0.9672016 -0.6876122
-0.7744342 0.9622924 -0.6889587
0.6732759 0.9699211 -0.6871634
0.6834165 0.9694817 -0.6862657
0.7053465 0.9654197 -0.6855177
0.7163115 0.9644396 -0.6813285
0.7236077 0.9628177 -0.6849192
0.7370049 0.9668517 -0.6871634
0.744095 0.9629053 -0.6824507
0.7521333 0.9626861 -0.6853681
0.7619853 0.9659454 -0.6858169
0.7755885 0.9643971 -0.6831239
-0.9166907 0.9755336 -0.6851436
-0.8857331 0.9752118 -0.6831239
-0.8762933 0.9752258 -0.6831239
-0.8659467 0.9751174 -0.6827872
-0.8563008 0.9757678 -0.6849192
-0.8446212 0.9734582 -0.6865649
-0.8233234 0.9757669 -0.6861161
-0.8037018 0.9769368 -0.6834232
-0.7790098 0.9763663 -0.6876122
0.6689064 0.9760589 -0.6831239
0.6755568 0.9755337 -0.6862657
0.686673 0.9761041 -0.6842459
0.699493 0.9736911 -0.6898564
0.704522 0.975709 -0.6853681
0.7170122 0.9718069 -0.6851436
0.7224535 0.9756647 -0.6871634
0.7354384 0.9792169 -0.6898564
0.742611 0.9722888 -0.6864902
0.7508553 0.9751828 -0.6853681
0.7764953 0.9743935 -0.6817774
-0.9061379 0.9825493 -0.6851436
-0.8835071 0.9844795 -0.6813285
-0.8730369 0.9857063 -0.6844704
-0.8643527 0.9858227 -0.6822262
-0.8453357 0.985999 -0.6840216
-0.8315676 0.9846532 -0.6889587
0.6693186 0.9808831 -0.6822262
0.6748424 0.9872407 -0.6864901
0.6850653 0.9846541 -0.6858169
0.6949586 0.9836894 -0.6853681
0.7038075 0.9864668 -0.6838719
0.7157344 0.9871086 -0.6813285
0.7225223 0.9857064 -0.6855177
0.7360567 0.9865404 -0.6885099
0.7461149 0.9850491 -0.6822262
0.7535485 0.9881029 -0.6834232
0.7642524 0.982769 -0.6833483
0.6806958 0.9914935 -0.6894075
0.7341605 0.9928527 -0.6849192
-0.4590873 -0.8906436 -0.6790844
-0.543386 -0.8843294 -0.6788599
-0.5335339 -0.8853818 -0.6797577
-0.5122635 -0.8817863 -0.6795332
-0.4497712 -0.8838024 -0.6790844
-0.6149883 -0.873894 -0.6775135
-0.564203 -0.8752968 -0.6790844
-0.5520837 -0.8721844 -0.6790844
-0.5436745 -0.8791545 -0.6786355
-0.5012985 -0.8754721 -0.6795332
-0.6438435 -0.8600376 -0.6799821
-0.6353106 -0.8638085 -0.6795332
-0.6245517 -0.8659562 -0.6784111
-0.6036111 -0.8685433 -0.6719031
-0.5943362 -0.8626685 -0.6723518
-0.5721176 -0.8629315 -0.6795332
-0.5630488 -0.8601253 -0.6772891
-0.5409539 -0.8625808 -0.6799821
-0.504926 -0.8645535 -0.6770647
-0.4883548 -0.8644224 -0.6795332
-0.6868791 -0.8534604 -0.6759425
-0.6746774 -0.8538988 -0.6781867
-0.6551383 -0.8508286 -0.6714542
-0.6435137 -0.8554774 -0.6768402
-0.6345274 -0.8535476 -0.6793088
-0.612886 -0.856574 -0.6750449
-0.6022095 -0.8511803 -0.6772891
-0.5937178 -0.8552134 -0.6754937
-0.5830001 -0.8500411 -0.6759425
-0.5713755 -0.8542505 -0.6795332
-0.562719 -0.854689 -0.6719031
-0.5521662 -0.8538988 -0.6786355
-0.7064183 -0.8435503 -0.676167
-0.695783 -0.8442966 -0.6757181
-0.6864669 -0.8482854 -0.6745961
-0.6748835 -0.8452169 -0.6759425
-0.6647018 -0.8406567 -0.6754937
-0.6536543 -0.843331 -0.6784111
-0.6426893 -0.8443391 -0.6759425
-0.6229029 -0.8444272 -0.6766158
-0.6125699 -0.8455975 -0.6756433
-0.6017973 -0.8468831 -0.6790844
-0.5915743 -0.8479364 -0.6763914
-0.5817223 -0.8451293 -0.6784111
-0.5715405 -0.845853 -0.6784111
-0.5396348 -0.8445153 -0.6741472
-0.7163939 -0.8361403 -0.6777378
-0.7056212 -0.8358916 -0.6735488
-0.694299 -0.8337287 -0.6716787
-0.684873 -0.834722 -0.6774387
-0.6731522 -0.8337287 -0.6754937
-0.6637674 -0.8348103 -0.6759426
-0.6533245 -0.8339918 -0.6725015
-0.6427717 -0.8344737 -0.6714542
-0.6326587 -0.8347518 -0.6750449
-0.6221197 -0.8339478 -0.6765035
-0.6007255 -0.8335533 -0.6795332
-0.5906674 -0.8369744 -0.6779623
-0.5814062 -0.8369147 -0.6766906
-0.551012 -0.838552 -0.6790844
-0.7589349 -0.8213644 -0.6759425
-0.7368125 -0.8274435 -0.6798325
-0.7261223 -0.8247403 -0.6754937
-0.7151778 -0.825594 -0.6762792
-0.7057174 -0.8248271 -0.6723518
-0.6935158 -0.8251345 -0.6779623
-0.6730011 -0.8247541 -0.6768402
-0.6627231 -0.8249148 -0.6766158
-0.6522322 -0.8238188 -0.6736984
-0.6421534 -0.8272392 -0.6743716
-0.6313671 -0.8251929 -0.6796829
-0.5915331 -0.8272387 -0.6779623
-0.7776495 -0.8108408 -0.6772891
-0.768828 -0.8121554 -0.6728007
-0.7576982 -0.8169345 -0.6786356
-0.7467744 -0.8129442 -0.6754937
-0.7353147 -0.8139089 -0.6736984
-0.7248031 -0.8185573 -0.6745961
-0.7158992 -0.8182942 -0.6719031
-0.7049755 -0.8146113 -0.6714542
-0.6934333 -0.8132955 -0.6741472
-0.6826744 -0.8141288 -0.6729129
-0.6719568 -0.8182064 -0.6768402
-0.6618162 -0.8133836 -0.6784111
-0.6513184 -0.8154876 -0.6730999
-0.6408756 -0.8105778 -0.6730251
-0.6214188 -0.8147871 -0.6790844
-0.6112783 -0.8148749 -0.6777379
-0.6013851 -0.8195228 -0.6732495
-0.5909147 -0.8194351 -0.6763914
-0.580197 -0.8142601 -0.6786355
-0.7999093 -0.8020712 -0.6781867
-0.7882298 -0.8030645 -0.6751945
-0.7779381 -0.8039345 -0.6753815
-0.7681686 -0.8045259 -0.6752693
-0.7568325 -0.8047016 -0.6749326
-0.7460737 -0.8071278 -0.6722023
-0.7353766 -0.8042408 -0.6757181
-0.7238138 -0.80492 -0.671903
-0.713797 -0.8025531 -0.6743716
-0.7026258 -0.8044373 -0.6759425
-0.6923203 -0.8026541 -0.6760921
-0.6815203 -0.8061929 -0.6795332
-0.6712973 -0.8029763 -0.6774387
-0.6623933 -0.8095245 -0.6705565
-0.6508924 -0.8069805 -0.6759425
-0.6409992 -0.8027714 -0.6770647
-0.6210066 -0.8096122 -0.6790844
-0.6105363 -0.8046126 -0.6781867
-0.5797848 -0.8091729 -0.6799821
-0.8099675 -0.7924237 -0.6754937
-0.7984666 -0.7936515 -0.6752693
-0.7869657 -0.7943969 -0.6739228
-0.7782266 -0.7960184 -0.6719031
-0.7662723 -0.7910202 -0.6759425
-0.7560493 -0.7953612 -0.6775135
-0.7442598 -0.7922484 -0.6790844
-0.734614 -0.7946157 -0.6757181
-0.7236078 -0.791196 -0.6721275
-0.7140855 -0.7952734 -0.6766158
-0.7019663 -0.795494 -0.6763914
-0.6911249 -0.7936506 -0.6759425
-0.6804485 -0.7926868 -0.6799821
-0.6711324 -0.7972027 -0.6766158
-0.6698133 -0.7911969 -0.6763914
-0.651181 -0.7997911 -0.6754937
-0.8202317 -0.7852322 -0.6757181
-0.8085247 -0.7838725 -0.6739228
-0.796694 -0.7812863 -0.6728007
-0.7882848 -0.7869857 -0.6745961
-0.7764953 -0.7845747 -0.6741472
-0.7654204 -0.7826602 -0.6735488
-0.7549226 -0.7842096 -0.6757929
-0.74426 -0.7838292 -0.6753442
-0.7339544 -0.7819587 -0.6748953
-0.7230101 -0.7840705 -0.6752693
-0.7124778 -0.7855396 -0.6775135
-0.7014717 -0.7833624 -0.6768402
-0.6915509 -0.7854077 -0.6744465
-0.67105 -0.7859785 -0.6779623
-0.8300837 -0.7749722 -0.6795332
-0.8284348 -0.7760237 -0.6799821
-0.8186653 -0.7751037 -0.6725763
-0.806917 -0.7738751 -0.6741472
-0.7864298 -0.7753664 -0.6752693
-0.7757121 -0.7748845 -0.6763914
-0.7652006 -0.7763745 -0.673474
-0.7543455 -0.7762291 -0.6713046
-0.7340369 -0.7750599 -0.6736984
-0.7216703 -0.7781284 -0.6763914
-0.7123542 -0.7719896 -0.6750449
-0.70108 -0.774446 -0.6754937
-0.6910013 -0.7719019 -0.6763914
-0.8506122 -0.7638348 -0.6763914
-0.8287646 -0.7679122 -0.6710054
-0.8168927 -0.7639225 -0.6750449
-0.8070407 -0.7643175 -0.6745961
-0.7952925 -0.7633077 -0.6754937
-0.7848634 -0.7672988 -0.6741472
-0.7737747 -0.7611153 -0.6790844
-0.7642524 -0.7641847 -0.676167
-0.7548951 -0.7672549 -0.6736984
-0.7440125 -0.765237 -0.6763914
-0.7334597 -0.7672988 -0.6721275
-0.7216703 -0.7634258 -0.6781868
-0.7109939 -0.7663345 -0.6763914
-0.7097984 -0.7611153 -0.6741472
-0.6996579 -0.7662464 -0.6750449
-0.8591863 -0.7586598 -0.6768402
-0.848716 -0.759713 -0.6705565
-0.8267035 -0.752785 -0.6723519
-0.8179232 -0.7541004 -0.670781
-0.8073292 -0.756292 -0.6719031
-0.7836679 -0.7513828 -0.6745961
-0.7742693 -0.7555909 -0.6723519
-0.7644585 -0.7558553 -0.6786355
-0.7535211 -0.7575493 -0.673848
-0.7423637 -0.7553725 -0.6759425
-0.7216703 -0.7551528 -0.6781867
-0.7093037 -0.7569067 -0.6799821
-0.6999876 -0.7505926 -0.6781867
-0.8767743 -0.7438105 -0.6735488
-0.8645451 -0.7458127 -0.6736984
-0.8491282 -0.7430499 -0.6710054
-0.8263737 -0.7481371 -0.6710054
-0.7942001 -0.7437968 -0.674596
-0.7837504 -0.74498 -0.676541
-0.7735686 -0.7459017 -0.6716787
-0.76248 -0.7448923 -0.6736984
-0.7528065 -0.7475531 -0.6725015
-0.7427759 -0.7498901 -0.6799821
-0.7320582 -0.7494534 -0.6768402
-0.8790964 -0.7349384 -0.6743716
-0.8038666 -0.7352165 -0.6766906
-0.7940146 -0.735597 -0.6779623
-0.7832557 -0.734018 -0.6730251
-0.7720433 -0.7380529 -0.6732495
-0.7620264 -0.7353334 -0.6766158
-0.7523394 -0.7339312 -0.6777379
-0.7410858 -0.7384467 -0.6759425
-0.739643 -0.7329656 -0.6768402
-0.7205161 -0.7393675 -0.6745961
-0.7095511 -0.7356842 -0.6754937
-0.9110845 -0.7209513 -0.6766158
-0.9014798 -0.7233182 -0.6790844
-0.8953997 -0.7243488 -0.6741472
-0.8242302 -0.7206891 -0.6736984
-0.8032895 -0.7258614 -0.6701077
-0.7935612 -0.7255995 -0.6762418
-0.7830359 -0.7261835 -0.6723518
-0.7730327 -0.7295464 -0.6781867
-0.760089 -0.7215642 -0.6710054
-0.7517623 -0.7261249 -0.676167
-0.7454965 -0.7278354 -0.6766158
-0.7304918 -0.7284054 -0.6701077
-0.7173833 -0.7230569 -0.6732495
-0.687044 -0.7200743 -0.6763914
-0.9220908 -0.7146363 -0.6763914
-0.9157426 -0.7127508 -0.6750449
-0.9098891 -0.7170041 -0.6736984
-0.8885362 -0.7176188 -0.6701077
-0.8343295 -0.7127947 -0.6732495
-0.8246836 -0.7140675 -0.6716787
-0.8032895 -0.7159078 -0.6750449
-0.7927779 -0.7183199 -0.6712298
-0.7824038 -0.7177936 -0.6726512
-0.772167 -0.7163467 -0.6730251
-0.7615318 -0.7170054 -0.6766158
-0.7552248 -0.7152289 -0.6753815
-0.7403026 -0.7161284 -0.6741472
-0.7382415 -0.7144626 -0.6768402
-0.7297498 -0.7182327 -0.6719031
-0.5416134 -0.7147239 -0.6759425
-0.4782143 -0.7116554 -0.6790844
-0.9403108 -0.7006934 -0.6772891
-0.9216785 -0.7095516 -0.6768402
-0.9109609 -0.7071396 -0.6736984
-0.8227462 -0.7022719 -0.6759425
-0.8138423 -0.7000796 -0.6741472
-0.8035781 -0.7072711 -0.6745961
-0.792778 -0.7064371 -0.6714542
-0.7814693 -0.7064524 -0.6762418
-0.7796282 -0.700782 -0.6768402
-0.7635791 -0.7047859 -0.6736984
-0.7590173 -0.7078854 -0.6745961
-0.7481759 -0.7057798 -0.6788599
-0.739643 -0.7084975 -0.6777379
-0.7050167 -0.7015695 -0.6795332
-0.5599983 -0.7088492 -0.6799821
-0.4864586 -0.7053422 -0.6790844
-0.941465 -0.6911345 -0.6745961
-0.937068 -0.6956363 -0.673848
-0.9295107 -0.6991158 -0.6732495
-0.8433571 -0.6904321 -0.6701077
-0.8333539 -0.6932103 -0.675045
-0.822334 -0.6977118 -0.6786355
-0.8122759 -0.6966585 -0.6735488
-0.8028773 -0.6998165 -0.6799821
-0.7903458 -0.6986773 -0.6701077
-0.7855641 -0.6941605 -0.6748204
-0.7644585 -0.6978441 -0.6770647
-0.7582753 -0.6986773 -0.6768402
-0.7476401 -0.698765 -0.6790844
-0.5187765 -0.6924508 -0.6790844
-0.9720516 -0.6810503 -0.6799821
-0.9621584 -0.6850834 -0.6728007
-0.9500391 -0.6893806 -0.6768402
-0.9411352 -0.6857859 -0.6701077
-0.9304176 -0.6844696 -0.6710054
-0.8534977 -0.684645 -0.6736984
-0.8439342 -0.6829499 -0.6748953
-0.834041 -0.6857859 -0.6710054
-0.812853 -0.6871443 -0.6728007
-0.8022177 -0.6892052 -0.6736984
-0.7910054 -0.6834181 -0.6763914
-0.7833931 -0.684236 -0.6741472
-0.7782266 -0.682101 -0.6741472
-0.7686219 -0.6827157 -0.6759425
-0.7473515 -0.681049 -0.6743716
-0.7268643 -0.6823649 -0.6795332
-0.5373263 -0.6836812 -0.6768402
-0.5160559 -0.6801725 -0.6790844
-0.5059153 -0.6863104 -0.6777379
-0.496929 -0.6809617 -0.6781867
-0.9713096 -0.6707004 -0.6772891
-0.965621 -0.6744288 -0.6732495
-0.8530855 -0.6799962 -0.6741472
-0.8422853 -0.6764892 -0.6719031
-0.8314028 -0.6756995 -0.6768402
-0.8212622 -0.6747061 -0.6756433
-0.8101323 -0.6764892 -0.6701077
-0.8055567 -0.6755688 -0.676167
-0.7969826 -0.6745161 -0.6752693
-0.7840801 -0.674691 -0.6748205
-0.7785977 -0.6730682 -0.6754937
-0.7680448 -0.6752615 -0.6768402
-0.7560493 -0.6706145 -0.6763914
-0.7478462 -0.674385 -0.6748205
-0.7365651 -0.6756123 -0.6732496
-0.976696 -0.6657324 -0.6722023
-0.9691661 -0.664474 -0.6705565
-0.9591079 -0.6699997 -0.6719031
-0.8841667 -0.6617571 -0.6714542
-0.8309081 -0.6686834 -0.6759425
-0.8208088 -0.6650887 -0.677289
-0.8114514 -0.6691228 -0.6736984
-0.8032895 -0.6649718 -0.6757929
-0.7985078 -0.6654395 -0.6728007
-0.7898512 -0.6678959 -0.6741472
-0.7782816 -0.6648844 -0.6756433
-0.7682098 -0.6647375 -0.6739228
-0.7566264 -0.6643218 -0.6725762
-0.7457851 -0.6617133 -0.6772891
-0.9790593 -0.6588623 -0.6714542
-0.9680943 -0.6503566 -0.6701077
-0.8406365 -0.6553544 -0.6710054
-0.8254669 -0.6548725 -0.6736984
-0.8084422 -0.6558802 -0.676167
-0.7987551 -0.6573276 -0.6770647
-0.7772373 -0.6559678 -0.6743716
-0.7662174 -0.6550037 -0.6719031
-0.7546477 -0.6517589 -0.6736984
-0.8613298 -0.6455324 -0.6714542
-0.8415021 -0.6425503 -0.6730251
-0.8397296 -0.6436908 -0.6723519
-0.8290944 -0.6450352 -0.6725015
-0.8180469 -0.6411476 -0.6714542
-0.8095552 -0.6433401 -0.6736984
-0.7976421 -0.6425503 -0.6775135
-0.7868283 -0.645854 -0.6756434
-0.775506 -0.6469786 -0.673474
-0.7661349 -0.6460294 -0.6741473
-0.5340286 -0.6414107 -0.6786355
-0.860258 -0.6313248 -0.6714542
-0.85189 -0.6372017 -0.6712298
-0.8409662 -0.6347458 -0.6723519
-0.8304959 -0.6392183 -0.6710054
-0.8281463 -0.6333865 -0.6750449
-0.8199431 -0.6396577 -0.6728007
-0.809143 -0.6383405 -0.6759425
-0.7971475 -0.6349217 -0.673474
-0.7863473 -0.6351409 -0.6741472
-0.7752312 -0.634103 -0.6733992
-0.7650356 -0.6361485 -0.6781867
-0.5440043 -0.6357096 -0.6790844
-0.8710582 -0.6299225 -0.6710054
-0.848716 -0.6235207 -0.6736984
-0.82816 -0.625509 -0.6744465
-0.816769 -0.6247485 -0.6739228
-0.8081949 -0.6254057 -0.6732495
-0.7959795 -0.6245149 -0.6754937
-0.7867183 -0.6264156 -0.6701077
-0.7757533 -0.6218553 -0.6754937
-0.7643761 -0.6229072 -0.6748953
-0.5966858 -0.6239592 -0.6786355
-0.5852261 -0.6224245 -0.6779623
-0.5556288 -0.6273784 -0.6795332
-0.8481388 -0.6165045 -0.6759425
-0.8269508 -0.6165926 -0.6710054
-0.8170988 -0.6157596 -0.6732495
-0.8073292 -0.6151023 -0.6757181
-0.7958421 -0.6142541 -0.6744465
-0.7848221 -0.6151461 -0.6721275
-0.7731152 -0.6164164 -0.6772891
-0.7630845 -0.6148975 -0.6747457
-0.6154829 -0.6154083 -0.6721275
-0.6060019 -0.6135242 -0.6799821
-0.5951194 -0.6170754 -0.6770647
-0.8389876 -0.6088763 -0.6741472
-0.8174286 -0.6059376 -0.670781
-0.8059277 -0.6053386 -0.6750449
-0.7938085 -0.6040521 -0.6705565
-0.7836679 -0.605367 -0.6777379
-0.7728953 -0.6032921 -0.6716039
-0.7626036 -0.6038758 -0.6748205
-0.635132 -0.6079397 -0.6760921
-0.6250051 -0.6054557 -0.6735862
-0.6136279 -0.605279 -0.6777379
-0.6051775 -0.6032619 -0.6795332
-0.5953255 -0.6058056 -0.6788599
-0.5825879 -0.6023867 -0.6799821
-0.8168103 -0.5981773 -0.6723519
-0.8060101 -0.5967733 -0.6714542
-0.7844099 -0.5956341 -0.6728007
-0.7725381 -0.5942737 -0.6741472
-0.7607486 -0.592827 -0.6710054
-0.6668453 -0.5905468 -0.6732495
-0.655633 -0.5966422 -0.6732495
-0.6441321 -0.5958972 -0.6714542
-0.634445 -0.5944498 -0.6752693
-0.6233975 -0.5972118 -0.6701077
-0.5930583 -0.5953121 -0.6769899
-0.5717878 -0.5964655 -0.6797577
-0.553238 -0.5962462 -0.6799821
-0.8349479 -0.5819526 -0.6714542
-0.8159858 -0.5879151 -0.6750449
-0.8038666 -0.5820846 -0.6732496
-0.793094 -0.5870391 -0.6742969
-0.7835031 -0.5855473 -0.6777379
-0.7708892 -0.5877397 -0.6728007
-0.7617379 -0.5800233 -0.6799821
-0.7515973 -0.5851965 -0.6714542
-0.674595 -0.581865 -0.6714542
-0.6649216 -0.5837355 -0.6728007
-0.6546849 -0.5842766 -0.6757181
-0.6442764 -0.5860744 -0.6749327
-0.6333732 -0.5851387 -0.6768402
-0.6244693 -0.5859862 -0.6736984
-0.6135318 -0.5863082 -0.6736984
-0.6030614 -0.5835022 -0.6775883
-0.5915331 -0.5843204 -0.6750449
-0.5822994 -0.5851536 -0.6793088
-0.5723924 -0.5861042 -0.6781868
-0.5421081 -0.5864251 -0.6790844
-0.5189414 -0.5809871 -0.6795332
-0.8342059 -0.5724806 -0.6719031
-0.8239004 -0.5786193 -0.6745961
-0.8032483 -0.5746083 -0.673474
-0.7915825 -0.5755508 -0.6728007
-0.7828435 -0.5750246 -0.6728007
-0.7722083 -0.5754631 -0.6772891
-0.7655715 -0.5739719 -0.6732496
-0.7487118 -0.5759901 -0.6772891
-0.7377468 -0.5713414 -0.6750449
-0.7187023 -0.5736223 -0.6728007
-0.6868379 -0.5773481 -0.6730251
-0.6750485 -0.5766475 -0.6793088
-0.6633826 -0.5736223 -0.6745961
-0.6536269 -0.5751699 -0.675045
-0.6435138 -0.5761206 -0.6748205
-0.6339915 -0.5752 -0.6766158
-0.6224357 -0.576721 -0.6728007
-0.61235 -0.5760765 -0.6779623
-0.6011377 -0.5753754 -0.6754937
-0.5907499 -0.5749365 -0.6777378
-0.5815573 -0.5755074 -0.6795332
-0.5618533 -0.5744107 -0.6779623
-0.8440167 -0.5616948 -0.6728007
-0.8237355 -0.5630102 -0.6703321
-0.8144194 -0.5673959 -0.6754937
-0.8021078 -0.5644128 -0.6756433
-0.7908405 -0.565991 -0.6705565
-0.782019 -0.5646765 -0.6736984
-0.7637166 -0.56722 -0.670407
-0.7476401 -0.5614308 -0.6714542
-0.7393957 -0.5638872 -0.6781867
-0.7268643 -0.5683597 -0.6741472
-0.7158992 -0.5652035 -0.6736984
-0.7065007 -0.565115 -0.6753442
-0.6853951 -0.5676876 -0.6756434
-0.6749248 -0.560204 -0.6728007
-0.6637536 -0.5643257 -0.6716787
-0.6531596 -0.5643257 -0.6741472
-0.6416451 -0.5649977 -0.6751945
-0.6321571 -0.5646109 -0.6749327
-0.6228616 -0.5655096 -0.6766158
-0.6113882 -0.5671033 -0.6739976
-0.6012201 -0.5638429 -0.6757181
-0.5999835 -0.5612554 -0.6790844
-0.5796199 -0.5641503 -0.6786355
-0.8338761 -0.5555122 -0.6754937
-0.8233233 -0.5581865 -0.6739228
-0.8005689 -0.5541538 -0.6741472
-0.7912528 -0.5539483 -0.6742969
-0.7763854 -0.5566958 -0.678486
-0.7656952 -0.557602 -0.6747457
-0.7587699 -0.5544598 -0.6745961
-0.7492065 -0.5544169 -0.6732495
-0.7362629 -0.5521368 -0.6728007
-0.7267269 -0.5572518 -0.6751944
-0.7151573 -0.5556437 -0.6732495
-0.7043159 -0.5556875 -0.6723519
-0.6938456 -0.557178 -0.6725763
-0.683334 -0.5564768 -0.6725763
-0.673482 -0.5541086 -0.6716787
-0.66363 -0.5578356 -0.6722023
-0.6535718 -0.5564339 -0.6736984
-0.630364 -0.5547221 -0.6741472
-0.6211303 -0.5559502 -0.676167
-0.6017148 -0.5566093 -0.6732495
-0.59413 -0.5550302 -0.6786356
-0.5807741 -0.5511712 -0.6754937
-0.5704687 -0.5509081 -0.6741472
-0.568655 -0.5559945 -0.6799821
-0.8450884 -0.5471372 -0.6719031
-0.8338761 -0.5421385 -0.6754937
-0.8222103 -0.5433881 -0.6738106
-0.7846572 -0.5432786 -0.6770647
-0.778474 -0.5479256 -0.6795332
-0.7689105 -0.5470057 -0.6743716
-0.7579455 -0.548044 -0.6748953
-0.7462797 -0.5449009 -0.6766158
-0.7250505 -0.5444186 -0.6736984
-0.704893 -0.5483207 -0.6732495
-0.6624346 -0.546984 -0.6714542
-0.6414527 -0.5447981 -0.6748953
-0.6215013 -0.5474012 -0.6759425
-0.6192204 -0.5449743 -0.6777379
-0.6034737 -0.5443313 -0.6751945
-0.594872 -0.5464795 -0.673474
-0.5883589 -0.5436285 -0.6723519
-0.5700565 -0.5457332 -0.6754937
-0.5695618 -0.5408239 -0.6795332
-0.8417907 -0.5326664 -0.6705565
-0.8205202 -0.5357367 -0.6786355
-0.812111 -0.5362629 -0.6728007
-0.8095552 -0.531615 -0.6732495
-0.7991261 -0.5350794 -0.6725763
-0.7883672 -0.5350342 -0.6748204
-0.7785152 -0.5337635 -0.6772891
-0.7695701 -0.5392436 -0.6719031
-0.757286 -0.5347282 -0.6743716
-0.7472004 -0.5368472 -0.6731
-0.7372521 -0.5355608 -0.6781867
-0.6415351 -0.5364391 -0.6719031
-0.639474 -0.5360875 -0.6701077
-0.6156203 -0.5340406 -0.6769899
-0.6065378 -0.5335004 -0.6754937
-0.5987056 -0.5314834 -0.6750449
-0.5888124 -0.5349917 -0.6759425
-0.5669649 -0.5342906 -0.6781867
-0.5572777 -0.5340702 -0.6775882
-0.8517663 -0.5215307 -0.6705565
-0.7954849 -0.5254768 -0.6766906
-0.7882848 -0.5251843 -0.677289
-0.7780617 -0.5262221 -0.6716787
-0.7687456 -0.5290717 -0.6745961
-0.7562417 -0.5250094 -0.6705565
-0.638732 -0.52644 -0.6705565
-0.6299105 -0.52118 -0.6723519
-0.6197287 -0.5242041 -0.6728007
-0.6080356 -0.5246575 -0.6763914
-0.5981698 -0.5241174 -0.6754937
-0.5884964 -0.5252134 -0.6731
-0.5764459 -0.5232404 -0.6781867
-0.5581846 -0.5254771 -0.6763914
-0.8080713 -0.5124103 -0.6745961
-0.7972711 -0.5111808 -0.6714542
-0.7571211 -0.5181097 -0.6745961
-0.746321 -0.5159169 -0.671903
-0.6379076 -0.5169706 -0.6754937
-0.6291686 -0.5110055 -0.6710054
-0.618286 -0.5146019 -0.6750449
-0.607321 -0.5147483 -0.6744465
-0.5975927 -0.5129646 -0.6777379
-0.5864627 -0.5196874 -0.6745961
-0.5778474 -0.5128041 -0.6768402
-0.5656869 -0.5173196 -0.6741472
-0.5569479 -0.5101302 -0.6799821
-0.5458181 -0.5141634 -0.6793088
-0.8312379 -0.5059208 -0.6705565
-0.8246424 -0.5052623 -0.6730251
-0.8093903 -0.5000434 -0.6714542
-0.7968589 -0.5065329 -0.6754937
-0.7886145 -0.508813 -0.6705565
-0.764541 -0.5060962 -0.6719031
-0.6264479 -0.5042529 -0.6710054
-0.6167746 -0.504751 -0.6756433
-0.6057958 -0.5046917 -0.6770647
-0.5966033 -0.5042976 -0.6763914
