# .PCD v.7 - Point Cloud Data file format
VERSION .7
FIELDS x y z
SIZE 4 4 4
TYPE F F F
COUNT 1 1 1
WIDTH 714
HEIGHT 1
VIEWPOINT 0 0 0 1 0 0 0
POINTS 714
DATA ascii
-0.3998104 0.01999388 -0.5821365
-0.3812606 0.03235994 -0.5848294
-0.2969207 -0.1789005 -0.5758528
-0.2452286 -0.1778472 -0.5749551
-0.2651799 -0.1503115 -0.5704668
-0.5300713 -0.2699283 -0.5646319
-0.5069871 -0.2393223 -0.5655296
-0.2545447 -0.1726749 -0.5682226
-0.2450637 -0.1724995 -0.5610413
-0.2571005 -0.1694292 -0.5637343
-0.244569 -0.167763 -0.5668761
-0.2643967 -0.1560564 -0.5635099
-0.2532668 -0.1553978 -0.5659785
-0.2554516 -0.1494336 -0.5695691
-0.4033554 0.0166623 -0.5686715
-0.5276805 -0.2703677 -0.5520647
-0.247908 -0.1752172 -0.5547577
-0.2567707 -0.1642543 -0.5592459
-0.2472897 -0.1676753 -0.5570018
-0.2561936 -0.1566256 -0.5581238
-0.2624593 -0.1468904 -0.5561041
-0.5275156 0.03595548 -0.551167
-0.3113484 -0.2640536 -0.5435368
-0.2859557 -0.1955628 -0.548474
-0.2544623 -0.1669729 -0.5462298
-0.262954 -0.1515383 -0.5493717
-0.5162208 -0.2518646 -0.5318671
-0.5043489 -0.2331845 -0.5345601
-0.2541325 -0.1618882 -0.5390485
-0.5194361 -0.2587909 -0.5233393
-0.6083928 -0.1094441 -0.5228905
-0.5576899 -0.2511622 -0.5143626
-0.5477967 -0.2573886 -0.5143626
-0.5878643 -0.2097704 -0.516158
-0.59413 -0.1921435 -0.5139138
-0.6019621 -0.1606596 -0.5192998
-0.5927285 -0.04191795 -0.5143626
-0.3932149 0.0235903 -0.518851
-0.52463 0.03858637 -0.5139138
-0.5135002 0.047356 -0.5143626
-0.4810998 -0.3010614 -0.5040395
-0.4643225 -0.304218 -0.5029174
-0.4473804 -0.3043947 -0.5031418
-0.428913 -0.3032538 -0.5008976
-0.4185663 -0.3052265 -0.5022442
-0.4054578 -0.3030341 -0.5065081
-0.3950287 -0.300886 -0.5085278
-0.3849705 -0.3020269 -0.5058348
-0.4990725 -0.2922041 -0.5022442
-0.488932 -0.2970273 -0.5008976
-0.478173 -0.2962376 -0.5033662
-0.4468857 -0.2996591 -0.5067325
-0.384311 -0.2920287 -0.5004488
-0.3743353 -0.297379 -0.5062836
-0.363865 -0.2932573 -0.5062836
-0.5216621 -0.2833467 -0.5031418
-0.5139399 -0.2834058 -0.5016457
-0.5048848 -0.284136 -0.5021319
-0.4986603 -0.2874676 -0.502693
-0.3556206 -0.2830828 -0.5031418
-0.5312255 -0.2728232 -0.5035906
-0.3425945 -0.2744008 -0.5004488
-0.3334158 -0.2741971 -0.5032915
-0.3248691 -0.2708062 -0.5076302
-0.540789 -0.2639658 -0.5071813
-0.5382333 -0.2658509 -0.5035907
-0.3245393 -0.2656312 -0.5017954
-0.3144812 -0.2643166 -0.5013465
-0.5503525 -0.253794 -0.5049372
-0.5603281 -0.2490575 -0.5022442
-0.5586792 -0.2448915 -0.5047127
-0.5671709 -0.2398494 -0.5071813
-0.5691496 -0.2287996 -0.5067325
-0.2695494 -0.226256 -0.5017954
-0.5856383 -0.2122259 -0.505386
-0.5757451 -0.2182761 -0.5098743
-0.5848963 -0.20214 -0.5022442
-0.5872048 -0.1994205 -0.5076302
-0.5952017 -0.1857846 -0.5029174
-0.5960262 -0.1797765 -0.5031418
-0.6025392 -0.1651321 -0.5031418
-0.6044354 -0.1543455 -0.508079
-0.6038996 -0.1466721 -0.5044883
-0.5990766 -0.1204938 -0.5017954
-0.6082278 -0.1040078 -0.505386
-0.6078157 -0.09909681 -0.5062836
-0.598582 -0.09484442 -0.5008976
-0.5970155 -0.05638959 -0.5058348
-0.5834123 -0.03415815 -0.5026931
-0.5824505 -0.02741942 -0.5016457
-0.5738489 -0.02341579 -0.5008976
-0.5806917 -0.01929406 -0.5089766
-0.5702214 -0.01473385 -0.5044883
-0.5694793 -0.004734723 -0.5013465
-0.5504349 0.01736474 -0.5004488
-0.5392225 0.02718585 -0.5008976
-0.5357599 0.03051919 -0.5062836
-0.379117 0.03481631 -0.5040395
-0.5140772 0.0427081 -0.502693
-0.5066573 0.04875826 -0.502693
-0.482996 0.0665172 -0.5008976
-0.4734325 0.07401568 -0.5058348
-0.4628797 0.07550651 -0.5031418
-0.4624676 0.0805052 -0.502693
-0.4579331 -0.3038677 -0.4964093
-0.4496888 -0.3000099 -0.4950628
-0.4381879 -0.3045688 -0.4959605
-0.427484 -0.3064109 -0.4985039
-0.4083433 -0.3043938 -0.4966338
-0.3979142 -0.3029903 -0.4964094
-0.3875263 -0.3004466 -0.4941652
-0.5016283 -0.2922918 -0.497307
-0.4911579 -0.2932573 -0.4937164
-0.4885197 -0.2921164 -0.5
-0.4704646 -0.2973347 -0.4943896
-0.4652157 -0.2972609 -0.4968582
-0.4586751 -0.2964131 -0.4932675
-0.4479987 -0.2945714 -0.4934919
-0.4389299 -0.2961947 -0.4948384
-0.4286656 -0.2978175 -0.4905745
-0.4153098 -0.2940448 -0.4950628
-0.4050043 -0.295362 -0.4977558
-0.3954958 -0.293754 -0.4952124
-0.3770559 -0.2967204 -0.494614
-0.3665856 -0.2929942 -0.491921
-0.4945381 -0.2839611 -0.491921
-0.4594171 -0.2888725 -0.4905745
-0.446391 -0.2892215 -0.4901257
-0.41498 -0.2891356 -0.4932675
-0.3839812 -0.2868555 -0.4928187
-0.3762727 -0.2865481 -0.4928187
-0.3647306 -0.2855387 -0.494614
-0.3544115 -0.2870595 -0.4968582
-0.3456449 -0.2828197 -0.4914722
-0.5289996 -0.2754984 -0.4932675
-0.5186941 -0.2749279 -0.4910233
-0.5005565 -0.2766818 -0.4901257
-0.3628756 -0.2780858 -0.4950628
-0.3444358 -0.276536 -0.4920706
-0.3348448 -0.2701923 -0.4995512
-0.5075642 -0.2661583 -0.4955117
-0.343419 -0.2683945 -0.4916966
-0.3327287 -0.2639658 -0.494614
-0.3230554 -0.2616419 -0.4964094
-0.5509295 -0.2584419 -0.4941652
-0.333773 -0.2546692 -0.491921
-0.3226844 -0.2567313 -0.4961849
-0.3127293 -0.2556783 -0.4939408
-0.3026918 -0.2544512 -0.4923698
-0.3108537 -0.2475658 -0.4937163
-0.3020735 -0.2470409 -0.494614
-0.2922764 -0.2434157 -0.497307
-0.2830702 -0.2402879 -0.494614
-0.2901604 -0.2378324 -0.4901257
-0.2808992 -0.2343248 -0.4971574
-0.5790429 -0.2236247 -0.4964093
-0.2890061 -0.2231003 -0.4923698
-0.274551 -0.2252333 -0.4944644
-0.5782184 -0.2136282 -0.4977558
-0.5935529 -0.1817076 -0.4995512
-0.5956964 -0.1745156 -0.4995512
-0.6018797 -0.1548725 -0.4928187
-0.6007255 -0.1400519 -0.4932675
-0.593759 -0.1466721 -0.490799
-0.6022645 -0.1359585 -0.4958109
-0.5952842 -0.1345261 -0.4920706
-0.6023744 -0.1235641 -0.4914722
-0.5995713 -0.1253171 -0.4955117
-0.6019621 -0.1186522 -0.4923698
-0.5987468 -0.1155846 -0.4995512
-0.6009316 -0.1062884 -0.4986535
-0.5976751 -0.1005008 -0.4910233
-0.6003957 -0.09865746 -0.4941652
-0.5968506 -0.09085336 -0.497307
-0.5983071 -0.08433403 -0.4962597
-0.587617 -0.08589809 -0.4930431
-0.597098 -0.07469576 -0.4945018
-0.5963148 -0.0647203 -0.4934919
-0.5873696 -0.06401829 -0.4950628
-0.5937178 -0.05130233 -0.4968582
-0.5869574 -0.05893279 -0.494614
-0.5933056 -0.04639046 -0.4982047
-0.5828353 -0.04332285 -0.491921
-0.5839483 -0.0387622 -0.4939408
-0.5747558 -0.03306063 -0.4905745
-0.5842368 -0.02411561 -0.4991023
-0.5729008 -0.02867625 -0.4943896
-0.5735191 -0.01824083 -0.4955117
-0.5728596 -0.008156633 -0.4910233
-0.5648625 -0.006664919 -0.4977559
-0.5591739 -0.003200915 -0.494614
-0.561606 0.004823296 -0.4943896
-0.5584319 0.006664918 -0.4921454
-0.5508471 0.01254057 -0.4977558
-0.5426302 0.01578592 -0.4928187
-0.5372851 0.01359205 -0.4943896
-0.5265262 0.01964485 -0.4905745
-0.5468073 0.02192495 -0.497307
-0.5382332 0.02174824 -0.4921454
-0.5270759 0.02525624 -0.4949133
-0.5157261 0.02323952 -0.4923698
-0.3903294 0.02639746 -0.4923698
-0.5269384 0.03319305 -0.4979802
-0.5183643 0.0326239 -0.4910233
-0.5075642 0.03893716 -0.4923698
-0.5175399 0.0426204 -0.4932675
-0.504926 0.04452078 -0.496559
-0.4935488 0.04569065 -0.4932675
-0.4861289 0.04928532 -0.491921
-0.5031947 0.05235557 -0.4991023
-0.4944556 0.05439341 -0.4920332
-0.4843701 0.05758782 -0.493866
-0.4748341 0.05954491 -0.4901257
-0.4645286 0.05559858 -0.494614
-0.4816769 0.06410512 -0.4964093
-0.4741745 0.06682414 -0.4959605
-0.4622614 0.06436951 -0.4948384
-0.4703821 0.07550651 -0.4952872
-0.4633744 0.07085773 -0.4914722
-0.456243 0.07427832 -0.4957361
-0.4592522 0.08296157 -0.4923698
-0.4162167 -0.3036046 -0.4860862
-0.48077 -0.292643 -0.4815978
-0.4572736 -0.293694 -0.4887792
-0.4361268 -0.2925549 -0.4829443
-0.4267694 -0.2942506 -0.483094
-0.4170823 -0.2976851 -0.4824955
-0.4063234 -0.2933003 -0.4872082
-0.3860835 -0.2957557 -0.4847397
-0.4881487 -0.2842242 -0.4845152
-0.4763181 -0.2851884 -0.4819344
-0.4696401 -0.2843123 -0.483842
-0.4575484 -0.2852764 -0.4827947
-0.4055814 -0.2831709 -0.4858617
-0.3950012 -0.2851591 -0.4850389
-0.3851354 -0.2831718 -0.4831688
-0.3735109 -0.2817682 -0.481149
-0.3648131 -0.2852313 -0.4874327
-0.5212911 -0.275323 -0.4890036
-0.5109444 -0.2742697 -0.4840664
-0.5055856 -0.2725607 -0.4847397
-0.4768952 -0.2759364 -0.4829443
-0.4692279 -0.2793127 -0.483842
-0.4141556 -0.2764621 -0.4822711
-0.4064059 -0.2759811 -0.4802513
-0.3847644 -0.2782165 -0.4827199
-0.3758193 -0.2786103 -0.4833932
-0.3640711 -0.2752787 -0.4858618
-0.3536695 -0.2750738 -0.4866847
-0.5205491 -0.2650182 -0.4849641
-0.5129231 -0.2660121 -0.4836924
-0.4972588 -0.2647117 -0.4829444
-0.3622985 -0.2678236 -0.4820467
-0.3530374 -0.266685 -0.4835428
-0.3430892 -0.2632647 -0.4872082
-0.3223958 -0.2675605 -0.4883303
-0.5174575 -0.2573887 -0.4815978
-0.351416 -0.2566866 -0.4856374
-0.3413579 -0.254143 -0.4829443
-0.3322066 -0.2554011 -0.4860862
-0.3212416 -0.2527407 -0.4842908
-0.303846 -0.2518646 -0.4878815
-0.5083886 -0.2415147 -0.4847397
-0.3306402 -0.2458995 -0.4851885
-0.3204996 -0.2430073 -0.4851885
-0.3123927 -0.2447893 -0.4862358
-0.3018261 -0.2417787 -0.4858618
-0.56849 -0.2335795 -0.4815978
-0.302362 -0.2312551 -0.481149
-0.2962612 -0.2337549 -0.4847397
-0.286368 -0.2338417 -0.4833932
-0.2728472 -0.2332722 -0.4874327
-0.2954986 -0.2237354 -0.4841786
-0.2843618 -0.2243271 -0.4874327
-0.2797725 -0.2286242 -0.4896768
-0.2885527 -0.2153817 -0.4822711
-0.278948 -0.2188031 -0.4883303
-0.5928934 -0.1529423 -0.4878815
-0.6014262 -0.1472417 -0.4863106
-0.5908735 -0.1442604 -0.4822711
-0.5807329 -0.1448738 -0.4820467
-0.5902551 -0.1370693 -0.4896768
-0.5863803 -0.1350519 -0.4836176
-0.6027866 -0.1285636 -0.4883303
-0.5922338 -0.1264147 -0.4845152
-0.5892658 -0.1246603 -0.4874327
-0.6016324 -0.1134799 -0.4869838
-0.5938277 -0.1142393 -0.4850389
-0.5885239 -0.1147944 -0.4874327
-0.5931957 -0.1059664 -0.4851885
-0.5778062 -0.1079541 -0.4833932
-0.586875 -0.09243102 -0.4807002
-0.5966033 -0.08559071 -0.4874327
-0.5877407 -0.08559202 -0.4807002
-0.5790429 -0.08795851 -0.4824955
-0.5864353 -0.07471725 -0.4829443
-0.5964384 -0.06450063 -0.4858618
-0.5857208 -0.06647438 -0.485787
-0.5942949 -0.05586254 -0.4847397
-0.5852673 -0.05331935 -0.4836176
-0.5736015 -0.05349474 -0.481149
-0.5852261 -0.04685906 -0.4841412
-0.5731893 -0.04849518 -0.4802513
-0.5657694 -0.047356 -0.4807002
-0.5752504 -0.0378848 -0.4833932
-0.5614823 -0.03008071 -0.4807002
-0.5545571 -0.03218542 -0.4807002
-0.5712931 -0.02385427 -0.481149
-0.5624717 -0.02372185 -0.4807002
-0.5539387 -0.02477377 -0.4815978
-0.5720351 -0.01609227 -0.4881059
-0.5622519 -0.01505424 -0.4853381
-0.5549693 -0.01376919 -0.4851885
-0.5496929 -0.01227748 -0.4860862
-0.5521662 -0.002191531 -0.4829443
-0.5455295 -0.004822858 -0.4836176
-0.5388103 -0.003244763 -0.4802513
-0.5516303 0.005305187 -0.4818223
-0.5447669 0.005151719 -0.4845152
-0.534482 0.004691752 -0.4874327
-0.5274331 0.009821985 -0.4820467
-0.5477142 0.01227748 -0.4896768
-0.5303186 0.01306763 -0.4820467
-0.5200132 0.01297993 -0.4829443
-0.518117 0.01569676 -0.4858618
-0.5364195 0.02622207 -0.4829443
-0.529082 0.02779973 -0.489228
-0.5170864 0.02806325 -0.4867594
-0.5055856 0.02547577 -0.4845152
-0.5159185 0.03648108 -0.4869839
-0.5058054 0.03481543 -0.4889288
-0.4945381 0.03604318 -0.4807002
-0.4768952 0.03472861 -0.481149
-0.4958847 0.04440356 -0.4835428
-0.4834082 0.0449005 -0.4829443
-0.4758234 0.04713632 -0.4876571
-0.4644737 0.04525129 -0.4812986
-0.4825838 0.05472337 -0.4842908
-0.4752463 0.05481106 -0.4842908
-0.4615194 0.05595024 -0.4833932
-0.4542232 0.05603793 -0.4802513
-0.492477 0.06051045 -0.4896768
-0.471289 0.06585992 -0.4849641
-0.4623851 0.06458788 -0.4863106
-0.4523545 0.06439832 -0.4883304
-0.4601591 0.07322641 -0.4860862
-0.4502659 -0.3044824 -0.4798025
-0.417948 -0.2914139 -0.4771095
-0.4076425 -0.2909772 -0.4739677
-0.3743353 -0.2912403 -0.4748653
-0.4802754 -0.2850121 -0.4771095
-0.4672493 -0.2858461 -0.478456
-0.4480674 -0.2856271 -0.4738181
-0.4355909 -0.2850998 -0.478456
-0.4268107 -0.2872922 -0.4744165
-0.4161754 -0.2848814 -0.4737433
-0.4072303 -0.2859776 -0.4780072
-0.39676 -0.2846631 -0.4780072
-0.3870316 -0.2895723 -0.4748653
-0.3740055 -0.2863284 -0.4739677
-0.4941671 -0.2758268 -0.4755386
-0.4875304 -0.2739632 -0.47307
-0.4673317 -0.2752492 -0.4739677
-0.4578232 -0.2767105 -0.4759126
-0.4355703 -0.2745335 -0.4743043
-0.4269343 -0.2718576 -0.4739677
-0.404702 -0.2750156 -0.47307
-0.3949462 -0.2772957 -0.4759874
-0.3844759 -0.272867 -0.4728456
-0.375572 -0.2730863 -0.470377
-0.3652665 -0.272297 -0.4766607
-0.3555382 -0.277208 -0.4793537
-0.518117 -0.2645806 -0.4775583
-0.5037305 -0.2632209 -0.4714991
-0.4880869 -0.2657638 -0.4753142
-0.4772524 -0.2670639 -0.4729204
-0.4655179 -0.2637905 -0.4739677
-0.4446597 -0.2638782 -0.4717235
-0.4370749 -0.2675605 -0.4726212
-0.3928027 -0.265105 -0.47307
-0.3837339 -0.2628258 -0.4710503
-0.3749948 -0.2655878 -0.4739677
-0.36381 -0.2639951 -0.4747158
-0.3543839 -0.2619489 -0.475763
-0.5077841 -0.2542026 -0.475015
-0.4966816 -0.2571256 -0.4793537
-0.4862113 -0.2567739 -0.4708259
-0.3744178 -0.2579157 -0.4726212
-0.3428831 -0.2578705 -0.4737433
-0.3510038 -0.2487944 -0.4721723
-0.3420998 -0.2479617 -0.4762118
-0.3319181 -0.2449805 -0.478456
-0.3226706 -0.2472451 -0.4768103
-0.3327837 -0.2389715 -0.4748653
-0.3256729 -0.2359907 -0.4764363
-0.3118705 -0.2360489 -0.475763
-0.3043132 -0.2349971 -0.4772591
-0.2924688 -0.2301142 -0.4753142
-0.3320417 -0.2287996 -0.4717235
-0.3119255 -0.2254233 -0.4721723
-0.3042857 -0.2231579 -0.4768103
-0.3087102 -0.2174868 -0.4766607
-0.2948184 -0.2135843 -0.478456
-0.2814213 -0.2145937 -0.475763
-0.2787831 -0.2133651 -0.4721723
-0.5868338 -0.2046393 -0.4726212
-0.2954917 -0.2062909 -0.47307
-0.2843274 -0.2060427 -0.4736311
-0.2902428 -0.1996836 -0.4712747
-0.5841543 -0.1528555 -0.4717235
-0.5838246 -0.1477683 -0.4708259
-0.5731893 -0.1424179 -0.4739677
-0.5814749 -0.1349207 -0.4714991
-0.573787 -0.1350742 -0.4738555
-0.582052 -0.1253614 -0.4744165
-0.5795375 -0.1271588 -0.470377
-0.5812688 -0.1152334 -0.4744165
-0.5745909 -0.1123828 -0.4748653
-0.5878643 -0.1045783 -0.4771095
-0.5738488 -0.102474 -0.4723968
-0.5902551 -0.09856976 -0.4798025
-0.5873696 -0.0970798 -0.4739677
-0.5697267 -0.0971675 -0.4712747
-0.5770093 -0.08468511 -0.4769599
-0.5661816 -0.08910032 -0.4739677
-0.5886887 -0.07857676 -0.4798025
-0.5767962 -0.07548459 -0.4762118
-0.5670336 -0.07454185 -0.4732196
-0.5760748 -0.06548743 -0.4739677
-0.566374 -0.06626976 -0.4751646
-0.5841543 -0.05779186 -0.4798025
-0.5758001 -0.05621333 -0.4751646
-0.565577 -0.05633026 -0.4760622
-0.5748382 -0.04457954 -0.4768103
-0.5637358 -0.04551438 -0.4762119
-0.5537739 -0.04169871 -0.4723968
-0.5722824 -0.03604318 -0.4777828
-0.5635641 -0.03591163 -0.4732944
-0.5527434 -0.03499141 -0.472322
-0.5412837 -0.03279754 -0.4708259
-0.5625129 -0.02367756 -0.4786804
-0.5507647 -0.02433528 -0.4764363
-0.5434272 -0.02218629 -0.4766607
-0.5532792 -0.01455802 -0.4753142
-0.5428501 -0.01460187 -0.4750898
-0.5361722 -0.0148426 -0.4754264
-0.5526609 -0.0071034 -0.4766607
-0.5456532 -0.004559769 -0.4775583
-0.5317202 -0.004209423 -0.4759874
-0.5247537 -0.0009208111 -0.4764363
-0.5183643 -0.006051921 -0.4717235
-0.5380684 0.006665796 -0.4793537
-0.5230637 0.00546611 -0.4754638
-0.5173337 0.006270724 -0.478456
-0.5300713 0.01823995 -0.4739677
-0.5271034 0.01499694 -0.478456
-0.5163857 0.01876701 -0.4775583
-0.5074543 0.01710049 -0.4735188
-0.496187 0.0164869 -0.4717235
-0.4886846 0.01990794 -0.470377
-0.5192712 0.02306413 -0.4780072
-0.5087596 0.02696617 -0.4748653
-0.4984954 0.02635274 -0.4710503
-0.4872006 0.02508085 -0.47307
-0.4773898 0.02999213 -0.4721723
-0.496819 0.03458128 -0.4741173
-0.4862388 0.03648224 -0.4778576
-0.4752463 0.03683157 -0.4764363
-0.3831568 0.03060688 -0.470377
-0.4845075 0.04489992 -0.4781568
-0.4729379 0.0460844 -0.4780072
-0.46255 0.04367363 -0.4789048
-0.4517499 0.04718061 -0.475763
-0.4721547 0.05612563 -0.4780072
-0.4651057 0.05103837 -0.4789048
-0.4547178 0.05130233 -0.4708259
-0.4439177 0.05450369 -0.4759874
-0.4387238 -0.2876438 -0.4672352
-0.4172884 -0.2809781 -0.4663375
-0.4796158 -0.2745771 -0.4690305
-0.4560369 -0.2733502 -0.467684
-0.4469888 -0.2761778 -0.4682451
-0.4255603 -0.2755123 -0.466936
-0.499732 -0.2607202 -0.4640934
-0.4673317 -0.268526 -0.4692549
-0.4563667 -0.2665088 -0.4643926
-0.4467483 -0.2670352 -0.4672352
-0.4342718 -0.265105 -0.4672352
-0.4253267 -0.2670348 -0.4654399
-0.4152274 -0.2650764 -0.4651406
-0.4044479 -0.2649744 -0.4662253
-0.3841873 -0.2676495 -0.4665619
-0.509378 -0.2509868 -0.4690305
-0.4979595 -0.2535304 -0.4618492
-0.4769776 -0.2562924 -0.4643178
-0.4664248 -0.2559425 -0.4643178
-0.4038913 -0.2574763 -0.4652154
-0.3937095 -0.2594934 -0.4672352
-0.3834453 -0.2575632 -0.4652154
-0.3727276 -0.2523457 -0.4681329
-0.3541366 -0.2566862 -0.4690305
-0.3436663 -0.2516893 -0.4672352
-0.5077703 -0.2455926 -0.4620736
-0.4961045 -0.246602 -0.4614004
-0.4881899 -0.2494091 -0.4681329
-0.477802 -0.2493214 -0.4636445
-0.3723979 -0.2472606 -0.4643178
-0.360897 -0.2478289 -0.4690305
-0.350674 -0.2438834 -0.4699282
-0.3418525 -0.2426995 -0.4665619
-0.4952801 -0.2369545 -0.4654399
-0.3516358 -0.2338863 -0.4631957
-0.3414403 -0.237657 -0.4652154
-0.3362463 -0.2339303 -0.4688061
-0.3226431 -0.2340623 -0.464991
-0.3199225 -0.232482 -0.4685817
-0.5768169 -0.22152 -0.4609515
-0.507152 -0.2205562 -0.4627469
-0.3317944 -0.2234493 -0.4645422
-0.3245119 -0.2262275 -0.4664871
-0.3193866 -0.2249853 -0.4645422
-0.309617 -0.2268703 -0.464991
-0.3214889 -0.2189785 -0.4654399
-0.3136018 -0.2142707 -0.466936
-0.3036261 -0.2128389 -0.4663375
-0.2988169 -0.2166107 -0.467684
-0.3130247 -0.2058527 -0.4639437
-0.3054125 -0.2032508 -0.4616996
-0.290655 -0.2046832 -0.4699282
-0.2785358 -0.2081024 -0.4631957
-0.2874397 -0.1974912 -0.462298
-0.2895832 -0.189424 -0.4627469
-0.5834948 -0.1425933 -0.4663375
-0.573684 -0.1471535 -0.4645422
-0.5603281 -0.1450488 -0.4672352
-0.5650274 -0.1340292 -0.464243
-0.5599983 -0.1399642 -0.4631957
-0.5743436 -0.1237982 -0.4667864
-0.5693969 -0.1282997 -0.4658887
-0.5787955 -0.11725 -0.4654399
-0.5684488 -0.1160661 -0.4674596
-0.5581021 -0.1152329 -0.4600539
-0.5806092 -0.1050163 -0.4670108
-0.5705512 -0.1070781 -0.4658887
-0.5900078 -0.09322117 -0.4667864
-0.5800322 -0.09743059 -0.4658887
-0.5778887 -0.09418553 -0.4681329
-0.5677206 -0.09494557 -0.4679832
-0.5594212 -0.09173121 -0.4609515
-0.5679129 -0.08421797 -0.4646918
-0.5553815 -0.08076917 -0.4631957
-0.5656045 -0.0788381 -0.4600539
-0.556838 -0.07313871 -0.4655895
-0.5643679 -0.06436908 -0.4699282
-0.5558349 -0.06625411 -0.4616248
-0.5636259 -0.05419719 -0.4645422
-0.5548044 -0.05397751 -0.4667864
-0.5444165 -0.05200434 -0.4620736
-0.5542274 -0.04652245 -0.4672352
-0.5442241 -0.0437017 -0.4657391
-0.5445402 -0.03428969 -0.4634201
-0.5341935 -0.03393891 -0.4636445
-0.5439218 -0.02683507 -0.467684
-0.5320088 -0.02521181 -0.4647666
-0.5200132 -0.02543193 -0.4618492
-0.5295767 -0.01446989 -0.4636445
-0.518859 -0.01061213 -0.462298
-0.5393875 -0.00780497 -0.4685817
-0.5265812 -0.006898775 -0.4651406
-0.5134727 -0.002075187 -0.4640934
-0.5081001 -0.003595987 -0.4670108
-0.490251 -8.681933e-05 -0.4663375
-0.5312255 0.003507852 -0.4699282
-0.5103673 0.007234506 -0.4663375
-0.5074818 0.003858637 -0.467684
-0.4999794 0.009207234 -0.4609515
-0.4899213 0.005085508 -0.462298
-0.4760707 0.009646593 -0.4609515
-0.5097902 0.01473298 -0.4658887
-0.4979183 0.0153907 -0.4661131
-0.4881899 0.01365139 -0.4646918
-0.4017066 0.01841622 -0.4654399
-0.4957336 0.02411648 -0.4643178
-0.4851395 0.02569501 -0.4685817
-0.477802 0.02525653 -0.464991
-0.4638691 0.02920199 -0.4667864
-0.4533987 0.02762433 -0.4667864
-0.4847273 0.03060688 -0.467684
-0.4737623 0.03902485 -0.464991
-0.4649615 0.03540738 -0.4652154
-0.4538934 0.03569239 -0.4630461
-0.4423513 0.03490356 -0.4631957
-0.4537285 0.04450543 -0.4654399
-0.4445773 0.04718061 -0.4681329
-0.4511728 0.0574402 -0.4605027
-0.4409497 0.05191621 -0.4699282
-0.4507605 0.06235207 -0.462298
-0.5791253 -0.2173982 -0.4591562
-0.5328744 -0.187934 -0.4573609
-0.5444165 -0.1666221 -0.4587074
-0.5436745 -0.1564502 -0.4560144
-0.5708809 -0.1452246 -0.4553411
-0.5635022 -0.1442161 -0.4564632
-0.5510945 -0.1426231 -0.4543687
-0.5598335 -0.1346138 -0.4501795
-0.5643404 -0.1237687 -0.456912
-0.5565357 -0.1254931 -0.4563136
-0.5486212 -0.1234764 -0.4544435
-0.571458 -0.1168115 -0.4560144
-0.5611938 -0.114092 -0.4557899
-0.5581846 -0.1150141 -0.4548923
-0.5478791 -0.1135667 -0.4535458
-0.5640793 -0.1050385 -0.4584829
-0.5571128 -0.1000624 -0.4501795
-0.5498578 -0.1015523 -0.4537702
-0.5567006 -0.09515049 -0.4501795
-0.54656 -0.09637735 -0.4519749
-0.5578823 -0.08448019 -0.4563136
-0.5487036 -0.08646855 -0.4537702
-0.5550517 -0.0756819 -0.4564632
-0.54678 -0.07498004 -0.4554159
-0.5555464 -0.06108047 -0.4555655
-0.5467249 -0.06156192 -0.454219
-0.5549693 -0.05362628 -0.4566876
-0.5449524 -0.05669565 -0.4528725
-0.5426852 -0.04718061 -0.454219
-0.5349355 -0.04113044 -0.4546679
-0.5418608 -0.03727005 -0.456912
-0.5213323 -0.03990182 -0.4506284
-0.5408714 -0.02499345 -0.4587074
-0.53205 -0.02499345 -0.4584829
-0.5149429 -0.02280104 -0.4519749
-0.5095428 -0.02060863 -0.459605
-0.5300713 -0.01911867 -0.4560144
-0.5224453 -0.01372403 -0.456912
-0.5147643 -0.01651584 -0.4513764
-0.5052146 -0.01061125 -0.4551167
-0.4919824 -0.01964309 -0.4501795
-0.5119337 -0.009734289 -0.4519749
-0.5009275 -0.003113219 -0.4582585
-0.4911579 -0.009646593 -0.4533214
-0.4806876 -0.009295807 -0.4501795
-0.4769776 -0.0004384815 -0.4551167
-0.503813 0.006709644 -0.4575853
-0.4971763 0.00719022 -0.4546679
-0.487077 0.003771379 -0.4535458
-0.4799456 0.0005253008 -0.4519749
-0.4688981 0.007014827 -0.4524237
-0.4995672 0.0142068 -0.459605
-0.4865411 0.01122425 -0.4528725
-0.4787089 0.01569676 -0.4533214
-0.4666309 0.01585133 -0.4551167
-0.4576034 0.01701308 -0.4533214
-0.4782967 0.02052006 -0.4591562
-0.4664798 0.02458332 -0.4536206
-0.455982 0.02388262 -0.456164
-0.4443025 0.0261335 -0.4524238
-0.4563667 0.03192145 -0.4587074
-0.4454842 0.03770853 -0.4555655
-0.4330626 0.03604289 -0.4543687
-0.4556247 0.04183201 -0.4560144
-0.4428459 0.04414018 -0.4560144
-0.434684 0.04297119 -0.451526
-0.4516674 0.05261866 -0.4564632
-0.551012 -0.1163721 -0.4497307
-0.5448012 -0.104446 -0.4473369
-0.5581846 -0.09322029 -0.4465889
-0.5483189 -0.09292885 -0.4470377
-0.5465876 -0.08287242 -0.4447936
-0.5446638 -0.07138479 -0.4452424
-0.5355401 -0.0736646 -0.4443447
-0.5451585 -0.06480728 -0.4458408
-0.5348805 -0.06550884 -0.4455416
-0.5358424 -0.05086385 -0.443447
-0.5256606 -0.05327506 -0.4443447
-0.5354301 -0.04586429 -0.4452424
-0.5217445 -0.04481281 -0.4483842
-0.521085 -0.03472861 -0.4416517
-0.5122223 -0.03231696 -0.4436715
-0.5219094 -0.02538852 -0.4456912
-0.5131704 -0.02464266 -0.44614
-0.5014634 -0.0260458 -0.4423249
-0.4960633 -0.02323864 -0.4454668
-0.5020405 -0.01508464 -0.4452424
-0.4952801 -0.01337412 -0.4461401
-0.4886022 -0.01332896 -0.443447
-0.470547 -0.01254145 -0.4416517
-0.4958023 -0.004822712 -0.4471873
-0.4840678 -0.003770502 -0.4447935
-0.4697226 -0.002630889 -0.4447935
-0.4560369 -0.001404018 -0.443447
-0.497671 0.002454619 -0.4492819
-0.478173 0.005392884 -0.4463645
-0.4663424 0.002849691 -0.4412029
-0.4584278 0.00719022 -0.4474865
-0.4374047 0.008419721 -0.4452424
-0.4769226 0.01517234 -0.4450928
-0.4657653 0.01017277 -0.4443447
-0.4562843 0.015303 -0.4450179
-0.4455254 0.01797687 -0.4465889
-0.4370749 0.01350435 -0.4403052
-0.4231419 0.01771553 -0.440754
-0.4129189 0.011839 -0.4474865
-0.4747517 0.02955365 -0.44614
-0.4467208 0.02271246 -0.4492819
-0.4340795 0.02475959 -0.445392
-0.4253679 0.02788742 -0.4479354
-0.4459788 0.03279929 -0.4492819
-0.4993199 -0.01701396 -0.4394075
-0.4693928 0.002542316 -0.4385099
-0.456669 0.004998689 -0.4389587
-0.4348215 0.01669153 -0.4383603
-0.4752463 0.02481717 -0.4398564
-0.4243786 0.02293214 -0.4378366
