# .PCD v.7 - Point Cloud Data file format
VERSION .7
FIELDS x y z
SIZE 4 4 4
TYPE F F F
COUNT 1 1 1
WIDTH 80
HEIGHT 1
VIEWPOINT 0 0 0 1 0 0 0
POINTS 80
DATA ascii
-0.8469846 -0.9997369 -0.6000898
-0.8469022 -0.9928983 -0.5956014
-0.9103838 -0.984041 -0.5938061
-0.8467373 -0.9866701 -0.5933573
-0.9117523 -0.973622 -0.5966787
-0.8468198 -0.9779005 -0.5906643
-0.7971475 -0.9715868 -0.5962747
-0.8124408 -0.9675533 -0.5942549
-0.8020116 -0.9628181 -0.5989677
-0.7974525 -0.9666764 -0.59614
-0.7978482 -0.9592221 -0.5960503
-0.8213447 -0.9251074 -0.5920108
-0.7972711 -0.8898552 -0.5938061
-0.8063399 -0.8690703 -0.5906643
-0.9525949 -0.8217152 -0.5902154
-0.8463251 -0.9918451 -0.5897666
-0.8455831 -0.9787784 -0.5875224
-0.8025475 -0.966457 -0.5830342
-0.7976009 -0.9617662 -0.5857271
-0.7979307 -0.9579934 -0.5861759
-0.8116987 -0.9438753 -0.5870736
-0.7943856 -0.8718775 -0.5870736
-0.964879 -0.8446907 -0.5884201
-0.9630653 -0.8188203 -0.5821365
-0.9187518 -0.8032542 -0.5837073
-0.9696608 -0.7899683 -0.5848294
-0.9885404 -0.7445416 -0.5870736
-0.9768746 -0.725775 -0.5855027
-0.8466136 -0.9911878 -0.5736086
-0.8470671 -0.9896527 -0.5767505
-0.9119502 -0.9759712 -0.5745063
-0.8205202 -0.9286161 -0.5749551
-0.8565481 -0.8400419 -0.5700179
-0.9836761 -0.8330262 -0.5704668
-0.8576199 -0.8359211 -0.5771993
-0.9729585 -0.8294316 -0.5727109
-0.9941465 -0.8156624 -0.5718133
-0.9820685 -0.8136454 -0.5769749
-0.9506987 -0.813997 -0.5709156
-0.9515231 -0.8054905 -0.5767505
-0.9775754 -0.7330533 -0.5740575
-0.9867266 -0.7284493 -0.5713644
-0.8558061 -0.9686065 -0.5655296
-0.8021353 -0.9677286 -0.5673249
-0.8211385 -0.926468 -0.5677738
-0.8199431 -0.9194957 -0.5623878
-0.8585267 -0.8455686 -0.5650808
-0.9737005 -0.8377619 -0.5610413
-0.9941465 -0.8241698 -0.5623878
-0.9832227 -0.8261 -0.5628366
-0.9614988 -0.8164525 -0.5686715
-0.9607568 -0.8075952 -0.5695691
-0.9880457 -0.7331411 -0.5619389
-0.97807 -0.737789 -0.5668761
-0.8570427 -0.8434638 -0.5520647
-0.9649615 -0.8376741 -0.5507181
-0.8563008 -0.8349573 -0.5587971
-0.9930747 -0.8182942 -0.5556553
-0.9839235 -0.8143478 -0.5574507
-0.973618 -0.8132069 -0.551167
-0.9630653 -0.8121554 -0.5507181
-0.9411352 -0.8024203 -0.5525135
-0.939239 -0.8026834 -0.5583483
-0.9707325 -0.7977741 -0.5587971
-0.9864792 -0.7323509 -0.5565529
-0.9632301 -0.8328526 -0.540395
-0.8583618 -0.8395158 -0.545781
-0.9938167 -0.8267121 -0.548474
-0.9850777 -0.8264503 -0.5451077
-0.9948061 -0.8196105 -0.548474
-0.9836762 -0.8187765 -0.5464542
-0.9930748 -0.8066305 -0.5471275
-0.9877571 -0.7369993 -0.5473518
-0.9647141 -0.8320625 -0.5399461
-0.9615813 -0.8101384 -0.5300718
-0.9931571 -0.8065429 -0.5397217
-0.97436 -0.8238769 -0.5227409
-0.9817799 -0.7997911 -0.5228905
-0.9823983 -0.7961074 -0.5184021
-0.9839235 -0.8042628 -0.5085279
