# .PCD v.7 - Point Cloud Data file format
VERSION .7
FIELDS x y z
SIZE 4 4 4
TYPE F F F
COUNT 1 1 1
WIDTH 940
HEIGHT 1
VIEWPOINT 0 0 0 1 0 0 0
POINTS 940
DATA ascii
0.7966115 -0.9993002 -0.6512567
0.8548992 -0.9694825 -0.6530521
0.8460777 -0.9556274 -0.6539497
0.7365102 -0.8959063 -0.6517056
0.7694052 -0.899237 -0.6561939
0.7297498 -0.8657387 -0.6535009
0.7088915 -0.8346499 -0.6537253
0.7107053 -0.8333771 -0.6503591
0.8105446 -0.8334647 -0.6575404
0.8627313 -0.76322 -0.6552962
0.8898553 -0.7146363 -0.6548474
0.9459994 -0.7170041 -0.6548474
0.9694958 -0.7021843 -0.6593357
0.980873 -0.6940285 -0.6512567
0.992003 -0.6696489 -0.6588869
0.9835937 -0.6397454 -0.6575404
0.9108784 -0.5759025 -0.6517056
0.9027165 -0.5639749 -0.6526032
0.2639433 -0.9959669 -0.6404848
0.357187 -0.9755327 -0.64228
0.390082 -0.9720258 -0.6431777
0.8565481 -0.9677286 -0.6499102
0.3912362 -0.9597492 -0.6436266
0.4444124 -0.9494869 -0.6449731
0.4144029 -0.937035 -0.6413824
0.4660126 -0.9397544 -0.6427289
0.6573642 -0.9350184 -0.6451975
0.4566965 -0.9131815 -0.6427289
0.7476401 -0.9102876 -0.6436266
0.3442434 -0.9062535 -0.6404848
0.6174203 -0.8955107 -0.6447487
0.9182984 -0.891082 -0.6400359
0.3653489 -0.8858194 -0.6413824
0.7046869 -0.8828395 -0.6499102
0.4295725 -0.8683679 -0.6418312
0.5046787 -0.860213 -0.6436266
0.7293376 -0.8699481 -0.6494614
0.4644874 -0.8360097 -0.6442999
0.7102106 -0.8373234 -0.6413824
0.580197 -0.8234682 -0.6404848
0.646152 -0.826449 -0.6458707
0.7661898 -0.8246517 -0.6454219
0.8225813 -0.8247837 -0.6454219
0.7332948 -0.8043513 -0.6418312
0.5965209 -0.7800595 -0.6449731
0.6064966 -0.7892658 -0.6472172
0.5442516 -0.7746214 -0.6436266
0.7058411 -0.7630007 -0.6451975
0.6613216 -0.7564674 -0.6454219
0.6518406 -0.7411205 -0.6409336
0.6630941 -0.7463393 -0.6447487
0.6732759 -0.7440154 -0.6445242
0.6837462 -0.7486633 -0.6499102
0.6766561 -0.7160398 -0.6436266
0.6667628 -0.7051225 -0.6474416
0.7536584 -0.7072259 -0.6451975
0.8319799 -0.7059118 -0.6490126
0.9888701 -0.7053422 -0.6485637
0.9908488 -0.7036742 -0.6458707
0.8314028 -0.6992017 -0.6440754
0.7220001 -0.682628 -0.6490126
0.9807906 -0.669912 -0.6409336
0.8722124 -0.6519343 -0.6499102
0.9843357 -0.6515835 -0.6413824
0.8267035 -0.6450062 -0.6454219
0.9849541 -0.644523 -0.6418312
0.8615772 -0.6151018 -0.6463196
0.8185416 -0.5831795 -0.6409336
0.8757575 -0.5826551 -0.6413824
0.9881281 -0.5825674 -0.6449731
0.9903541 -0.5804627 -0.6418312
0.8766643 -0.5727445 -0.6485637
0.9559751 -0.5717807 -0.6449731
0.9023043 -0.5685351 -0.6476661
0.9121151 -0.5604679 -0.6481149
0.8686673 -0.5566952 -0.6445242
0.9144235 -0.559063 -0.6418312
0.9910136 -0.546611 -0.6427289
0.9431964 -0.4871529 -0.6409336
0.9699081 -0.4031408 -0.6409336
0.9704027 -0.3984052 -0.6494614
0.1489756 -0.9957033 -0.6326302
0.1701224 -0.9909673 -0.6377918
0.2205779 -0.9965807 -0.6373429
0.2641906 -0.9914944 -0.6324058
0.7293376 -0.9922836 -0.6333034
0.2224741 -0.9885135 -0.6319569
0.3992333 -0.9717627 -0.6373429
0.4732676 -0.9607129 -0.6391382
0.6552207 -0.9654486 -0.6377918
0.7990849 -0.9610637 -0.6328546
0.3395441 -0.9567666 -0.636894
0.8108743 -0.9579058 -0.6364452
0.2043365 -0.9441392 -0.6346499
0.2888412 -0.9478216 -0.634201
0.4123418 -0.9422976 -0.6315081
0.4545529 -0.9426913 -0.6348743
0.7102931 -0.9412444 -0.6301616
0.3414403 -0.9357204 -0.6350988
0.4249557 -0.9351056 -0.6377918
0.2174451 -0.9296676 -0.6328546
0.3409456 -0.9271261 -0.6382406
0.4357558 -0.9220389 -0.6337522
0.3327837 -0.9175664 -0.6382406
0.3433915 -0.9145841 -0.6362957
0.4980832 -0.9151109 -0.634201
0.7465683 -0.9120845 -0.6375673
0.2923451 -0.9023502 -0.6368941
0.4262748 -0.9034464 -0.6324058
0.4364153 -0.9070437 -0.6350988
0.3661734 -0.8902043 -0.6324058
0.5752504 -0.8940646 -0.6306104
0.8034544 -0.8938015 -0.6355476
0.8163156 -0.89424 -0.6328546
0.3665856 -0.8862588 -0.6391382
0.428171 -0.8834516 -0.6391382
0.9186282 -0.8855563 -0.6310592
0.5351828 -0.8724019 -0.6324058
0.6196051 -0.8775768 -0.6315081
0.357187 -0.8603007 -0.6373429
0.4312214 -0.8658246 -0.6301616
0.727936 -0.8657387 -0.6391382
0.4962694 -0.837411 -0.6346499
0.9242343 -0.8378496 -0.6310592
0.4444948 -0.825968 -0.6315081
0.5796199 -0.8282047 -0.6324058
0.7779793 -0.8146109 -0.6333034
0.5084436 -0.8059003 -0.632705
0.7441774 -0.8033858 -0.6328546
0.6044354 -0.7901436 -0.634201
0.5628014 -0.7800595 -0.6315081
0.5969331 -0.7752353 -0.639587
0.9547384 -0.7415599 -0.639587
0.6111959 -0.7338435 -0.6328546
0.6631353 -0.7354211 -0.6391382
0.673853 -0.7356846 -0.6333034
0.7305742 -0.7294587 -0.6364452
0.7077373 -0.7190211 -0.6333034
0.6670926 -0.7092 -0.6328546
0.7196092 -0.7078854 -0.6382406
0.9673523 -0.7004303 -0.6346499
0.9882106 -0.7096393 -0.6306104
0.9825631 -0.6650447 -0.6334156
0.9815326 -0.6591262 -0.6324058
0.9292634 -0.6240478 -0.6333034
0.7949627 -0.5953702 -0.6306104
0.8751804 -0.587303 -0.6310592
0.9930747 -0.5466987 -0.6324058
0.9826868 -0.5155656 -0.636894
0.9391566 -0.5061839 -0.6391382
0.9408879 -0.4854867 -0.6359964
0.796694 -0.9969324 -0.6283662
0.2216497 -0.9811462 -0.6216338
0.2641494 -0.9833829 -0.6245512
0.366668 -0.98211 -0.6234291
0.2541875 -0.9744231 -0.6268702
0.2659219 -0.9633439 -0.6232046
0.3479533 -0.9601859 -0.6261221
0.3996455 -0.9664141 -0.6297128
0.4740921 -0.9638709 -0.6265709
0.6224082 -0.9662387 -0.6288151
0.7317284 -0.962993 -0.6234291
0.288429 -0.951767 -0.6288151
0.7320582 -0.9586959 -0.6211849
0.2788656 -0.942473 -0.6234291
0.3290738 -0.9411567 -0.6229802
0.3303104 -0.9422099 -0.6261221
0.4226473 -0.9432614 -0.6297128
0.5287522 -0.9408927 -0.6261221
0.5379447 -0.9475589 -0.625
0.6337854 -0.9436122 -0.6216338
0.678305 -0.9476462 -0.6256732
0.7110351 -0.9494869 -0.6274686
0.8229111 -0.9493116 -0.6229802
0.3417701 -0.9311602 -0.6297128
0.3922256 -0.9373423 -0.6225314
0.4243786 -0.9318613 -0.6292639
0.4646935 -0.9368595 -0.6283662
0.5809391 -0.9330886 -0.6207361
0.6358465 -0.9380882 -0.6252244
0.216126 -0.9275628 -0.6274686
0.3310936 -0.9257216 -0.6225314
0.4238839 -0.9279145 -0.6211849
0.539305 -0.9242313 -0.6238779
0.5407065 -0.924583 -0.6202872
0.8942661 -0.9250206 -0.6270198
0.4262748 -0.9174787 -0.6238779
0.4578507 -0.9123037 -0.6234291
0.4993199 -0.9152862 -0.6229802
0.7453316 -0.914233 -0.6225314
0.7919948 -0.9111645 -0.6292639
0.8474793 -0.9144961 -0.6216338
0.3547137 -0.9015179 -0.6297128
0.4583454 -0.9082705 -0.6274686
0.4673317 -0.906692 -0.6238779
0.7362216 -0.9046754 -0.6290395
0.270951 -0.8995886 -0.6220826
0.3641947 -0.8951161 -0.6261221
0.4266046 -0.8976593 -0.6202872
0.6276846 -0.8982298 -0.6247755
0.3646894 -0.8899412 -0.6234291
0.4275939 -0.8877487 -0.6238779
0.585391 -0.8829272 -0.6211849
0.3781277 -0.8718775 -0.6247756
0.4299847 -0.8789791 -0.6292639
0.4308092 -0.8702095 -0.6292639
0.38934 -0.8635463 -0.6211849
0.3587534 -0.8579329 -0.6292639
0.5039779 -0.8570998 -0.6272442
0.6005606 -0.8508286 -0.6288151
0.4230595 -0.8413591 -0.6279174
0.6665155 -0.8356571 -0.6207361
0.4655179 -0.8294316 -0.6225314
0.8202729 -0.8265367 -0.6207361
0.9240282 -0.8288168 -0.6225314
0.4971763 -0.8091729 -0.6292639
0.5624717 -0.8015441 -0.6274686
0.5921513 -0.806456 -0.6220826
0.7458263 -0.803035 -0.6216338
0.6579414 -0.7912828 -0.6243268
0.8487984 -0.7843565 -0.6270198
0.8600107 -0.7892658 -0.6292639
0.5419432 -0.7772523 -0.6279174
0.7036151 -0.764888 -0.6270198
0.8619894 -0.7663779 -0.6256732
0.693557 -0.7554159 -0.6229802
0.8728719 -0.7503295 -0.6220826
0.6640422 -0.7410328 -0.6220826
0.6950822 -0.7473917 -0.6207361
0.6536543 -0.7395429 -0.6292639
0.9535018 -0.7312117 -0.6252244
0.728678 -0.7267392 -0.6207361
0.708974 -0.7136725 -0.6252244
0.8825178 -0.6600015 -0.6202872
0.7698998 -0.6519343 -0.6207361
0.9706501 -0.6588623 -0.6270198
0.9827693 -0.6545204 -0.6241024
0.7681685 -0.6481642 -0.6216338
0.9825632 -0.6459275 -0.6247756
0.8483862 -0.6307126 -0.6256732
0.975844 -0.6209775 -0.6261221
0.798178 -0.5822157 -0.6216338
0.8664413 -0.5524858 -0.6207361
0.9934045 -0.5417868 -0.6292639
0.9848304 -0.5160927 -0.6297128
0.9745249 -0.505043 -0.6202872
0.1387114 -0.9923722 -0.6108618
0.1474504 -0.9965807 -0.6189408
0.2206604 -0.9902675 -0.6108618
0.5022054 -0.9985977 -0.6189408
0.7161466 -0.9979839 -0.6108618
0.4086319 -0.9807954 -0.6175942
0.5972629 -0.9894773 -0.6198384
0.7072427 -0.9896527 -0.6113106
0.7295849 -0.9874603 -0.6198384
0.2232161 -0.9772884 -0.6128815
0.3156354 -0.9736911 -0.610413
0.3892576 -0.9611514 -0.6140036
0.6754194 -0.9626414 -0.615799
0.7971887 -0.9622046 -0.610413
0.9677233 -0.9624668 -0.6126571
0.3896698 -0.9563281 -0.6149012
0.6547261 -0.9507164 -0.6113106
0.7305742 -0.9590467 -0.6166966
0.7768251 -0.9524695 -0.6122082
0.6351457 -0.9438757 -0.6160234
0.6766561 -0.9475585 -0.6108618
0.339709 -0.9356326 -0.6108618
0.3402036 -0.9308085 -0.6126571
0.422977 -0.9376497 -0.6166966
0.5608228 -0.9326501 -0.6117594
0.6351457 -0.9358949 -0.616921
0.6904241 -0.9307208 -0.6113106
0.8935653 -0.9305454 -0.6135548
0.3419349 -0.9260729 -0.6122082
0.812111 -0.9224782 -0.6180431
0.9390742 -0.9220389 -0.6198384
0.4150625 -0.9177413 -0.616921
0.457356 -0.9160764 -0.6113106
0.7788862 -0.9114285 -0.6166966
0.7802053 -0.9149355 -0.6175942
0.9618286 -0.9115162 -0.6117594
0.3732635 -0.9076558 -0.6153501
0.4374047 -0.9083583 -0.6140036
0.4988252 -0.9043242 -0.6189408
0.7903458 -0.9098482 -0.6140036
0.8023002 -0.9027466 -0.6135548
0.3655963 -0.8937138 -0.6171454
0.5851024 -0.8934065 -0.6180431
0.6055073 -0.8949407 -0.6140036
0.7705594 -0.8973085 -0.6166966
0.8047735 -0.8926597 -0.6162478
0.3570221 -0.8748574 -0.6171454
0.3973371 -0.8709996 -0.6108618
0.6741003 -0.871175 -0.6140036
0.8163156 -0.8718775 -0.6117594
0.3873614 -0.8666148 -0.6135548
0.439878 -0.8655633 -0.6135548
0.5245476 -0.8681048 -0.6113106
0.7083144 -0.853548 -0.6108618
0.5252072 -0.8438147 -0.6140036
0.4235129 -0.8342549 -0.6178187
0.494703 -0.8341672 -0.6162478
0.5580197 -0.8303094 -0.610413
0.4870358 -0.8210127 -0.6144524
0.5707985 -0.8239953 -0.6135548
0.5812276 -0.8253537 -0.616921
0.9235747 -0.8236445 -0.6175942
0.5598335 -0.8100507 -0.6135548
0.7759182 -0.8157501 -0.615799
0.8689971 -0.8152257 -0.6108618
0.9249763 -0.816321 -0.6164721
0.5603281 -0.8049634 -0.6135548
0.8585267 -0.7821642 -0.613106
0.860258 -0.7839172 -0.6135548
0.6515658 -0.7531648 -0.6126571
0.8745208 -0.7523457 -0.6140036
0.6209242 -0.7426131 -0.6184919
0.6961128 -0.7449809 -0.615799
0.6092172 -0.732614 -0.6149012
0.6106187 -0.7375259 -0.6126571
0.6633414 -0.7377455 -0.6140035
0.6773981 -0.7129709 -0.6162478
0.8872995 -0.7134971 -0.6144524
0.8323921 -0.7049905 -0.6113106
0.8657818 -0.708148 -0.614228
0.9900243 -0.7068322 -0.6144524
0.8241066 -0.6572846 -0.6126571
0.9729585 -0.6532488 -0.6140036
0.8259615 -0.648515 -0.6184919
0.8503648 -0.6311511 -0.6184919
0.7971887 -0.5914247 -0.6149012
0.7956222 -0.5844081 -0.6153501
0.8770766 -0.5888807 -0.613106
0.9547384 -0.5808994 -0.6175942
0.8662764 -0.5790578 -0.6108618
0.9842533 -0.5204775 -0.6175942
0.1690507 -0.9973691 -0.6063734
0.2214024 -0.9948277 -0.6005386
0.7173008 -0.9976322 -0.6018851
0.7282658 -0.9985101 -0.6005386
0.8172225 -0.9945646 -0.6027828
0.1705346 -0.9809708 -0.6023339
0.2106023 -0.9853556 -0.6036804
0.3763964 -0.9852679 -0.6009874
0.4093738 -0.9849171 -0.6068223
0.7065007 -0.9858526 -0.6018851
0.7735273 -0.9891257 -0.6072711
0.8190362 -0.9892142 -0.6009874
0.2752793 -0.9713684 -0.6045781
0.2845542 -0.9760598 -0.6090664
0.6754194 -0.9752714 -0.6014363
0.2552867 -0.9692186 -0.6090664
0.3904118 -0.9620293 -0.6081688
0.4724432 -0.9637823 -0.6045781
0.653407 -0.9650977 -0.6032316
0.7872955 -0.9602736 -0.6027828
0.3488602 -0.9561235 -0.6045781
0.5057504 -0.956942 -0.6032316
0.6872089 -0.9515039 -0.6090664
0.2771343 -0.9429097 -0.6036804
0.5382332 -0.9492238 -0.6068223
0.6238922 -0.9464194 -0.6072711
0.7003174 -0.9436998 -0.6095152
0.2148893 -0.9360694 -0.6005386
0.5710458 -0.935281 -0.6018851
0.4255328 -0.9228711 -0.6068223
0.4355085 -0.9269508 -0.6059246
0.3529 -0.9170402 -0.6023339
0.4147327 -0.9107261 -0.6027828
0.4972588 -0.9184424 -0.6009874
0.757863 -0.9117793 -0.6018851
0.939239 -0.9168648 -0.6014363
0.3540542 -0.9044996 -0.6054758
0.5002267 -0.9014294 -0.6036804
0.6650316 -0.9026589 -0.60772
0.8723773 -0.908446 -0.6050269
0.4276763 -0.8993255 -0.6036804
0.5734367 -0.8927483 -0.6009874
0.8145018 -0.8916968 -0.6036804
0.826044 -0.8909067 -0.6045781
0.8389052 -0.8935376 -0.6018851
0.5654396 -0.8805594 -0.6018851
0.6189455 -0.8807348 -0.60772
0.428542 -0.8743316 -0.6083932
0.6736057 -0.8750328 -0.6032316
0.7175481 -0.8714381 -0.6050269
0.8750154 -0.8784547 -0.60772
0.3887629 -0.8673164 -0.6081688
0.523311 -0.8635463 -0.6027828
0.7826786 -0.8658246 -0.6099641
0.5463951 -0.8586353 -0.6009874
0.6436786 -0.8464438 -0.6050269
0.7953749 -0.8484608 -0.6014363
0.5255369 -0.8380258 -0.6005386
0.4865411 -0.8250468 -0.6054758
0.5703038 -0.828117 -0.6086176
0.4964343 -0.8132069 -0.6072711
0.7320582 -0.8129455 -0.6086176
0.9258007 -0.8140847 -0.6018851
0.5618121 -0.8047004 -0.6009874
0.5722824 -0.8057536 -0.60772
0.5743436 -0.7832156 -0.6081688
0.8468198 -0.7830393 -0.6099641
0.7134259 -0.7731314 -0.6023339
0.8587741 -0.7763745 -0.6000898
0.8708933 -0.7700612 -0.6032316
0.6501092 -0.7548897 -0.6072711
0.8721299 -0.7545381 -0.6027828
0.6509337 -0.7442785 -0.6009874
0.6938868 -0.7495411 -0.6099641
0.863226 -0.7469102 -0.6009874
0.9657859 -0.736648 -0.60772
0.7949627 -0.7220913 -0.6099641
0.7417041 -0.6995525 -0.6032316
0.7675914 -0.6527244 -0.6081688
0.8254668 -0.6527244 -0.6086176
0.9707325 -0.652549 -0.6023339
0.8381631 -0.6368505 -0.6009874
0.8593512 -0.6336926 -0.6045781
0.8616596 -0.6308004 -0.6045781
0.939239 -0.6327288 -0.6050269
0.8506122 -0.6257131 -0.6041293
0.7951276 -0.5892323 -0.6090664
0.9891174 -0.5884421 -0.6059246
0.9592729 -0.3926154 -0.6027828
0.9619935 -0.3902476 -0.6045781
0.9596851 -0.3877939 -0.6072711
0.9614164 -0.3815232 -0.6045781
0.8182942 -0.9970201 -0.5960503
0.8176347 -0.9894773 -0.5978456
0.2218146 -0.9748329 -0.5947038
0.2740014 -0.9769368 -0.5978456
0.3463045 -0.9728159 -0.5938061
0.673853 -0.9758835 -0.5911131
0.3266829 -0.9693944 -0.5947038
0.4007173 -0.9628168 -0.5938061
0.7295024 -0.9679917 -0.5996409
0.4015417 -0.9548373 -0.5991921
0.7314399 -0.9529527 -0.5929084
0.3912087 -0.9463021 -0.595751
0.5371615 -0.9425589 -0.5951526
0.7661899 -0.9430851 -0.5978456
0.8922462 -0.9419468 -0.5915619
0.2164558 -0.9340523 -0.5967235
0.3303104 -0.9362448 -0.5924596
0.3498496 -0.9337034 -0.5929084
0.39305 -0.9322116 -0.5978456
0.5388516 -0.9322112 -0.5947038
0.7210107 -0.9386126 -0.5987433
0.3296508 -0.9295799 -0.5906643
0.4146502 -0.9258975 -0.5906643
0.4337772 -0.9299307 -0.5956014
0.540047 -0.9276506 -0.5964991
0.4158044 -0.913357 -0.5906643
0.4985778 -0.9180057 -0.5942549
0.8490457 -0.9102876 -0.5933573
0.9374253 -0.9182688 -0.5924596
0.3524877 -0.9036218 -0.5920108
0.3635352 -0.9043672 -0.5922352
0.5629663 -0.9064289 -0.5960503
0.6147409 -0.9074804 -0.5906643
0.6708026 -0.9044119 -0.5915619
0.7573684 -0.9077886 -0.5976212
0.7682509 -0.9009032 -0.5938061
0.8707284 -0.906692 -0.5920108
0.9713096 -0.9068683 -0.5911131
0.5837421 -0.8966938 -0.5964991
0.8367616 -0.8998517 -0.5947038
0.9957954 -0.8905559 -0.5956014
0.4385177 -0.8853818 -0.5958259
0.8034544 -0.886785 -0.5978456
0.8280226 -0.8839787 -0.5911131
0.8723773 -0.8863465 -0.5902154
0.4299847 -0.8729281 -0.5973968
0.5120986 -0.8787607 -0.5971724
0.6720393 -0.8742453 -0.5982944
0.7821015 -0.8702972 -0.5964991
0.4513376 -0.8653879 -0.5929084
0.6847355 -0.8692457 -0.5938061
0.5877818 -0.8510926 -0.5964991
0.9880457 -0.854689 -0.5960503
0.5895132 -0.8491632 -0.5947038
0.6423596 -0.8416222 -0.5982944
0.784245 -0.8446031 -0.5938061
0.7957047 -0.8428491 -0.5906643
0.9995053 -0.8470585 -0.5942549
0.4734325 -0.8340795 -0.5933573
0.5588441 -0.8354818 -0.5915619
0.8081537 -0.8310092 -0.5978456
0.9131868 -0.8303094 -0.5991921
0.4750814 -0.8274722 -0.5935069
0.4849747 -0.8221519 -0.5911131
0.5073169 -0.8221519 -0.5920108
0.5179521 -0.8228543 -0.5996409
0.7634692 -0.8273269 -0.5969479
0.9118266 -0.8249148 -0.5924596
0.9248939 -0.822679 -0.5942549
0.4979183 -0.8132069 -0.5973968
0.7333773 -0.8142601 -0.5960503
0.7229069 -0.8089098 -0.5906643
0.8695742 -0.8053151 -0.5902154
0.5633785 -0.786549 -0.5978456
0.8463251 -0.7876005 -0.5991921
0.8578672 -0.7862859 -0.5942549
0.8478915 -0.777472 -0.5906643
0.869904 -0.7797964 -0.5933573
0.6078981 -0.7640101 -0.5947038
0.7142504 -0.7625202 -0.5960503
0.8731192 -0.7650616 -0.5960503
0.8938126 -0.7685704 -0.5924596
0.6395565 -0.7485756 -0.5947038
0.6528299 -0.7425254 -0.5964991
0.6629704 -0.7491027 -0.5982944
0.8969042 -0.7436203 -0.5938061
0.6193578 -0.735772 -0.5987433
0.8985943 -0.7124438 -0.5978456
0.74224 -0.7022281 -0.5931329
0.8554763 -0.7002549 -0.5924596
0.9032936 -0.6556166 -0.5929084
0.9731234 -0.6478125 -0.5987433
0.8361021 -0.6354482 -0.5991921
0.9556453 -0.5925639 -0.5982944
0.8863927 -0.5848475 -0.5987433
0.9442269 -0.5846278 -0.5991921
0.9997526 -0.5884421 -0.5924596
0.9442681 -0.5709906 -0.5960503
0.9983512 -0.5794094 -0.5947038
0.9544086 -0.4771564 -0.5929084
0.965621 -0.4752258 -0.5969479
0.1374747 -0.9952655 -0.5876347
0.3146461 -0.9950908 -0.5888689
0.5022054 -0.9928107 -0.5857271
0.7046869 -0.996757 -0.5857271
0.7729502 -0.9918451 -0.5821365
0.1682262 -0.989565 -0.5879713
0.3672451 -0.9836025 -0.5861759
0.377633 -0.9843023 -0.5888689
0.5980873 -0.9884259 -0.5803411
0.7076549 -0.980356 -0.5893178
0.2546271 -0.9720258 -0.5857271
0.2754029 -0.973079 -0.5816876
0.4512552 -0.9775515 -0.5888689
0.7297498 -0.9620293 -0.5803411
0.8190362 -0.9692186 -0.5812388
0.2461355 -0.9505402 -0.5830341
0.5041016 -0.9565035 -0.5812388
0.6230677 -0.9514163 -0.5848294
0.7081496 -0.958432 -0.5839318
0.7858114 -0.9578198 -0.5830341
0.6221609 -0.9460676 -0.5888689
0.8110392 -0.9468578 -0.5839318
0.4123418 -0.9348425 -0.5866248
0.5280514 -0.9336586 -0.5850539
0.5387279 -0.9398421 -0.5875224
0.33097 -0.9274752 -0.5857271
0.3514984 -0.9286161 -0.5825853
0.3924317 -0.9285275 -0.5832585
0.4029845 -0.9290555 -0.5848294
0.4140731 -0.9231355 -0.584605
0.4966816 -0.9223905 -0.5825853
0.4169587 -0.9005542 -0.5893178
0.6163898 -0.9055511 -0.5879713
0.8361845 -0.9042365 -0.5807899
0.8950493 -0.9079189 -0.5830341
0.4279236 -0.8941523 -0.5888689
0.6268601 -0.8906436 -0.5812388
0.7697349 -0.899764 -0.5807899
0.9737829 -0.8930991 -0.5807899
0.8262913 -0.8848556 -0.5857271
0.5233934 -0.8752968 -0.5825853
0.8283524 -0.8795053 -0.5875224
0.8732017 -0.8761746 -0.5879713
0.4498537 -0.8638954 -0.5812388
0.5881941 -0.8618783 -0.5852783
0.672369 -0.8687195 -0.5893178
0.7060885 -0.8538988 -0.5803411
0.6438435 -0.8408321 -0.5816876
0.9997526 -0.8424106 -0.5870736
0.4749165 -0.8327649 -0.5812388
0.8210973 -0.8307462 -0.5870736
0.4958984 -0.8242136 -0.5857271
0.900573 -0.8234682 -0.5848294
0.7321407 -0.8065437 -0.5830341
0.6186982 -0.740333 -0.5843806
0.6209242 -0.7363867 -0.5866248
0.8989241 -0.7068322 -0.5875224
0.8534977 -0.6996402 -0.5866248
0.8997486 -0.6963086 -0.5839318
0.7877901 -0.6702636 -0.5834829
0.8099675 -0.6730682 -0.5807899
0.8117812 -0.6758754 -0.5861759
0.7244734 -0.6660542 -0.5879713
0.7441774 -0.6680713 -0.5857271
0.8832598 -0.6442178 -0.5816876
0.9385795 -0.6369382 -0.5825853
0.874191 -0.5905468 -0.5879713
0.7972711 -0.5851965 -0.5830341
0.953914 -0.5845844 -0.5848294
0.9976504 -0.5867325 -0.5881957
0.9456697 -0.5773047 -0.5834829
0.9907663 -0.539156 -0.5893178
0.9750196 -0.4939933 -0.5893178
0.942949 -0.4801364 -0.5879713
0.9517705 -0.478471 -0.5843806
0.178779 -0.9920644 -0.5740575
0.209448 -0.9931597 -0.5704668
0.3130797 -0.9958792 -0.5763016
0.5005565 -0.9949154 -0.5718133
0.7713014 -0.9926353 -0.5736086
0.942949 -0.9992125 -0.5758528
0.4802754 -0.9870218 -0.5745063
0.4907457 -0.9858826 -0.5704668
0.3045056 -0.9772007 -0.5731598
0.7851519 -0.9790415 -0.5700179
0.2859557 -0.9697456 -0.5776481
0.3475411 -0.9697456 -0.5736086
0.2754029 -0.9558887 -0.5700179
0.3578466 -0.957469 -0.5794435
0.5058329 -0.9511549 -0.5745063
0.6210891 -0.9551889 -0.5763016
0.7195268 -0.9524695 -0.5780969
0.2451461 -0.9436122 -0.5709156
0.5470135 -0.9467692 -0.5727109
0.5289996 -0.9300193 -0.5794435
0.5374088 -0.9366841 -0.5771993
0.9476483 -0.9352372 -0.5747307
0.2160847 -0.9260729 -0.5740575
0.3500144 -0.9276506 -0.5727109
0.4340245 -0.9240559 -0.5780969
0.4979183 -0.9211611 -0.5713645
0.3510038 -0.9180934 -0.5780969
0.4348489 -0.9137086 -0.5709156
0.7567913 -0.9186178 -0.5709156
0.7671792 -0.9101113 -0.5749551
0.8367616 -0.9134455 -0.5749551
0.3643596 -0.9002911 -0.5780969
0.4374047 -0.9021318 -0.5785458
0.4987428 -0.9056401 -0.5758528
0.5845665 -0.9002025 -0.5722621
0.7910466 -0.9035792 -0.5778725
0.8377097 -0.9027904 -0.5751796
0.8932355 -0.9093238 -0.5758528
0.9605095 -0.9019564 -0.5736086
0.3632054 -0.897747 -0.5780969
0.3751597 -0.8950284 -0.5713645
0.4063234 -0.8987108 -0.5740575
0.4266046 -0.8903796 -0.5776481
0.4480399 -0.8995009 -0.5798923
0.4576034 -0.8957002 -0.5721125
0.6162661 -0.8966508 -0.5769749
0.7907581 -0.8978347 -0.5754039
0.4285832 -0.8848556 -0.5754039
0.458098 -0.8843294 -0.5700179
0.7034503 -0.8840663 -0.5767505
0.9525124 -0.8866972 -0.5767505
0.3671627 -0.8700358 -0.5780969
0.4384764 -0.8736305 -0.5731598
0.4604889 -0.8752968 -0.5736086
0.6834577 -0.8715688 -0.5733842
0.863226 -0.8748574 -0.5718133
0.4594996 -0.8693334 -0.5704668
0.5344408 -0.8611772 -0.5749551
0.5444989 -0.8558282 -0.5704668
0.547302 -0.8439883 -0.5740575
0.5571952 -0.8338164 -0.5780969
0.6967723 -0.8339041 -0.5700179
0.945175 -0.8211004 -0.5722621
0.594872 -0.7854958 -0.5727109
0.8477266 -0.7861973 -0.5736086
0.8717177 -0.777867 -0.5798923
0.7157344 -0.7624325 -0.5722621
0.6388144 -0.7526096 -0.5709156
0.6947937 -0.7519072 -0.5709156
0.8849911 -0.7569944 -0.5798923
0.9749371 -0.7505926 -0.5794435
0.6414527 -0.7448055 -0.5754039
0.6522528 -0.7462955 -0.5798923
0.6610742 -0.7480494 -0.5794435
0.7928191 -0.7408574 -0.5736086
0.7272765 -0.7349827 -0.5754039
0.9003257 -0.7113047 -0.5763016
0.709716 -0.7068322 -0.5758528
0.7404674 -0.7084975 -0.5740575
0.8991714 -0.7009574 -0.5722621
0.720681 -0.6842057 -0.5722621
0.902799 -0.6835935 -0.5794435
0.7338719 -0.657809 -0.5722621
0.880869 -0.645094 -0.5709156
0.8489633 -0.6383405 -0.5722621
0.89406 -0.6239592 -0.5704668
0.9419597 -0.5957218 -0.5785458
0.8060101 -0.5869522 -0.5785458
0.9879632 -0.5834877 -0.5758528
0.9896945 -0.548628 -0.5700179
0.9483079 -0.5188999 -0.5763016
0.939239 -0.4934662 -0.5789946
0.7165588 -0.9995615 -0.5632855
0.2110969 -0.9878988 -0.5650808
0.304588 -0.9811904 -0.5635099
0.3147286 -0.9899158 -0.5677738
0.4921472 -0.983514 -0.5686715
0.6198524 -0.9831632 -0.5637343
0.2117565 -0.9795685 -0.5601436
0.2428377 -0.9757094 -0.5637343
0.273177 -0.9796562 -0.5601436
0.3055773 -0.9767613 -0.5614901
0.3253638 -0.9722888 -0.5632855
0.4500186 -0.973428 -0.5646319
0.2132404 -0.9633438 -0.5614901
0.2852962 -0.9587836 -0.5605925
0.5043489 -0.9507164 -0.5646319
0.5479616 -0.9504524 -0.5668761
0.6548085 -0.957469 -0.5650808
0.8438518 -0.9555384 -0.5628366
0.2240406 -0.9437876 -0.5628366
0.2467126 -0.9415075 -0.5686715
0.400305 -0.9482601 -0.5668761
0.224865 -0.9337893 -0.5610413
0.3289089 -0.9330886 -0.5641831
0.3303104 -0.9302823 -0.5605925
0.3918958 -0.9387889 -0.5650808
0.9470712 -0.93186 -0.5682226
0.2273383 -0.9228272 -0.5623878
0.3516633 -0.9237051 -0.5677738
0.4125067 -0.92888 -0.5668761
0.571458 -0.9250197 -0.5686715
0.7118595 -0.9295799 -0.5691203
0.7544829 -0.9264237 -0.5632855
0.94872 -0.9285284 -0.5632855
0.4362917 -0.9123037 -0.5695691
0.8351952 -0.9130061 -0.5650808
0.4158044 -0.9074804 -0.5601436
0.4246259 -0.9099359 -0.5655296
0.4352611 -0.9086213 -0.5691203
0.4990725 -0.9081829 -0.5686715
0.572942 -0.9079189 -0.5659785
0.6165547 -0.9002025 -0.5673249
0.3646069 -0.8952038 -0.5632855
0.404757 -0.8985372 -0.5686715
0.6698957 -0.8923966 -0.5623878
0.7920772 -0.8995009 -0.5686715
0.8381631 -0.8958177 -0.5641831
0.8717177 -0.8901165 -0.5650808
0.9502865 -0.8912575 -0.5601436
0.9721341 -0.8901165 -0.5601436
0.4280061 -0.8885389 -0.5637343
0.4576034 -0.8895044 -0.5686715
0.5630488 -0.8828395 -0.5605925
0.6720393 -0.8858194 -0.5628366
0.8045262 -0.8857317 -0.5664273
0.8610001 -0.8802955 -0.5650808
0.8737788 -0.8848561 -0.5639587
0.3654314 -0.8718775 -0.5664273
0.4379818 -0.8782784 -0.5655296
0.6279319 -0.8745943 -0.5619389
0.8038666 -0.8747697 -0.5601436
0.8267859 -0.8735428 -0.5605925
0.6724514 -0.8625808 -0.5646319
0.8288471 -0.8695974 -0.5646319
0.5888536 -0.8522335 -0.5695691
0.6743476 -0.8597736 -0.5614901
0.5467249 -0.847761 -0.5614901
0.997774 -0.8431122 -0.5623878
0.4951152 -0.8384643 -0.5682226
0.6984212 -0.8332893 -0.5682226
0.866936 -0.8306602 -0.5637343
0.8893607 -0.8372374 -0.5646319
0.5589266 -0.8295193 -0.5614901
0.5679954 -0.8274146 -0.5614901
0.698751 -0.8287292 -0.5646319
0.9131868 -0.8242566 -0.5668761
0.9584484 -0.7947915 -0.5677738
0.5629663 -0.7663779 -0.5628366
0.6374129 -0.7676048 -0.5641831
0.8722124 -0.7583537 -0.5632855
0.6408756 -0.7486633 -0.5601436
0.705264 -0.744453 -0.5637343
0.964879 -0.7391912 -0.5655296
0.9550682 -0.7242837 -0.5664273
0.7200214 -0.711217 -0.5601436
0.9874274 -0.7176188 -0.5655296
0.8563832 -0.6851712 -0.5677738
0.9004081 -0.6850834 -0.5655296
0.8120285 -0.6703514 -0.5682226
0.8492931 -0.6334295 -0.5659785
0.918793 -0.6270276 -0.5637343
0.8882889 -0.5819526 -0.5623878
0.9557278 -0.5865129 -0.5682226
0.9997526 -0.5824797 -0.5655296
0.8318974 -0.5704644 -0.5646319
0.8887835 -0.5775678 -0.5686715
0.9645492 -0.4810142 -0.5601436
0.975102 -0.4880299 -0.5632855
0.2732594 -0.9916697 -0.5529623
0.3646069 -0.993072 -0.5583483
0.2096129 -0.9873726 -0.5525135
0.2220619 -0.980356 -0.5570018
0.2748258 -0.9758835 -0.5592459
0.3062369 -0.9679917 -0.5507181
0.3888042 -0.9631242 -0.5556553
0.5662641 -0.9650092 -0.5561041
0.2766396 -0.9555397 -0.5578995
0.5995713 -0.9518547 -0.5552065
0.6114432 -0.9541357 -0.5529623
0.6223257 -0.9540471 -0.5565529
0.654149 -0.9552324 -0.5558797
0.7094687 -0.9540471 -0.5570018
0.2253597 -0.9435245 -0.5578995
0.5484563 -0.9438314 -0.5583483
0.7112824 -0.9329132 -0.5529623
0.4138258 -0.9280899 -0.5516158
0.5717053 -0.9201104 -0.5556553
0.3834041 -0.9162501 -0.5561041
0.4028608 -0.917918 -0.5574507
0.9595202 -0.9111645 -0.5565529
0.425945 -0.9095868 -0.5534111
0.5297415 -0.9011663 -0.5565529
0.6156478 -0.9080066 -0.5547577
0.7686632 -0.906956 -0.5543088
0.847232 -0.9062535 -0.5596948
0.4795334 -0.8927483 -0.5578995
0.5106146 -0.8950284 -0.5543088
0.5828353 -0.8995886 -0.5556553
0.8250546 -0.8932745 -0.5525135
0.8600932 -0.8900288 -0.5587971
0.4590873 -0.8872243 -0.5525135
0.6706377 -0.881874 -0.5520647
0.8271981 -0.8862588 -0.5520647
0.450101 -0.8718775 -0.5502693
0.5430149 -0.8703849 -0.5583483
0.6710499 -0.8767867 -0.551167
0.7941383 -0.8728403 -0.5516158
0.816563 -0.8772252 -0.5538599
0.8263737 -0.878367 -0.5565529
0.4407024 -0.8621423 -0.5570018
0.5463127 -0.8521458 -0.5596948
0.5882765 -0.8558282 -0.5529623
0.9982687 -0.8538988 -0.5552065
0.5448287 -0.8499534 -0.5552065
0.7964467 -0.8469709 -0.5592459
0.5271034 -0.8300455 -0.5538599
0.6852302 -0.8394299 -0.5570018
0.4965992 -0.8201349 -0.5556553
0.6970196 -0.8280293 -0.5578995
0.7002349 -0.8104023 -0.5556553
0.7437652 -0.8128579 -0.5502693
0.8337112 -0.8120677 -0.5583483
0.9022219 -0.8193474 -0.5578995
0.6041881 -0.7982985 -0.5565529
0.9601797 -0.7933016 -0.5596948
0.5527433 -0.7806715 -0.5556553
0.5609877 -0.7867244 -0.5556553
0.5641205 -0.7707627 -0.5520647
0.6377427 -0.7717279 -0.5536355
0.6061668 -0.7661592 -0.5547577
0.6392267 -0.766905 -0.5596948
0.6914135 -0.7675171 -0.5556553
0.7036976 -0.7508557 -0.5520647
0.7159817 -0.7571698 -0.5587971
0.9728761 -0.7479609 -0.5507181
0.8043613 -0.7334918 -0.5520647
0.7632219 -0.7162604 -0.5534111
0.7425286 -0.7030621 -0.5547577
0.9889526 -0.7085861 -0.5543088
0.8797147 -0.6801725 -0.5502693
0.9702379 -0.673946 -0.5547577
0.7774847 -0.6557043 -0.551167
0.8108743 -0.6563191 -0.5507181
0.8468609 -0.6350532 -0.5543088
0.8075766 -0.5894954 -0.5538599
0.8631436 -0.5802873 -0.5570018
0.8865988 -0.5871267 -0.5531867
0.9861495 -0.5888807 -0.5570018
0.88664 -0.5724806 -0.5502693
0.9396513 -0.5124103 -0.5547577
0.971392 -0.5021481 -0.5543088
0.9717218 -0.4969758 -0.5516158
0.9624882 -0.4761023 -0.5556553
0.3383487 -0.9476458 -0.5495961
0.2251948 -0.9282653 -0.5493717
0.3519106 -0.9184424 -0.5489228
0.4359207 -0.8973962 -0.5462298
0.3760666 -0.8806471 -0.5421903
0.5208376 -0.8808225 -0.5444345
0.3646894 -0.8756475 -0.543088
0.4393833 -0.8745943 -0.545781
0.4386413 -0.8672287 -0.5466787
0.6069912 -0.8663508 -0.5489228
0.7937261 -0.8672278 -0.5480251
0.5876994 -0.8434638 -0.5466787
0.7083144 -0.8413591 -0.5448833
0.5039367 -0.8348696 -0.5466787
0.4961045 -0.8151371 -0.5453322
0.5608228 -0.8066297 -0.5498205
0.8326395 -0.8014565 -0.543088
0.6045179 -0.7934752 -0.5498205
0.8567954 -0.7889168 -0.5435368
0.8826002 -0.7567305 -0.5489228
0.9503689 -0.7529604 -0.5412927
0.7392308 -0.7395429 -0.5471275
0.9544086 -0.7279661 -0.5462298
0.7609959 -0.7165673 -0.5417415
0.9884579 -0.7128823 -0.548474
0.9658684 -0.7015695 -0.5493717
0.8086483 -0.6815765 -0.5435368
0.7760831 -0.6710512 -0.5475763
0.7347788 -0.6647379 -0.5417415
0.8133476 -0.6506197 -0.5453321
0.7918298 -0.6404452 -0.5471275
0.8832598 -0.6379897 -0.5475763
0.9163197 -0.6265032 -0.543088
0.8078239 -0.5842327 -0.5408438
0.9595202 -0.5380168 -0.5466787
0.4942908 -0.8250468 -0.537702
0.5534028 -0.7708505 -0.5399461
0.9635599 -0.7268269 -0.5381508
0.8995012 -0.7140241 -0.5372531
0.9996702 -0.6833304 -0.5368043
0.7359331 -0.6501803 -0.5314183
0.7781442 -0.64483 -0.5354578
0.8023826 -0.6451817 -0.5305206
0.9292634 -0.630361 -0.535009
0.95243 -0.5927393 -0.5332136
0.9874685 -0.5950194 -0.5390485
0.8859805 -0.5768654 -0.5318671
0.9560575 -0.5753754 -0.5305206
0.979554 -0.5598531 -0.5341113
0.9702379 -0.5399461 -0.5381508
0.9499567 -0.5179343 -0.5341113
0.9739478 -0.4968881 -0.5399461
0.9391566 -0.4865382 -0.5359067
0.9618286 -0.4804871 -0.5381508
0.7363453 -0.6454448 -0.5291741
0.7893565 -0.6420255 -0.5282765
0.8088956 -0.569149 -0.5228905
0.9397337 -0.5065329 -0.5287253
0.9405581 -0.4968881 -0.529623
0.9413826 -0.4873283 -0.5287253
0.9380848 -0.4959226 -0.5175045
