# .PCD v.7 - Point Cloud Data file format
VERSION .7
FIELDS x y z
SIZE 4 4 4
TYPE F F F
COUNT 1 1 1
WIDTH 95
HEIGHT 1
VIEWPOINT 0 0 0 1 0 0 0
POINTS 95
DATA ascii
-0.8151614 0.8305725 -0.4501795
-0.8086483 0.8395175 -0.4506284
-0.7956222 0.8385959 -0.4528725
-0.7971887 0.8493387 -0.4506284
-0.7598417 0.8503919 -0.4524237
-0.7807 0.8625808 -0.4519749
-0.7694876 0.8662632 -0.4528725
-0.7930253 0.8051835 -0.4423249
-0.7898512 0.8068068 -0.4470377
-0.7682509 0.8073313 -0.4403052
-0.7974772 0.816672 -0.4413151
-0.7846572 0.8136454 -0.4438959
-0.7678387 0.8123308 -0.4412029
-0.8156561 0.8257483 -0.4416517
-0.8095964 0.8272825 -0.4468133
-0.797491 0.8258942 -0.4464393
-0.7883672 0.8264508 -0.4470377
-0.7753411 0.8243899 -0.4427738
-0.7670143 0.8220659 -0.4438959
-0.7399728 0.827853 -0.4443447
-0.8173462 0.8346925 -0.4450179
-0.8066697 0.8347811 -0.4468133
-0.7961169 0.8338168 -0.4445691
-0.785358 0.8346925 -0.44614
-0.7637166 0.8337721 -0.4427738
-0.7953337 0.8435502 -0.4483842
-0.7855092 0.8434633 -0.4456912
-0.7745717 0.8446907 -0.4437463
-0.7622051 0.8425571 -0.4468881
-0.7496187 0.8441654 -0.4465889
-0.7923245 0.8525843 -0.4456912
-0.7838947 0.8543588 -0.4446813
-0.7739121 0.8528463 -0.4476361
-0.7643761 0.8562666 -0.4483842
-0.7565852 0.8557848 -0.4461401
-0.7746816 0.8658264 -0.4412029
-0.7668494 0.8638094 -0.4427738
-0.7560699 0.8632823 -0.4433348
-0.7662723 0.8710865 -0.4452424
-0.7584401 0.8700358 -0.4456912
-0.7908405 0.7972471 -0.4335727
-0.7858939 0.799001 -0.4317774
-0.8007337 0.8052265 -0.4371634
-0.7962818 0.8034735 -0.4362657
-0.7851519 0.8086484 -0.4358169
-0.7777045 0.8056072 -0.4335727
-0.8107919 0.8152257 -0.4317774
-0.8033307 0.8103138 -0.4385099
-0.7877902 0.8158092 -0.4356673
-0.7752587 0.8155464 -0.4371634
-0.7652417 0.8167152 -0.4322262
-0.7516798 0.8197859 -0.4331239
-0.8103796 0.8201367 -0.432675
-0.8054743 0.8228101 -0.4333483
-0.7943031 0.8282039 -0.4371634
-0.7854816 0.8244917 -0.4367146
-0.7780617 0.8218906 -0.4385099
-0.7643761 0.8265371 -0.4364901
-0.7536172 0.8258575 -0.4344704
-0.804485 0.8350446 -0.4335727
-0.7854817 0.8347815 -0.4385099
-0.7746816 0.8342108 -0.4352558
-0.7616554 0.8308356 -0.4358169
-0.7528958 0.8356801 -0.4332361
-0.7446721 0.8321502 -0.4331239
-0.7374995 0.8353368 -0.4370138
-0.8037017 0.8447775 -0.4389587
-0.7928191 0.8476724 -0.4398564
-0.782019 0.8481117 -0.4376122
-0.7716311 0.8417976 -0.4335727
-0.7653654 0.8467069 -0.4340215
-0.7546477 0.8442961 -0.4340215
-0.745634 0.8460644 -0.43462
-0.7703945 0.8566175 -0.4389587
-0.7649532 0.851531 -0.435368
-0.7540706 0.8517064 -0.435368
-0.7459087 0.8554339 -0.4349192
-0.7750938 0.8610023 -0.4394075
-0.7641288 0.8613539 -0.4394075
-0.7582753 0.8749468 -0.4308797
-0.7950451 0.7950249 -0.4275883
-0.8012284 0.8004909 -0.4290844
-0.7855641 0.8039997 -0.4281867
-0.8060926 0.8155764 -0.4295332
-0.7789686 0.8120677 -0.4286355
-0.7632219 0.8112793 -0.4290844
-0.7567913 0.8173295 -0.4295332
-0.7728678 0.8271506 -0.4263914
-0.7624799 0.8211004 -0.4286355
-0.7450843 0.8274146 -0.429982
-0.7661899 0.8367981 -0.4290844
-0.7443423 0.8371497 -0.429982
-0.8147492 0.840569 -0.4295332
-0.7390659 0.8426728 -0.429982
-0.7492065 0.8543373 -0.4210054
