# .PCD v.7 - Point Cloud Data file format
VERSION .7
FIELDS x y z
SIZE 4 4 4
TYPE F F F
COUNT 1 1 1
WIDTH 658
HEIGHT 1
VIEWPOINT 0 0 0 1 0 0 0
POINTS 658
DATA ascii
0.9859434 0.4352806 -0.625
0.9874685 0.4309396 -0.6108618
0.9987633 0.4305888 -0.6144524
0.9751844 0.6053666 -0.6149012
0.9689187 0.6106293 -0.6126571
0.946824 0.6331377 -0.6134052
0.9781525 0.639833 -0.6193896
0.8865576 0.7327894 -0.6135548
0.8826002 0.7571689 -0.6126571
0.9095593 0.7502409 -0.6113106
0.9896121 0.7775154 -0.6113106
0.9921678 0.8068945 -0.6135548
0.9908488 0.4705783 -0.6090664
0.9406406 0.5973872 -0.6095152
0.9378375 0.6419369 -0.6099641
0.9601797 0.6406206 -0.6054758
0.9750608 0.6450944 -0.6039048
0.9793891 0.6571084 -0.6059246
0.9178861 0.6662297 -0.6095152
0.9145884 0.682364 -0.6059246
0.9647965 0.6948186 -0.6023339
0.8947195 0.7037637 -0.6068223
0.8816109 0.7475241 -0.6054758
0.9026341 0.7422615 -0.6023339
0.8755926 0.7539544 -0.605027
0.9647141 0.7506803 -0.6018851
0.88293 0.7622562 -0.6027828
0.8625665 0.7736576 -0.6014363
0.8867637 0.7720773 -0.6032316
0.9023043 0.7921598 -0.6081688
0.8868049 0.806456 -0.6072711
0.9857373 0.8075066 -0.6045781
0.8661115 0.8130332 -0.6045781
0.8765819 0.8123308 -0.6005386
0.9815326 0.8154011 -0.6081688
0.8417907 0.8338155 -0.6036804
0.8159858 0.8450415 -0.6054758
0.8267859 0.8485503 -0.6036804
0.8584443 0.8480232 -0.6054758
0.8645451 0.8501279 -0.6023339
0.88664 0.9252845 -0.6081688
0.9623232 0.9850039 -0.6063734
0.9573767 0.9951785 -0.6041293
0.9680119 0.9909691 -0.6014363
0.9462467 0.611858 -0.5951526
0.9437734 0.6369382 -0.5947038
0.9596026 0.6357991 -0.5960503
0.9269549 0.646498 -0.5942549
0.9380848 0.6471101 -0.5991921
0.9669401 0.6435154 -0.5996409
0.9168144 0.6564945 -0.5969479
0.9720516 0.650268 -0.5964991
0.9185457 0.6761385 -0.5982944
0.8849911 0.7182327 -0.5920108
0.8952966 0.7137601 -0.5915619
0.885898 0.7279679 -0.5973968
0.9124449 0.7319142 -0.5924596
0.9084051 0.7407715 -0.5911131
0.9417124 0.7446293 -0.5933573
0.9141762 0.7515573 -0.5947038
0.9000783 0.7676925 -0.5991921
0.9705676 0.7636585 -0.5924596
0.8646275 0.7982985 -0.5933573
0.9732058 0.7931253 -0.5951526
0.871223 0.8066314 -0.5920108
0.8717177 0.811453 -0.5942549
0.8934004 0.8164525 -0.5920108
0.9529247 0.8191711 -0.5906643
0.8220042 0.8504795 -0.5929084
0.8565481 0.8560908 -0.5908887
0.994064 0.4305002 -0.5843806
0.9969496 0.4649667 -0.5884201
0.974731 0.6454005 -0.5828097
0.9840884 0.6600032 -0.5816876
0.9744425 0.6799962 -0.5866248
0.9192877 0.6861367 -0.5875224
0.9253885 0.684032 -0.5834829
0.9591079 0.6869242 -0.5888689
0.8989241 0.7032366 -0.5843806
0.93792 0.700518 -0.5875224
0.899831 0.71297 -0.5884201
0.9615813 0.716391 -0.5879713
0.9774104 0.7143749 -0.5848294
0.8853209 0.7231445 -0.5866248
0.9353642 0.74498 -0.5861759
0.8938126 0.7664657 -0.5897666
0.9015623 0.7873365 -0.5893178
0.9947236 0.782778 -0.5879713
0.9765036 0.7970287 -0.5859515
0.9929923 0.7925553 -0.5828097
0.8924111 0.8067191 -0.5839318
0.8768292 0.817418 -0.5879713
0.9478956 0.8182933 -0.5875224
0.9858197 0.8125939 -0.5816876
0.8577023 0.8433753 -0.5807899
0.8479739 0.8535472 -0.5857271
0.9417948 0.8754712 -0.5884201
0.9741127 0.9362466 -0.5857271
0.9745249 0.9410681 -0.5812388
0.9410528 0.9966684 -0.5830341
0.9907663 0.47619 -0.5745063
0.9347871 0.6129094 -0.5763016
0.9835937 0.6551799 -0.5754039
0.9169793 0.6616685 -0.5749551
0.9737005 0.6725872 -0.5785458
0.985325 0.674823 -0.5794435
0.9087349 0.6927139 -0.5763016
0.9265427 0.6990281 -0.5740575
0.9639722 0.6902584 -0.5745063
0.9313245 0.7007811 -0.5749551
0.8967806 0.7334918 -0.5794435
0.901315 0.7327894 -0.5736086
0.9343749 0.7352449 -0.5758528
0.9199472 0.7513819 -0.5736086
0.9756792 0.751909 -0.5776481
0.9707325 0.7687457 -0.5740575
0.9061791 0.7868121 -0.5794435
0.9831815 0.7832147 -0.5758528
0.9949709 0.7878627 -0.5740575
0.9967023 0.8075066 -0.5789946
0.8926584 0.8116283 -0.5709156
0.9919205 0.8121554 -0.5709156
0.8665237 0.8229412 -0.5749551
0.8631436 0.8404804 -0.5700179
0.8221691 0.8553888 -0.5749551
0.971392 0.906692 -0.5731598
0.9244816 0.9322107 -0.5727109
0.9519354 0.9982461 -0.5727109
0.997032 0.4704029 -0.5628366
0.9403108 0.6030883 -0.5605925
0.9328909 0.6467611 -0.5605925
0.9558927 0.6527236 -0.5691203
0.9727936 0.6654395 -0.5619389
0.9842533 0.6651764 -0.5632855
0.980296 0.6749116 -0.5659785
0.9185457 0.6814888 -0.5655296
0.9276969 0.6877582 -0.561939
0.9407642 0.6843381 -0.563061
0.9745249 0.6850834 -0.5601436
0.9042829 0.6968356 -0.5650808
0.9259656 0.6942039 -0.5641831
0.9734119 0.6988947 -0.5666517
0.9535018 0.7006057 -0.5677738
0.9650439 0.7050782 -0.5628366
0.889608 0.7225298 -0.5677738
0.8900202 0.7275293 -0.5686715
0.9619935 0.7265638 -0.5610413
0.9125273 0.7370865 -0.5677738
0.9084051 0.7459438 -0.5641831
0.9161548 0.7443662 -0.5655296
0.9864792 0.7484879 -0.5682226
0.9211015 0.7662902 -0.5619389
0.9682592 0.8001419 -0.5641831
0.8509419 0.8251336 -0.5614901
0.8531679 0.849514 -0.5668761
0.8157385 0.8502156 -0.5619389
0.9665279 0.9121301 -0.5610413
0.9403933 0.9322107 -0.5659785
0.9690837 0.9415075 -0.5677738
0.9621584 0.9900912 -0.5691203
0.9976916 0.4803135 -0.5556553
0.9406406 0.6080853 -0.5534111
0.9211839 0.6401839 -0.551167
0.9435261 0.6424639 -0.5520647
0.9549034 0.6431637 -0.5583483
0.9679294 0.6636856 -0.5556553
0.9793066 0.6651764 -0.5552065
0.9907663 0.6660534 -0.5574507
0.9241518 0.6745599 -0.5565529
0.966363 0.6845134 -0.5527379
0.997032 0.6845564 -0.5561041
0.9305825 0.6961332 -0.5538599
0.9704027 0.6931506 -0.5565529
0.8990065 0.7084098 -0.5587971
0.9536667 0.7058684 -0.5520647
0.910054 0.7127087 -0.551167
0.9497918 0.7159526 -0.5556553
0.9606744 0.7118309 -0.5552065
0.8960386 0.7288439 -0.5534111
0.9670225 0.7297218 -0.5547577
0.8902676 0.732614 -0.5520647
0.9014798 0.7379643 -0.5529623
0.9972793 0.7448047 -0.5502693
0.9871388 0.7583985 -0.5538599
0.9253061 0.7603269 -0.5592459
0.9816975 0.768658 -0.5574507
0.9883754 0.7731305 -0.5552065
0.9896121 0.7878627 -0.5547577
0.9733707 0.8032981 -0.5538599
0.8657818 0.8182056 -0.5570018
0.8612474 0.8211882 -0.5543088
0.9527598 0.8244337 -0.5525135
0.9096418 0.8310987 -0.5529623
0.8210149 0.8458308 -0.5552065
0.8633909 0.8455677 -0.5565529
0.9993405 0.8418853 -0.5583483
0.9913434 0.88161 -0.5507181
0.9707325 0.9019564 -0.5556553
0.8977699 0.9392273 -0.5592459
0.9520178 0.9415951 -0.5556553
0.8351952 0.9519424 -0.5547577
0.9441857 0.5978256 -0.545781
0.9258007 0.6422009 -0.5466787
0.9438559 0.6473732 -0.5493717
0.9380848 0.6576354 -0.5408438
0.9243992 0.6796472 -0.5426391
0.9688776 0.6761819 -0.5469031
0.9910136 0.6710529 -0.5493717
0.9141762 0.688066 -0.545781
0.9358176 0.6837246 -0.545781
0.9518529 0.6862244 -0.5475763
0.9698256 0.6885045 -0.5453321
0.9857373 0.6849958 -0.5489228
0.9191228 0.6914853 -0.5493717
0.9479781 0.696484 -0.543088
0.9750196 0.6952553 -0.540395
0.9817799 0.6972733 -0.543088
0.9483903 0.7013959 -0.5421903
0.9711447 0.7031489 -0.5466787
0.9652088 0.7101655 -0.5439857
0.9169793 0.7223544 -0.5412927
0.9552331 0.7255123 -0.5444345
0.9074158 0.736299 -0.5493717
0.9227091 0.7334042 -0.5424147
0.9237397 0.7457684 -0.5408438
0.9343749 0.7405075 -0.5475763
0.9453399 0.7410346 -0.5439857
0.9765036 0.7669041 -0.5462298
0.9212663 0.7714652 -0.545781
0.9889526 0.7831271 -0.540395
0.9575415 0.8093482 -0.545781
0.8605878 0.8163639 -0.540395
0.9858197 0.8177689 -0.5498205
0.9099715 0.8360956 -0.5489228
0.8677604 0.8428491 -0.5466787
0.9462467 0.8778399 -0.5448833
0.8900202 0.9092352 -0.548474
0.9405581 0.9372103 -0.5498205
0.9510285 0.9933369 -0.5426391
0.9441032 0.6523728 -0.5359067
0.9233274 0.6699997 -0.5300718
0.9644256 0.6650453 -0.536131
0.9624057 0.680874 -0.5314183
0.9367657 0.6962209 -0.5399461
0.9409704 0.6920992 -0.5336625
0.9525949 0.6962209 -0.5354578
0.9988458 0.7093753 -0.5359067
0.8994188 0.7185835 -0.532316
0.9318191 0.7135404 -0.5345601
0.9545736 0.7206882 -0.5309695
0.9612515 0.7220027 -0.5341113
0.9067563 0.7314748 -0.5354578
0.9181335 0.7371742 -0.5314183
0.920277 0.76173 -0.5363555
0.9042005 0.7725158 -0.5327648
0.9644256 0.7973351 -0.5336624
0.9792242 0.8013688 -0.5341113
0.9408054 0.8165398 -0.5365799
0.855229 0.8239953 -0.5336625
0.9474834 0.8237313 -0.5314183
0.9812028 0.8259237 -0.532316
0.852261 0.8449538 -0.535009
0.9521003 0.9465061 -0.5372531
0.9784822 0.9951785 -0.5399461
0.9445978 0.6054114 -0.5282764
0.931984 0.6422886 -0.524237
0.9216785 0.6504434 -0.52693
0.9485552 0.6521097 -0.5233393
0.9556453 0.6582475 -0.524237
0.922503 0.6601769 -0.529623
0.9957954 0.6751747 -0.5260323
0.97436 0.6904338 -0.5246858
0.9074158 0.7044936 -0.5258827
0.9821097 0.7048151 -0.5210952
0.9204419 0.7115678 -0.5228905
0.9212663 0.7213906 -0.5206463
0.9657034 0.7203374 -0.5246858
0.977328 0.7248976 -0.5251346
0.9286863 0.7338426 -0.5251346
0.9510285 0.7358596 -0.5278276
0.9183808 0.7421738 -0.5224416
0.9230801 0.7410346 -0.52693
0.9455048 0.7462069 -0.5251346
0.9907663 0.7491018 -0.5219928
0.9916732 0.7589229 -0.5233393
0.9713096 0.7840049 -0.5291741
0.9567996 0.8045267 -0.5260323
0.9616637 0.804175 -0.5224416
0.9733707 0.8084722 -0.5251346
0.9358588 0.8171541 -0.5264812
0.9915907 0.8175935 -0.5210952
0.992003 0.822415 -0.5255835
0.8268684 0.8639848 -0.5224416
0.9416299 0.8857335 -0.52693
0.9504514 0.9885135 -0.5287253
0.7917474 0.9978953 -0.52693
0.9558102 0.990706 -0.5291741
0.9240694 0.6539079 -0.5177289
0.9372604 0.6529875 -0.5170556
0.9609217 0.666405 -0.5130162
0.928274 0.6770154 -0.510772
0.9342924 0.6718413 -0.5157092
0.9572942 0.6778915 -0.5197486
0.9287687 0.6818396 -0.5179533
0.9083227 0.6983256 -0.518851
0.9295931 0.6917484 -0.513465
0.9044479 0.7070953 -0.5197486
0.9174739 0.7048585 -0.5172801
0.9161548 0.7177942 -0.5139138
0.9207717 0.7165673 -0.5125673
0.9375902 0.711217 -0.5121185
0.9652088 0.7155132 -0.5148115
0.9738654 0.7143306 -0.5132406
0.9993405 0.7195472 -0.5121185
0.9496269 0.7214783 -0.5170556
0.974731 0.7241079 -0.5136894
0.9997526 0.7243714 -0.5125673
0.9679707 0.7473044 -0.5168313
0.9861495 0.7539259 -0.5197486
0.9089822 0.7611153 -0.5157092
0.9250587 0.7657632 -0.5148115
0.8992539 0.7733936 -0.518851
0.9042829 0.7776031 -0.5121185
0.9211839 0.7766376 -0.5143626
0.9563048 0.7997025 -0.5197486
0.9135166 0.8149617 -0.5112208
0.9805433 0.8211004 -0.5125673
0.915248 0.8346056 -0.5148115
0.946659 0.8878382 -0.516158
0.8311554 0.9130061 -0.5184022
0.9572117 0.9413311 -0.5148115
0.782019 0.9505402 -0.5184022
0.9617462 0.9951785 -0.5143626
0.9560163 0.6657903 -0.5067325
0.9346222 0.67684 -0.5067325
0.9612515 0.671402 -0.5058348
0.9907663 0.6765769 -0.502693
0.9928824 0.682716 -0.5047876
0.9357764 0.6917484 -0.5008976
0.9932396 0.7061315 -0.5022442
0.9098067 0.7182327 -0.5004488
0.9328085 0.7312117 -0.5008976
0.9502865 0.7312994 -0.5022442
0.9953831 0.7305093 -0.5062836
0.967105 0.740069 -0.5031418
0.9792242 0.7496288 -0.5058348
0.9084051 0.7562938 -0.5067325
0.8994188 0.7784809 -0.5008976
0.9046127 0.7826026 -0.5035906
0.9478544 0.8047889 -0.5049372
0.9959602 0.8130332 -0.5008976
0.9409704 0.8241706 -0.5058348
0.9748547 0.8282915 -0.508079
0.9968671 0.8228535 -0.5067325
0.8750154 0.8661772 -0.5040395
0.8976874 0.9493133 -0.5013465
0.7822664 0.9555397 -0.5085278
0.9669401 0.9962299 -0.505386
0.9474834 0.6451374 -0.4937164
0.9262954 0.6577231 -0.4901257
0.9462055 0.6576793 -0.4916966
0.9386619 0.6729823 -0.4923698
0.9498743 0.6721921 -0.4968582
0.9563873 0.673419 -0.4905745
0.979554 0.6806986 -0.4910233
0.9800487 0.6854343 -0.4982047
0.9468238 0.6921869 -0.4964093
0.9858197 0.6954308 -0.4991023
0.9966198 0.6902584 -0.497307
0.9708149 0.7086729 -0.4964093
0.9861495 0.7004303 -0.4928187
0.8943073 0.7197226 -0.4982047
0.9270374 0.7193719 -0.4982047
0.899831 0.7286677 -0.4986535
0.9246465 0.7278793 -0.4970826
0.9322313 0.7262999 -0.4910233
0.9657034 0.7254246 -0.4968582
0.9666103 0.7352449 -0.5
0.9513583 0.7461192 -0.4914722
0.973618 0.7431393 -0.4914722
0.9900243 0.7445416 -0.497307
0.9430727 0.7509868 -0.4939408
0.9032112 0.7679556 -0.4955117
0.8997486 0.7833024 -0.4977558
0.9107136 0.7858465 -0.4910233
0.9062616 0.8022466 -0.4991023
0.9789768 0.8068068 -0.4923698
0.9854075 0.8231174 -0.4982047
0.9669813 0.8343865 -0.4934919
0.8732017 0.8466192 -0.4991023
0.823076 0.8806462 -0.4950628
0.8182118 0.8901183 -0.4910233
0.9577889 0.8936253 -0.491921
0.796323 0.9974147 -0.497307
0.9976091 0.4912755 -0.4887792
0.9687539 0.5530997 -0.4869838
0.9222556 0.6657026 -0.4833932
0.9330558 0.6625447 -0.4869838
0.9389917 0.6779792 -0.4856373
0.9613339 0.6764892 -0.4883303
0.9462467 0.6873636 -0.4856373
0.9138464 0.6960889 -0.4833932
0.980296 0.6906092 -0.4833932
0.9917557 0.691573 -0.4874327
0.9750196 0.7057807 -0.481149
0.9863968 0.705429 -0.4807002
0.9710623 0.7136725 -0.4851885
0.8969042 0.724371 -0.486535
0.9316542 0.7214783 -0.4807002
0.9718043 0.7234953 -0.483842
0.9836761 0.7298095 -0.4874327
0.9727111 0.7332287 -0.4878815
0.9738654 0.7479609 -0.4824955
0.9190404 0.7573452 -0.4815978
0.9342924 0.7509434 -0.486535
0.9709799 0.7893552 -0.4802513
0.9491323 0.7956694 -0.481149
0.9064265 0.8072435 -0.4851885
0.9500391 0.8053142 -0.4883303
0.8769941 0.8378496 -0.483842
0.8871347 0.8320625 -0.4815978
0.8883713 0.8467069 -0.481149
0.8685849 0.8628439 -0.4856373
0.8276104 0.8788932 -0.4847397
0.8280226 0.8838901 -0.4842908
0.9025517 0.8852064 -0.4878815
0.9572942 0.8886257 -0.4860862
0.7926543 0.8970445 -0.483842
0.8029597 0.8926597 -0.4842908
0.8135949 0.8945908 -0.4820467
0.823818 0.8903796 -0.4878815
0.9723814 0.9957029 -0.4847397
0.9320664 0.6527236 -0.475763
0.9266664 0.6652637 -0.47307
0.9375077 0.6634225 -0.4717235
0.9440207 0.662984 -0.4753142
0.9183808 0.6974478 -0.470377
0.9046127 0.7174425 -0.4753142
0.9272023 0.7244591 -0.4780072
0.9493796 0.7268269 -0.4708259
0.9729585 0.7383151 -0.478456
0.9620759 0.7421738 -0.4793537
0.9562224 0.7508557 -0.470377
0.990519 0.7544504 -0.4766607
0.9054372 0.7975978 -0.4717235
0.9661157 0.7911091 -0.4748653
0.9178861 0.8164525 -0.4739677
0.8924111 0.8272383 -0.4744165
0.9183808 0.8213635 -0.4735188
0.9854899 0.8282039 -0.4775583
0.9699081 0.8351327 -0.4775583
0.8671833 0.8482872 -0.4789048
0.8777361 0.8476724 -0.4775583
0.8877942 0.8418853 -0.4735188
0.9154953 0.8446898 -0.4789048
0.939239 0.8665262 -0.478456
0.8798797 0.8722283 -0.4753142
0.9919205 0.9016925 -0.478456
0.9879633 0.5166189 -0.4609515
0.9378375 0.668422 -0.4663375
0.9442681 0.6679827 -0.4658887
0.9272023 0.6727192 -0.4672352
0.9455872 0.6827157 -0.467684
0.9567996 0.6835049 -0.4614004
0.9840059 0.6811371 -0.462298
0.9166495 0.7055163 -0.4629713
0.9877983 0.7251607 -0.4645422
0.994229 0.7262121 -0.4609515
0.9768333 0.7304216 -0.462298
0.9505338 0.7414713 -0.4685817
0.9294283 0.7540137 -0.4645422
0.9565522 0.7557667 -0.4600539
0.9091471 0.7714652 -0.4694794
0.9098067 0.7812854 -0.4605027
0.9147533 0.782251 -0.4614004
0.9506162 0.8154011 -0.4694794
0.8863927 0.8272383 -0.4663375
0.9149182 0.8399543 -0.4685817
0.9745249 0.8336401 -0.4605027
0.9919205 0.8328526 -0.4614004
0.877159 0.8428491 -0.4672352
0.8833423 0.8461825 -0.4667864
0.9203594 0.8458308 -0.4640934
0.970073 0.8401297 -0.4658887
0.9983512 0.847497 -0.4658887
0.8679253 0.8581083 -0.4685817
0.8783132 0.8575812 -0.4614004
0.9324787 0.8593369 -0.4690305
0.8906798 0.8762614 -0.464991
0.9403108 0.881261 -0.4636445
0.8491282 0.9425607 -0.4685817
0.8289295 0.9542226 -0.4609515
0.9966198 0.4870644 -0.4519749
0.9322313 0.6579844 -0.4582585
0.9496269 0.6775424 -0.451526
0.9508636 0.6922746 -0.4524237
0.9846655 0.6910459 -0.4528725
0.9081029 0.7249269 -0.4564632
0.9937343 0.7213906 -0.4533214
0.9388268 0.7363867 -0.4524237
0.9775754 0.7404199 -0.4551167
0.90857 0.766641 -0.4582585
0.9129395 0.7627833 -0.4528725
0.9138464 0.7725158 -0.456912
0.9653737 0.7863727 -0.451526
0.9437734 0.7950546 -0.4533214
0.9342924 0.812857 -0.4524237
0.9029639 0.8279408 -0.4591562
0.8871347 0.8371497 -0.454219
0.9856548 0.8332034 -0.4591562
0.8934004 0.8420607 -0.454219
0.9197823 0.8411829 -0.454219
0.9925801 0.8425851 -0.4519749
0.8627313 0.8561789 -0.4564632
0.8883713 0.8517941 -0.4546679
0.8262913 0.8694211 -0.4533214
0.8848262 0.8659141 -0.4524237
0.9273672 0.8603884 -0.451526
0.8852385 0.8708234 -0.4555655
0.9286038 0.8750328 -0.4551167
0.9687539 0.897747 -0.4555655
0.7881199 0.9689572 -0.459605
0.8894431 0.9847409 -0.4560144
0.8061751 0.9988608 -0.4510772
0.9625706 0.5688859 -0.440754
0.94872 0.6678073 -0.4483842
0.9448452 0.6781546 -0.4443447
0.99629 0.6957815 -0.4465889
0.9770806 0.7355089 -0.4492819
0.9865205 0.7425246 -0.4459156
0.9403108 0.7560307 -0.4443447
0.9091471 0.7764621 -0.4456912
0.9140113 0.7775154 -0.4403052
0.9691661 0.7749722 -0.4456912
0.8923286 0.8323256 -0.440754
0.9032112 0.8328526 -0.4483842
0.9944763 0.8354388 -0.4481598
0.9928274 0.8475847 -0.4416517
0.8727895 0.8519695 -0.443447
0.9158251 0.8547767 -0.4421005
0.9039532 0.9098499 -0.440754
0.7778144 0.9167762 -0.4447935
0.8339585 0.9573805 -0.443447
0.7997444 0.9853556 -0.4438959
0.8005689 0.9951785 -0.4425494
0.9738654 0.5687105 -0.4362657
0.9582835 0.5723069 -0.4335727
0.9717218 0.5980887 -0.4376122
0.9481429 0.6630717 -0.438061
0.9443505 0.6732454 -0.4398564
0.9497094 0.6827157 -0.4317774
0.9049425 0.7277048 -0.4398564
0.9880044 0.7329214 -0.4362657
0.9389093 0.7414713 -0.4313285
0.9549034 0.7413836 -0.4362657
0.9776578 0.7455071 -0.4317774
0.9836761 0.740069 -0.4362657
0.9339626 0.7562938 -0.4376122
0.9629828 0.7622562 -0.4340215
0.9497094 0.8108408 -0.4340215
0.8670184 0.8536349 -0.4358169
0.9245229 0.8655629 -0.4335727
0.9220083 0.870648 -0.435368
0.816398 0.8806462 -0.4322262
0.964879 0.8858203 -0.4378366
0.9138464 0.900641 -0.4340215
0.9643844 0.5936162 -0.4210054
0.9431964 0.7375259 -0.4281867
0.9448452 0.7570813 -0.4210054
0.9511934 0.7565568 -0.4250449
0.9624882 0.7574329 -0.4254937
0.9425368 0.7855825 -0.4250449
0.9438559 0.8001419 -0.4286355
0.9658408 0.84624 -0.4232496
0.9807906 0.8415346 -0.4201077
0.8985943 0.8514425 -0.4223519
0.9159899 0.8597736 -0.4259425
0.8892782 0.8667016 -0.4254937
0.921019 0.8608268 -0.4254937
0.9231625 0.8853827 -0.4263914
0.7858114 0.8926597 -0.4254937
0.9083227 0.8965201 -0.4259425
0.7766602 0.9071305 -0.4259425
0.8236531 0.900641 -0.4236984
0.8877118 0.905202 -0.4250449
0.7825137 0.9104621 -0.4295332
0.8279402 0.9494887 -0.4228007
0.7919123 0.9610628 -0.4232495
0.8348654 0.9722012 -0.421903
0.8053506 0.9941252 -0.4268402
0.9596026 0.5922122 -0.4120287
0.9413002 0.7180573 -0.4124776
0.9835525 0.7134966 -0.4149461
0.9374253 0.7270023 -0.416517
0.9821097 0.7256877 -0.4142729
0.9290985 0.7595376 -0.4102334
0.9345397 0.7662026 -0.41921
0.9333856 0.8082091 -0.4196589
0.9325611 0.8695088 -0.4187612
0.8974401 0.8961685 -0.4151706
0.9256359 0.9147592 -0.4196589
0.9998351 0.9357195 -0.4169659
0.7900985 0.9415951 -0.4187612
0.7878726 0.9740419 -0.4160682
0.7954574 0.9822564 -0.4147217
0.9764211 0.6033496 -0.4093357
0.9807906 0.710953 -0.4093357
0.937755 0.7320018 -0.4088869
0.9613339 0.7479609 -0.4039497
0.9401459 0.7613783 -0.4017056
0.9114556 0.8111039 -0.4030521
0.9948885 0.8188203 -0.4008079
0.9281092 0.8205734 -0.4043986
0.9521827 0.8453923 -0.4021544
0.8779835 0.8630193 -0.4066427
0.816398 0.8858212 -0.4052962
0.9009027 0.8808216 -0.4084381
0.9445979 0.8837165 -0.4093357
0.9505338 0.8833657 -0.4061939
0.8081537 0.9115153 -0.4066427
0.9924976 0.7170935 -0.3999102
0.9827693 0.7355965 -0.3999102
0.9547384 0.746734 -0.3958707
0.9295107 0.7670361 -0.396544
0.9448452 0.7622562 -0.3963196
0.9559751 0.7612907 -0.3958707
0.9425368 0.7906698 -0.3999102
0.9589431 0.7956694 -0.3949731
0.943691 0.8054019 -0.3936266
0.923245 0.8218029 -0.3990126
0.9362711 0.8475847 -0.3940754
0.9525124 0.8503042 -0.3976661
0.9159075 0.8649486 -0.3927289
0.9430314 0.8692457 -0.3909336
0.9246053 0.8731924 -0.3947487
0.9384146 0.872052 -0.3972172
0.9722989 0.8798561 -0.3927289
0.8053506 0.8823124 -0.3927289
0.9673523 0.8931868 -0.3927289
0.8407189 0.9810585 -0.3900359
0.8967806 0.8370612 -0.3877918
0.9434437 0.8397797 -0.3848743
0.8972752 0.841973 -0.3895871
0.943004 0.8463564 -0.3846499
0.958366 0.8497771 -0.3850988
0.9162373 0.8698596 -0.3859964
0.9935694 0.8676671 -0.3846499
0.8206027 0.8717012 -0.3864453
0.9466177 0.8764368 -0.3880162
0.9613339 0.8839778 -0.3886894
0.8920813 0.9059896 -0.3877918
0.9212663 0.9284407 -0.3895871
0.83367 0.9650539 -0.3850988
0.8200256 0.8668779 -0.3797128
0.823818 0.9106375 -0.3774686
0.8395647 0.9145838 -0.3788151
0.7919948 0.971062 -0.3729802
0.7990024 0.9905297 -0.3698384
