# .PCD v.7 - Point Cloud Data file format
VERSION .7
FIELDS x y z
SIZE 4 4 4
TYPE F F F
COUNT 1 1 1
WIDTH 92
HEIGHT 1
VIEWPOINT 0 0 0 1 0 0 0
POINTS 92
DATA ascii
0.9650439 0.5623963 -0.206912
0.9827693 0.5841446 -0.2051167
0.9873861 0.5600286 -0.1979354
0.992003 0.5606424 -0.1992819
0.9902716 0.5940556 -0.1997307
0.9685065 0.553012 -0.1840215
0.9753494 0.5541529 -0.1813285
0.969331 0.5629225 -0.1808797
0.9896121 0.5894954 -0.1831239
0.9938992 0.5851983 -0.1862657
0.9835937 0.596597 -0.1858169
0.9864792 0.6307118 -0.1858169
0.9732058 0.5297734 -0.1786356
0.9994229 0.5218815 -0.1701077
0.9748547 0.5493296 -0.1768402
0.9995053 0.5746729 -0.1728007
0.9998351 0.5267908 -0.1683124
0.9735356 0.5348606 -0.16921
0.9755142 0.5592402 -0.1660682
0.9836761 0.6018597 -0.1647217
0.9840884 0.5024998 -0.1548474
0.9931572 0.5018868 -0.1561939
0.9996702 0.5797602 -0.1575404
0.9963725 0.5171894 -0.1434022
0.9633126 0.5536267 -0.1436266
0.9915083 0.5663418 -0.1413824
0.9920854 0.571166 -0.1485637
0.9929098 0.5808135 -0.1490126
0.9748547 0.5049544 -0.1368941
0.997403 0.5054815 -0.1328546
0.9619935 0.5391577 -0.1350987
0.9777402 0.53907 -0.1337522
0.9794716 0.5585377 -0.1337522
0.9869739 0.5657297 -0.1395871
0.9876335 0.5756385 -0.1315081
0.9922503 0.5762532 -0.1333034
0.9840884 0.5078936 -0.1261221
0.9943938 0.5218815 -0.1297127
0.9659508 0.5346852 -0.1220826
0.9967023 0.5511712 -0.1234291
0.9880457 0.5804618 -0.1292639
0.9924152 0.6340433 -0.1220826
0.9929098 0.5074108 -0.1149013
0.9934045 0.5122341 -0.1193896
0.9662806 0.5395944 -0.1171454
0.985325 0.5516097 -0.1117594
0.9796364 0.563625 -0.1157989
0.9858197 0.6365865 -0.1135548
0.9926625 0.6390429 -0.1117594
0.9748547 0.5103047 -0.1045781
0.9821098 0.5151728 -0.1039048
0.9975267 0.5132856 -0.1009874
0.9948061 0.5321411 -0.1014363
0.9960427 0.5465224 -0.1054758
0.9855723 0.5566093 -0.1036804
0.9751844 0.5152166 -0.09874327
0.9862319 0.5136364 -0.09560144
0.9943114 0.5273178 -0.0964991
0.97807 0.5493296 -0.09470377
0.9845006 0.5445936 -0.0964991
0.9706501 0.5167066 -0.08303411
0.9865617 0.5186359 -0.08842011
0.9989282 0.5858104 -0.08168761
0.9993405 0.5907223 -0.08034112
0.9906839 0.6200128 -0.08797128
0.9753494 0.5204775 -0.07989228
0.9835937 0.5375775 -0.07495511
0.9826044 0.5279317 -0.06642729
0.987551 0.5335434 -0.06777379
0.9883754 0.5432786 -0.06912029
0.9698256 0.5122341 -0.05879713
0.9753494 0.5257393 -0.0516158
0.9868914 0.5289832 -0.0502693
0.9852839 0.5358678 -0.05408438
0.9989282 0.5384552 -0.05206463
0.9724638 0.5438924 -0.05677738
0.9906839 0.625186 -0.05969479
0.9863144 0.5242476 -0.04263914
0.9760913 0.5355604 -0.0489228
0.9943114 0.5378405 -0.0448833
0.9769158 0.5452956 -0.0462298
0.994229 0.6164164 -0.0435368
0.9835113 0.6229936 -0.04129264
0.9755142 0.5308248 -0.03815081
0.9895297 0.615892 -0.03859964
0.9930747 0.6071224 -0.02019749
0.9928274 0.6308876 -0.02087074
0.9835113 0.6281686 -0.01615799
0.9985985 0.5966848 -0.00448833
0.9958779 0.6044471 -0.001122083
0.9998351 0.6110678 -0.003590664
0.9942701 0.6242665 -0.001570916
