# .PCD v.7 - Point Cloud Data file format
VERSION .7
FIELDS x y z
SIZE 4 4 4
TYPE F F F
COUNT 1 1 1
WIDTH 995
HEIGHT 1
VIEWPOINT 0 0 0 1 0 0 0
POINTS 995
DATA ascii
0.4560369 0.2393223 -0.6122082
0.2360773 0.466896 -0.5969479
0.4137433 0.4699636 -0.5920108
-0.2787831 0.1843385 -0.5848294
0.4599118 0.248355 -0.5812388
0.4688157 0.2695793 -0.5812388
0.4357558 0.2875123 -0.5852783
0.4494414 0.2877307 -0.5803411
0.4517911 0.2928618 -0.5864004
-0.04208747 0.3504353 -0.5893178
-0.03507977 0.3545561 -0.5870736
0.1409374 0.4796987 -0.5825853
0.4295725 0.4850473 -0.5830341
0.269467 0.5375775 -0.5888689
-0.2546271 0.1136553 -0.5713645
-0.2267612 0.2207316 -0.5776481
-0.2027701 0.2377447 -0.5745063
0.4547591 0.2327898 -0.5729353
0.4593347 0.2435335 -0.5722621
-0.1621254 0.2664213 -0.5700179
0.4682386 0.2648428 -0.5722621
0.4427635 0.28966 -0.5794435
0.453069 0.2880823 -0.5767505
0.4725257 0.285861 -0.5773489
0.4326229 0.2921155 -0.5767505
0.4430933 0.2947473 -0.5722621
0.4717837 0.3043947 -0.5713645
-0.07547715 0.3350884 -0.5776481
0.0009481017 0.4122612 -0.5727109
0.1186776 0.4767171 -0.5745063
0.4724432 0.2744017 -0.5655296
0.4710417 0.2971589 -0.567325
-0.04670431 0.346489 -0.5641831
-0.1452245 0.3549955 -0.5682226
-0.01743683 0.3997189 -0.5655296
0.05709221 0.451286 -0.5682226
0.07292139 0.4611062 -0.5632855
-0.1660827 0.2617734 -0.5520647
0.4393009 0.2936081 -0.5561041
0.4477101 0.3873546 -0.5574507
0.01174822 0.4198022 -0.5507181
0.03392555 0.4348851 -0.5570018
0.4245435 0.43629 -0.5502693
0.1622903 0.4791726 -0.5583483
0.3940393 0.4933802 -0.5570018
0.3744178 0.5160927 -0.5583483
0.2815862 0.5632742 -0.551167
0.2868626 0.5744116 -0.5502693
-0.1866112 0.2487944 -0.5417415
-0.1557772 0.2698424 -0.5444345
0.4552949 0.3185121 -0.5408438
0.4613958 0.3100941 -0.5498205
0.4474628 0.3472331 -0.5433124
0.4557072 0.3432872 -0.5421903
0.4453193 0.3631504 -0.5421903
0.4370749 0.3891962 -0.5408438
0.4344367 0.3956414 -0.5446589
0.4415269 0.3940637 -0.5460054
0.4363879 0.404952 -0.5447338
0.442104 0.4013868 -0.5435368
0.4328703 0.4144965 -0.5437613
0.4319222 0.4248443 -0.5462298
0.4241312 0.4313781 -0.5489228
0.4305618 0.4328689 -0.540395
0.4224274 0.4433925 -0.5453321
0.4158869 0.4568977 -0.5439857
0.4059936 0.4652727 -0.5419659
0.4144853 0.463738 -0.5475763
0.1068882 0.4732101 -0.5471275
0.113731 0.4749632 -0.5412927
0.4042624 0.4759573 -0.5448833
0.2430026 0.4816281 -0.5426391
0.424461 0.481365 -0.5426391
0.3871965 0.4942563 -0.5421903
0.4360031 0.4917123 -0.5493717
0.3778804 0.5096032 -0.5417415
0.3837339 0.5022376 -0.5426391
0.2608104 0.5199504 -0.5480251
0.3675749 0.515478 -0.5412927
0.3533946 0.5253885 -0.5426391
0.3684818 0.5253008 -0.5417415
0.3538893 0.5303004 -0.543088
0.3350646 0.5448571 -0.5433872
0.3464282 0.5434535 -0.5433124
0.3260646 0.5573091 -0.5412927
0.3344326 0.5534514 -0.5471275
0.3075559 0.5683588 -0.5426391
0.3179438 0.5627471 -0.548474
0.3243745 0.5621333 -0.543088
0.2972505 0.5730067 -0.5435368
0.3080506 0.5732707 -0.545781
-0.2761449 0.1867045 -0.5341113
-0.2585844 0.198369 -0.5399461
0.4524094 0.3089988 -0.530745
0.4524644 0.3153848 -0.5372531
0.4615607 0.3154445 -0.5318671
-0.07679624 0.3260548 -0.5385997
0.4429834 0.3259672 -0.5335128
0.4540789 0.326143 -0.5357944
0.4449345 0.3346491 -0.5335129
0.4556522 0.336783 -0.5362059
0.4367451 0.3449968 -0.5309695
0.4438353 0.3486814 -0.5327648
0.4543056 0.3484183 -0.5390485
0.4376932 0.3548635 -0.5327648
0.448246 0.3572313 -0.5354578
0.4548827 0.3556953 -0.5383753
0.4369925 0.3683683 -0.5320916
0.4479849 0.3674183 -0.5351586
0.437652 0.3757795 -0.532316
0.4498537 0.3744632 -0.5354578
0.4503483 0.3793751 -0.5390485
0.4260274 0.3835845 -0.5318671
0.4425986 0.3839049 -0.5363555
-0.02205367 0.3958611 -0.532316
0.4379818 0.399019 -0.5399461
-0.01092378 0.4033161 -0.5381508
0.4216579 0.4070862 -0.537702
0.4320458 0.4073493 -0.5305206
0.41869 0.4174344 -0.537702
0.4256771 0.4150447 -0.5365798
0.4192671 0.4249328 -0.5343357
0.4253129 0.4238362 -0.5335128
0.4097036 0.4364654 -0.5305206
0.4199266 0.4322542 -0.5363555
0.4203388 0.4372537 -0.5336625
0.414609 0.4446207 -0.5343357
0.3946164 0.4589138 -0.5332136
0.4031081 0.4567666 -0.5359067
0.4126441 0.4531855 -0.5336625
0.09097654 0.4679475 -0.5368043
0.3952348 0.466325 -0.530745
0.4015829 0.4630803 -0.5345601
0.4120945 0.4609309 -0.5399461
0.3857125 0.479611 -0.532316
0.3942042 0.476366 -0.5357944
0.4022012 0.4704906 -0.5300718
0.382085 0.4850916 -0.5343357
0.397131 0.4858375 -0.5372531
0.2476194 0.4914492 -0.5318671
0.3746238 0.4984223 -0.5338869
0.3875263 0.4991673 -0.5372531
0.3635627 0.5043414 -0.5326152
0.3773857 0.5048667 -0.5368043
0.3458923 0.5151728 -0.5320916
0.353532 0.5126723 -0.5318671
0.3643596 0.512439 -0.5383005
0.3362463 0.5277563 -0.532316
0.3445525 0.5239851 -0.5322038
0.3559504 0.5227875 -0.535757
0.365239 0.5223192 -0.5368043
0.322066 0.5378405 -0.532316
0.3370708 0.5376651 -0.5300718
0.3456449 0.5361761 -0.5365798
0.3561565 0.533368 -0.5370287
0.3381425 0.5474003 -0.5399461
0.3438312 0.5400329 -0.5354578
0.2953543 0.5536267 -0.5305206
0.3146461 0.5524424 -0.5325404
0.3255699 0.5524876 -0.5379264
0.2862031 0.5698514 -0.5345601
0.2943444 0.5662329 -0.53557
0.3070613 0.563625 -0.535009
0.3134919 0.5638872 -0.532316
0.2946123 0.5770423 -0.5353082
-0.1831485 0.2518646 -0.5291741
-0.1522322 0.2770317 -0.5201975
-0.1612185 0.2874676 -0.524237
0.4293252 0.305533 -0.5219928
-0.09196587 0.3146543 -0.5237882
0.4341894 0.3180754 -0.5260323
0.4424132 0.3148297 -0.5240126
0.4308916 0.3229412 -0.524237
0.4447421 0.3204414 -0.5273788
0.4331726 0.3344158 -0.5236386
0.4444536 0.3370612 -0.524237
0.4528216 0.3337712 -0.529623
0.4260274 0.3434187 -0.5210952
0.4326229 0.3425409 -0.5246859
-0.1258502 0.3553463 -0.5233393
0.423719 0.3591163 -0.5228905
0.4332825 0.3500836 -0.521544
0.4444536 0.3560466 -0.5276032
0.4262748 0.3660452 -0.5251347
0.4383115 0.3623602 -0.5278276
0.4187724 0.3777948 -0.5206463
0.4291603 0.3780587 -0.5201975
0.4376108 0.3758229 -0.5282764
0.4461849 0.3757782 -0.5249102
0.4182503 0.3860979 -0.5249851
0.4280473 0.3857317 -0.5260323
0.4333237 0.3861268 -0.5280521
0.4097036 0.3933179 -0.521544
0.4167113 0.3979658 -0.52693
0.4239663 0.3978777 -0.5273788
0.4306443 0.3926172 -0.5291741
0.4106929 0.4031408 -0.5260323
0.4256702 0.4046892 -0.5284261
0.4078074 0.4169073 -0.5201975
0.4147739 0.4128737 -0.5222173
0.4087967 0.4268179 -0.52693
0.4129189 0.427608 -0.5246858
0.4051692 0.4345357 -0.5272292
0.4136197 0.4348855 -0.5289497
0.3891751 0.4447965 -0.5233393
0.3996455 0.4435236 -0.5235637
0.4039738 0.4458475 -0.5237882
0.410322 0.4440059 -0.525359
0.3940393 0.4541782 -0.5237882
0.4024898 0.4520744 -0.524237
0.3735933 0.4656673 -0.5201975
0.3842286 0.4649947 -0.5240874
0.3914011 0.4695251 -0.524237
0.3730162 0.4744373 -0.5251347
0.3824422 0.4751681 -0.5257331
0.3738132 0.482593 -0.5278277
0.3862072 0.4872397 -0.5204219
0.3928851 0.4866715 -0.5226661
0.3505091 0.4962725 -0.5201975
0.3613092 0.4964487 -0.5251346
0.3746376 0.4925027 -0.5255835
0.3828682 0.4950899 -0.5255835
0.2552867 0.5071468 -0.5237882
0.3541641 0.5048968 -0.5246858
0.3660909 0.5008336 -0.529623
0.3728925 0.5042976 -0.5276033
0.3308463 0.5169701 -0.5226661
0.3416052 0.5155656 -0.5278276
0.3566099 0.5167066 -0.5224416
0.3734284 0.5117956 -0.5224416
0.314069 0.5239863 -0.5228905
0.3211592 0.5280203 -0.5260323
0.3356692 0.5230207 -0.5260323
0.2829053 0.5356481 -0.5201975
0.3042582 0.5342458 -0.524237
0.3105239 0.5321411 -0.5210952
0.3215714 0.5330172 -0.5237882
0.3339379 0.5352988 -0.5264812
0.3451502 0.5313966 -0.5289497
0.2732594 0.5457349 -0.524237
0.2946948 0.5488902 -0.5201975
0.3054949 0.5490665 -0.5206463
0.3138629 0.5451417 -0.5264812
0.3247867 0.5453396 -0.5271544
0.2935818 0.5589758 -0.5258079
0.3046979 0.555849 -0.5239378
0.3149759 0.5574419 -0.5282764
0.285626 0.5651149 -0.5246858
0.302733 0.5669127 -0.5235637
0.3034338 0.5742362 -0.5278276
-0.2553691 0.2010876 -0.510772
-0.1554475 0.2804536 -0.5121185
-0.1643514 0.2924671 -0.510772
0.4401253 0.3093057 -0.5192998
-0.1022713 0.316232 -0.5112208
0.4193083 0.3125058 -0.5112208
0.4266458 0.3148736 -0.5132406
0.4317985 0.3145675 -0.5114452
-0.111505 0.3298258 -0.5121185
-0.1079599 0.325177 -0.5157092
0.4231969 0.3275167 -0.5139139
0.434684 0.325704 -0.514587
-0.06995342 0.3305273 -0.5125673
0.4239664 0.3356134 -0.5173549
0.435426 0.3329837 -0.5157092
-0.1205738 0.343331 -0.5152603
-0.1170287 0.3400854 -0.5148115
0.4159693 0.3483306 -0.5166068
0.423774 0.3475112 -0.5146619
0.4431757 0.3439457 -0.518851
0.4166701 0.3556523 -0.5166068
0.4257526 0.3553159 -0.5167565
0.4339008 0.3575378 -0.5184022
-0.02300177 0.3638528 -0.5172801
0.4073128 0.3686744 -0.5139138
0.4134136 0.3635897 -0.513465
0.4260687 0.3661754 -0.5152603
0.4346016 0.3649043 -0.5197486
0.4182777 0.3729715 -0.5179533
0.4263572 0.3753986 -0.518103
0.4089204 0.3860391 -0.5136894
0.4152273 0.3833214 -0.5166068
0.3991508 0.3943711 -0.5152603
0.4057463 0.3948964 -0.5136894
0.413125 0.3958172 -0.5172801
0.4200091 0.3927031 -0.5139138
0.4005524 0.4090155 -0.518851
0.4151999 0.4063554 -0.5182526
0.3966775 0.4116464 -0.516158
0.4012944 0.419012 -0.5125673
0.4119296 0.4180483 -0.5179533
0.3948638 0.428046 -0.5163825
0.4041249 0.424859 -0.5176541
0.4123418 0.4228724 -0.5184022
0.381343 0.4356752 -0.510772
0.3955027 0.4354998 -0.5150359
0.3780453 0.4437433 -0.510772
0.3855683 0.4439403 -0.5152603
0.3932149 0.4470323 -0.5132406
0.3792407 0.455802 -0.5166068
0.3853003 0.4534776 -0.5158588
0.3903294 0.4597917 -0.5139138
0.3763964 0.4620709 -0.5114452
0.3802712 0.4681228 -0.516158
0.390824 0.4647036 -0.5175045
0.3589183 0.4720683 -0.510772
0.363123 0.4716298 -0.5112208
0.3495198 0.4865399 -0.5112208
0.3598252 0.4818034 -0.5130162
0.3643596 0.4838205 -0.5181777
0.3712024 0.4872397 -0.5179533
0.3394617 0.4936863 -0.5152603
0.349932 0.4914492 -0.5143626
0.3545488 0.4945633 -0.5181777
0.3637276 0.4930283 -0.5172052
0.3321242 0.5091213 -0.5132406
0.3417151 0.5033767 -0.5149611
0.3509213 0.5010967 -0.5197486
0.3089575 0.5150851 -0.5143627
0.3241271 0.5160046 -0.5170556
0.334886 0.5157849 -0.5154847
0.292881 0.5294225 -0.5112208
0.3054674 0.5255634 -0.5119689
0.3101117 0.5273178 -0.5197486
0.3234676 0.5249504 -0.5154099
0.3315883 0.5268351 -0.516158
0.2869451 0.5335437 -0.5145123
0.2932932 0.5342458 -0.5112208
0.3045056 0.5393331 -0.5143626
0.3136843 0.5365847 -0.516158
0.3258997 0.5356047 -0.5195242
0.2795251 0.5466545 -0.5112208
0.2899955 0.5447694 -0.5121185
0.2923863 0.5467869 -0.5168313
0.3017849 0.544813 -0.5148115
0.2825755 0.5571784 -0.5118941
0.2909023 0.5545046 -0.516158
0.3020322 0.5596769 -0.516158
0.2849664 0.5602916 -0.5130162
-0.2663341 0.1047094 -0.502693
-0.2346758 0.2156443 -0.5035906
-0.1972464 0.2406386 -0.5076302
-0.1727606 0.3095671 -0.5067325
0.4122594 0.3090426 -0.5076302
0.4226473 0.3093057 -0.5058348
0.4329527 0.308691 -0.5008976
-0.1783668 0.3164074 -0.5094255
-0.102766 0.3114104 -0.505386
-0.09913846 0.3109719 -0.5098743
0.4091265 0.317066 -0.5024686
0.4162579 0.317066 -0.5051616
0.422977 0.3143912 -0.5004488
-0.178037 0.3214069 -0.5049372
-0.108537 0.3205291 -0.5017954
0.3996455 0.3283349 -0.5031418
0.4137846 0.3263622 -0.5074058
0.4203388 0.3250016 -0.5067325
0.4004699 0.3383314 -0.5008976
0.4146914 0.3364025 -0.5024686
0.4217404 0.3396486 -0.5085278
-0.1566841 0.3474527 -0.508079
0.4153922 0.3436818 -0.5089766
-0.1279937 0.353987 -0.5094255
0.4126716 0.3564855 -0.5031418
-0.01413908 0.3693768 -0.5067325
0.3964714 0.3674913 -0.5024686
0.4047158 0.3635016 -0.5040395
0.4162167 0.3667751 -0.5068822
0.3975844 0.3798118 -0.5004488
0.4079311 0.376261 -0.5076301
0.4144441 0.3760856 -0.5047128
0.3980791 0.384636 -0.5062836
0.404757 0.385206 -0.5051616
0.3843934 0.3958611 -0.5004488
0.3993981 0.3994558 -0.505386
0.4266046 0.3939318 -0.508079
0.3876362 0.402205 -0.5022442
0.3971722 0.4044258 -0.5032915
0.4064883 0.4050258 -0.502693
0.003916072 0.4148026 -0.5076302
0.387224 0.412172 -0.5037403
0.3936271 0.415812 -0.508079
0.404015 0.4132258 -0.5078546
0.3767262 0.4289226 -0.5076302
0.3847232 0.4239824 -0.5047876
0.39305 0.4222869 -0.5049372
0.3667505 0.438307 -0.5071813
0.3773857 0.4363329 -0.5080791
0.3878148 0.4327808 -0.5076302
0.3566099 0.447601 -0.5022442
0.3673688 0.4456717 -0.5069569
0.3737032 0.4453215 -0.5068821
0.3403685 0.4591778 -0.5008976
0.3540542 0.4552315 -0.5040395
0.3683994 0.4580386 -0.502693
0.3721505 0.4536534 -0.5013465
0.347706 0.466896 -0.5058348
0.3539443 0.4659883 -0.5041891
0.3669154 0.4658425 -0.5058348
0.3313822 0.4790849 -0.5022442
0.345109 0.4753133 -0.5042639
0.3548236 0.4757819 -0.5052364
0.366668 0.4746119 -0.509201
0.3173667 0.4890831 -0.5017954
0.3352364 0.4852021 -0.5039273
0.3457686 0.4827681 -0.5029174
0.3534771 0.4850035 -0.5042639
0.3602374 0.486803 -0.5085278
0.3073086 0.4980264 -0.5062836
0.3115957 0.4996067 -0.5049372
0.3252401 0.4946071 -0.5020198
0.3439136 0.4983772 -0.5049372
0.3017849 0.509954 -0.5040395
0.3188919 0.5062273 -0.5024686
0.3272875 0.5046048 -0.5044883
0.3336906 0.5036398 -0.5062836
0.3448205 0.5082 -0.5076302
0.2770518 0.5198628 -0.5013465
0.3026094 0.5198628 -0.5013465
0.3162125 0.5140314 -0.5049372
0.3200049 0.5184605 -0.5058348
0.3408632 0.5109195 -0.5089766
0.2778763 0.5296856 -0.5013465
0.2859282 0.5238977 -0.504638
0.2965635 0.5234589 -0.5070317
0.3143163 0.5290709 -0.5085278
0.2678181 0.5340704 -0.5049372
0.2752793 0.5353642 -0.5056105
0.2890061 0.5351237 -0.502693
0.2975803 0.5349478 -0.5085279
0.2725998 0.5411747 -0.5035906
0.2834 0.5431913 -0.5071813
0.2820809 0.5522679 -0.5060593
-0.2487736 0.2050339 -0.4977558
-0.2142298 0.2297643 -0.4955117
-0.1536749 0.284136 -0.4964094
-0.162043 0.2962092 -0.496559
-0.1667835 0.304482 -0.4982047
0.3976668 0.3087795 -0.4923698
0.4047776 0.3074408 -0.4940529
0.4150212 0.30492 -0.4950628
0.4219877 0.3047455 -0.4928187
-0.1725133 0.314742 -0.4928187
0.3981615 0.3139519 -0.4905745
0.4023661 0.3173295 -0.4955117
0.4129189 0.3193022 -0.4932675
-0.1812111 0.3267125 -0.4961849
-0.1777897 0.3266696 -0.4932675
0.3990684 0.323687 -0.494614
0.4053616 0.3263764 -0.4931179
0.4101158 0.3296495 -0.4941652
-0.1176883 0.3357005 -0.4932675
0.3954409 0.3332754 -0.4937163
0.4041799 0.337105 -0.4977558
0.4108166 0.3369292 -0.4995512
0.3941218 0.3430236 -0.4932675
0.4030669 0.3464881 -0.4957361
0.411641 0.3467512 -0.4957361
-0.1302197 0.3526277 -0.4901257
-0.03244157 0.3571879 -0.4941652
0.4047295 0.3572162 -0.497307
-0.1359083 0.361221 -0.4968582
0.3851354 0.3611333 -0.4941652
0.3957706 0.3602555 -0.497307
0.4030257 0.3680622 -0.4937163
0.3842492 0.3737175 -0.4916966
0.3943966 0.3750773 -0.493866
0.4037265 0.3756028 -0.4950628
0.3829919 0.3813044 -0.4914722
0.3954409 0.3865656 -0.4943148
0.3775506 0.3964758 -0.4955117
0.3881858 0.395598 -0.4941652
0.3951935 0.3971756 -0.5
-0.007461148 0.4071739 -0.4905745
0.3782514 0.4038853 -0.4959605
0.3852178 0.4058576 -0.4964093
0.3790758 0.4137954 -0.4930431
0.02609341 0.4299741 -0.4968582
0.3668329 0.4264376 -0.4938659
0.378004 0.4226957 -0.4977558
0.3576817 0.4378238 -0.4903501
0.3703368 0.4340537 -0.4975314
0.3806835 0.4310273 -0.4968582
0.3392968 0.4494444 -0.4914722
0.3560328 0.4428672 -0.491921
0.3606496 0.4473397 -0.494614
0.3467167 0.4572485 -0.4982047
0.3574344 0.4575116 -0.4982047
0.3635902 0.4541204 -0.4986535
0.2342636 0.4636503 -0.4995512
0.3409456 0.4666763 -0.4964094
0.357929 0.4624234 -0.4986535
0.3621337 0.4620718 -0.5
0.3267653 0.4755779 -0.4928187
0.337483 0.4742173 -0.4986535
0.4233068 0.477331 -0.4937163
0.3168721 0.4842598 -0.4968582
0.3211592 0.4868898 -0.4952872
0.3429243 0.4887323 -0.497307
0.3067315 0.4933802 -0.491921
0.3155805 0.4960687 -0.4925195
0.3251989 0.4946948 -0.4986535
0.3328662 0.4963606 -0.4979802
0.3434189 0.4935539 -0.5
0.2858733 0.5009212 -0.4923698
0.2965085 0.5010967 -0.4914722
0.3044231 0.5040998 -0.4975314
0.3121316 0.5071911 -0.4991024
0.3226431 0.5039915 -0.4928187
0.2733831 0.5158739 -0.4928187
0.2871924 0.5155656 -0.4959605
0.2938209 0.514269 -0.4947038
0.3021147 0.5150412 -0.4959605
0.3131621 0.519426 -0.4941652
0.2673235 0.5292472 -0.4995512
0.27429 0.5257388 -0.4968582
0.2812564 0.5211791 -0.497307
-0.2385506 0.2121373 -0.4878815
-0.1530566 0.2728232 -0.4842908
-0.1550352 0.2908009 -0.4887792
-0.1034255 0.3070256 -0.4802513
0.386537 0.3036923 -0.481149
0.3939569 0.3050077 -0.4885548
-0.1696278 0.3117595 -0.483842
-0.1091141 0.315883 -0.489228
0.3950287 0.3175479 -0.4847397
-0.1156272 0.3231604 -0.4863106
0.381343 0.321934 -0.4820467
0.3921843 0.3235117 -0.4831688
-0.1215219 0.3364464 -0.4856373
-0.1182654 0.330879 -0.4833932
-0.05931819 0.3371046 -0.4851885
0.3859599 0.3351318 -0.4833932
-0.1274166 0.3438576 -0.4840664
0.3904943 0.3482429 -0.4815978
0.4051692 0.3494698 -0.489228
-0.1504184 0.3503467 -0.4860862
-0.1364854 0.3564855 -0.4847397
0.3826209 0.3565293 -0.4867594
0.4016241 0.3535029 -0.4874327
0.3832804 0.3639843 -0.4860862
0.3920607 0.3653866 -0.4829444
0.3751597 0.3721831 -0.4860862
0.3857675 0.3844314 -0.4853382
0.3668329 0.3973511 -0.4878815
0.3735109 0.3973523 -0.4851885
0.3857125 0.3910812 -0.4847397
0.394534 0.3924418 -0.4874327
0.3637825 0.4091032 -0.4878815
0.3744178 0.4072182 -0.4869838
0.3556206 0.4157681 -0.4849641
0.3669704 0.4144238 -0.4847397
0.3753246 0.4170389 -0.4881059
0.3690589 0.4219946 -0.4847397
0.3490251 0.4386578 -0.4860862
0.3592481 0.4327812 -0.4878815
0.3660085 0.4338345 -0.4878815
0.328002 0.4450596 -0.4807002
0.3349272 0.4474274 -0.483842
0.3467717 0.44462 -0.486535
0.360155 0.4425164 -0.489228
0.05997774 0.4536538 -0.4824955
0.3369334 0.4547047 -0.4856374
0.3502617 0.4533899 -0.4847397
0.3298157 0.4646159 -0.4833932
0.3364937 0.4646593 -0.489228
0.346964 0.4624234 -0.486535
0.3091224 0.4754025 -0.483842
0.3173393 0.4762786 -0.4854878
0.3232203 0.4753144 -0.4827199
0.3307226 0.474437 -0.4887792
0.2844718 0.4861883 -0.4829443
0.295107 0.4865399 -0.4807002
0.307927 0.4843471 -0.4885548
0.3100293 0.4852227 -0.4856373
0.3273012 0.4830746 -0.4874327
0.2784534 0.4920639 -0.4815978
0.2871512 0.4932913 -0.4829443
0.2957253 0.493817 -0.4804758
0.300136 0.4955727 -0.4815978
0.310359 0.4901346 -0.4824955
0.2654273 0.5097786 -0.483842
0.2776701 0.5060072 -0.4858618
0.2862031 0.5059199 -0.4869838
0.2969207 0.5060962 -0.4869838
0.2595738 0.5160927 -0.4887792
0.2697143 0.511971 -0.4860862
0.2759801 0.5103047 -0.483842
0.2836473 0.5135938 -0.4860862
0.2666639 0.5245107 -0.4851885
0.2706212 0.5217938 -0.4878815
-0.2632837 0.1082164 -0.47307
-0.2078816 0.2337106 -0.4780072
-0.1942784 0.2441456 -0.4735188
-0.1462138 0.2775588 -0.478456
-0.1519848 0.2879061 -0.475763
-0.1531803 0.2944407 -0.4755386
-0.1621254 0.3057531 -0.4766607
0.379859 0.3074623 -0.4721723
0.3868667 0.3088672 -0.475763
-0.16633 0.3149613 -0.4746409
-0.1163692 0.3160574 -0.4719479
-0.1096912 0.311235 -0.475763
0.3840637 0.3153993 -0.4753142
0.3909889 0.3113227 -0.4775583
-0.1724308 0.3201801 -0.4721723
-0.1225112 0.3268003 -0.4721723
-0.1157509 0.3233796 -0.4750898
0.3861797 0.3264641 -0.4756134
-0.1776248 0.3319305 -0.4789048
0.3753659 0.3375865 -0.4759874
0.3895049 0.3385077 -0.4721723
-0.1307144 0.3478912 -0.478456
-0.0553609 0.3411386 -0.47307
0.3772208 0.345728 -0.4735188
0.3855202 0.3440033 -0.4762118
0.4006348 0.3437695 -0.4793537
-0.140113 0.3568362 -0.4753142
0.3672451 0.3548777 -0.4711251
0.3734284 0.35517 -0.4723968
0.3820438 0.3517933 -0.4771095
0.3929676 0.3544246 -0.478456
0.3594542 0.3627553 -0.4710503
0.3639474 0.3681499 -0.4721723
0.3730987 0.3651379 -0.4754638
0.3814254 0.3669204 -0.4753142
0.3643596 0.3731469 -0.4717235
0.372659 0.3744342 -0.4748654
0.3550435 0.3886691 -0.475763
0.3655963 0.3852941 -0.4764363
0.3761491 0.3846794 -0.4739677
0.3539305 0.3987117 -0.4753142
0.363755 0.3956854 -0.4733692
0.3747888 0.3911259 -0.4762118
0.3528175 0.4086647 -0.4793537
0.366036 0.4047184 -0.4787552
0.3471289 0.419012 -0.4798025
0.3554145 0.415944 -0.4732944
0.3646069 0.4191874 -0.4798025
0.3369059 0.4250648 -0.4793537
0.3456449 0.4261159 -0.4764363
0.3563832 0.4257215 -0.4780072
0.3249516 0.4360256 -0.4706014
0.3366036 0.4375753 -0.4741173
0.3457549 0.4350032 -0.4771095
0.3550435 0.4333074 -0.478456
0.3275073 0.4401477 -0.478456
0.3386372 0.4447965 -0.4766607
0.3497671 0.4486543 -0.4789048
0.3067315 0.4510221 -0.470377
0.3274524 0.4554355 -0.4748654
0.3459747 0.4526883 -0.4793537
0.3076384 0.4608432 -0.4744165
0.3179851 0.4662808 -0.4743043
0.325405 0.463606 -0.475763
0.3301455 0.4697005 -0.4798025
0.2874397 0.4759287 -0.470377
0.2962612 0.4763659 -0.4773339
0.3066078 0.472288 -0.4739677
0.2463828 0.4876791 -0.4708259
0.2758152 0.4866263 -0.4732944
0.2859145 0.4811891 -0.4726212
0.2974429 0.4829143 -0.4724716
0.3055773 0.4838205 -0.4717235
0.4275115 0.4820674 -0.470377
0.2637372 0.4927659 -0.4719479
0.2764747 0.493906 -0.4748653
0.2870275 0.4933802 -0.4759874
0.2995589 0.490837 -0.4726212
0.2542149 0.5030259 -0.4789048
0.2661418 0.5041072 -0.4757631
0.2770931 0.5013597 -0.4723968
0.2896657 0.5004819 -0.4739677
0.2901604 0.5053937 -0.4762118
0.2589967 0.5112686 -0.4793537
0.2659631 0.5172332 -0.4786804
0.2801847 0.5116193 -0.4793537
-0.1774599 0.2559855 -0.4681329
-0.1460489 0.2827337 -0.4663375
-0.1514077 0.2979929 -0.4640934
-0.1603941 0.3086033 -0.4658887
-0.112934 0.3046572 -0.4619988
0.3769185 0.3045108 -0.4616996
-0.1533864 0.316232 -0.4618492
-0.1216456 0.3156185 -0.4640934
-0.1136485 0.3110597 -0.4631957
0.3734284 0.3180745 -0.4654399
0.3839812 0.3155751 -0.4699282
-0.1721011 0.3252647 -0.467684
-0.1690507 0.3220217 -0.4645422
0.3668329 0.3264065 -0.4614004
0.3740674 0.3254405 -0.4637567
-0.1717713 0.3303519 -0.4631957
-0.1286533 0.3318419 -0.4663375
0.3644833 0.337411 -0.4647666
0.3747888 0.332764 -0.4665619
0.3820026 0.3321059 -0.4663375
-0.1312915 0.3432433 -0.4672352
0.3578466 0.3455234 -0.4654399
0.3641123 0.3460499 -0.464243
0.3722742 0.3429802 -0.4672352
-0.137145 0.3520129 -0.4640934
0.3584237 0.3530653 -0.4611759
0.3625458 0.3534152 -0.4694794
0.3486129 0.3645526 -0.4600539
0.3634527 0.3632381 -0.4690305
0.3700482 0.3606072 -0.4694794
0.3428418 0.3750779 -0.4618492
0.3550023 0.3748587 -0.4631957
0.3625871 0.3765683 -0.4658887
0.3424022 0.3846942 -0.4612508
0.3519381 0.3857754 -0.4660383
0.3613367 0.3849573 -0.4661879
0.3719856 0.382882 -0.4683573
0.3430892 0.3992812 -0.4656643
0.3553733 0.3937564 -0.464991
0.3311348 0.4084885 -0.4636445
0.345851 0.4069547 -0.4674596
0.352158 0.404016 -0.4614004
0.3211592 0.4172581 -0.4614004
0.3315471 0.4133126 -0.4614004
0.3464693 0.4143659 -0.4640934
0.02139412 0.427081 -0.4614004
0.3345975 0.4243619 -0.4645422
0.3455212 0.4262474 -0.4679084
0.3160476 0.4356752 -0.4645422
0.326518 0.4305888 -0.4685817
0.335257 0.4316846 -0.4643178
0.3062369 0.4461111 -0.4685817
0.3147285 0.4430417 -0.4648788
0.3235912 0.4441379 -0.467684
0.3342677 0.4427795 -0.467684
0.3048765 0.4553192 -0.4605027
0.315656 0.4528637 -0.4677962
0.3264768 0.4533026 -0.4688061
0.2755678 0.4628602 -0.4605027
0.2957116 0.4650538 -0.4631957
0.305275 0.4663984 -0.4654399
0.3144812 0.4626856 -0.4643178
0.2414362 0.4781211 -0.4614004
0.2724762 0.4739108 -0.4634201
0.2851725 0.4739112 -0.464991
0.2956016 0.4716307 -0.4636445
0.3050826 0.4789095 -0.4690305
0.2651799 0.4865391 -0.4679084
0.2751969 0.4819354 -0.4614004
0.2881817 0.4859252 -0.4614004
0.2572241 0.4942997 -0.4616248
0.2679006 0.4950899 -0.4643178
0.2744136 0.4959217 -0.4658887
0.2581722 0.5040792 -0.4681329
0.2685601 0.5023235 -0.4681329
-0.2879344 0.1782857 -0.4546679
-0.2810091 0.1826705 -0.4519749
-0.2667464 0.1930204 -0.459605
-0.1744095 0.2580025 -0.4506284
-0.143658 0.286474 -0.4549671
-0.1440428 0.2963264 -0.4525733
-0.1533039 0.3036335 -0.4582586
0.3472113 0.3054453 -0.4555655
0.3554282 0.3057382 -0.4557151
0.3667299 0.3054028 -0.4521993
-0.161672 0.3161004 -0.4546679
-0.1519436 0.3146991 -0.454219
-0.133435 0.3190391 -0.4506284
-0.08908034 0.3178999 -0.4533214
0.3675749 0.315181 -0.4537702
0.3763964 0.3129004 -0.459605
-0.1688033 0.3271063 -0.4582585
-0.1529329 0.3238629 -0.45579
-0.1431634 0.3226338 -0.4501795
-0.1330228 0.3238624 -0.4546679
0.3578466 0.3250902 -0.456912
0.3600726 0.329211 -0.451526
-0.171524 0.3355269 -0.4560144
-0.1684736 0.3322813 -0.4506284
-0.1320335 0.3361833 -0.4553411
-0.128406 0.3369292 -0.4582585
0.3476648 0.3325882 -0.4533214
0.3545214 0.3356433 -0.4549671
0.3639062 0.332675 -0.456912
-0.1612185 0.3429802 -0.4578097
-0.151449 0.3435507 -0.4519749
-0.1411847 0.347365 -0.454219
-0.137887 0.3448214 -0.4546679
0.3472938 0.3498205 -0.4560144
0.3539717 0.3428482 -0.4533214
0.3680696 0.341314 -0.4528725
-0.1406901 0.3521883 -0.4591562
0.3431991 0.3553165 -0.4522741
0.352158 0.3593803 -0.4582585
0.3357242 0.36695 -0.4509276
0.3490251 0.3697276 -0.4551167
0.3527351 0.3669647 -0.4524237
0.3366586 0.3767143 -0.4545183
0.345851 0.3724909 -0.451526
0.3536832 0.3767437 -0.4553411
0.3395441 0.3842843 -0.4546679
0.3231378 0.3962996 -0.4519749
0.3325089 0.3953352 -0.4531717
0.3442846 0.3925725 -0.4537702
0.3511686 0.3943711 -0.4537702
0.3236325 0.4012991 -0.4510772
0.3333058 0.4034325 -0.4576601
0.3415227 0.4064719 -0.4553411
0.3564038 0.4062088 -0.459605
0.3097819 0.4112956 -0.451526
0.3247042 0.4136634 -0.4517505
0.3342952 0.4149497 -0.4558648
0.3424296 0.4162509 -0.4582585
0.3021559 0.4258975 -0.4510772
0.3242371 0.4229885 -0.4545183
0.3323715 0.4233109 -0.4573609
0.303791 0.436026 -0.4551167
0.3129973 0.4326058 -0.4540694
0.3223134 0.4321665 -0.451526
0.0481883 0.4461988 -0.4524237
0.2846366 0.446725 -0.4528725
0.2930871 0.444839 -0.454219
0.3037223 0.4430856 -0.4546679
0.2644379 0.4584754 -0.451526
0.2826855 0.4554063 -0.4545183
0.2931833 0.4540034 -0.4528726
0.3031864 0.4594409 -0.4587074
0.2648502 0.4633864 -0.4528725
0.2737953 0.467334 -0.453097
0.2841213 0.4643302 -0.4541068
0.2926337 0.4623358 -0.4587074
0.2513294 0.4739099 -0.4528725
0.2632837 0.4749638 -0.4552663
0.2765571 0.4752267 -0.4582585
0.2457232 0.4829426 -0.4573609
0.2550119 0.4858962 -0.4546679
0.2645616 0.4818464 -0.4571365
0.2533081 0.4961414 -0.456912
-0.2567707 0.1119891 -0.4447935
-0.134177 0.2886962 -0.4459156
-0.142174 0.2932564 -0.4465889
-0.1335587 0.2961504 -0.4446813
-0.1234181 0.2962381 -0.4481598
-0.1508306 0.3080771 -0.448833
-0.1447298 0.3029898 -0.4483842
-0.1327755 0.3059726 -0.4453546
-0.1228822 0.3036927 -0.445018
0.3441609 0.3024639 -0.4422501
0.3578466 0.3048332 -0.4465889
-0.1551589 0.3159698 -0.4481598
-0.1315388 0.3148297 -0.4425494
-0.1237891 0.3150051 -0.4474865
0.3450403 0.3120234 -0.4441951
0.3568366 0.3153997 -0.4472621
0.3653489 0.3117595 -0.4492819
-0.1627437 0.3259671 -0.4459156
-0.1593223 0.3264499 -0.4434471
-0.1428336 0.3277211 -0.4443447
-0.1360732 0.3283792 -0.4434471
-0.1295602 0.3248709 -0.445018
-0.08223752 0.3218454 -0.4483842
0.3376479 0.3214069 -0.4403052
0.3473488 0.3236862 -0.4428486
0.3553733 0.3213192 -0.4470377
0.3662558 0.32167 -0.4492819
-0.1640491 0.3363153 -0.4455416
-0.1544582 0.3338885 -0.4438959
-0.145513 0.3352634 -0.4425493
-0.1389587 0.3326321 -0.44614
0.3493549 0.3300889 -0.4470377
-0.1579208 0.3438581 -0.4425494
-0.1415969 0.3425409 -0.4479354
0.3355044 0.3401731 -0.443447
0.3464693 0.3427167 -0.4454668
0.3510862 0.3499082 -0.4438959
-0.1472856 0.3525391 -0.4456912
0.3370295 0.3573186 -0.4459156
0.3476236 0.3549955 -0.4474865
0.3514984 0.3547315 -0.4452424
0.3306402 0.3618358 -0.443447
0.3414815 0.3631065 -0.4436715
0.3315471 0.3718323 -0.4403052
0.3286615 0.3842843 -0.4416517
0.3329486 0.386389 -0.4456912
0.3190981 0.3979658 -0.4403052
0.3296508 0.3939318 -0.4492819
0.3402861 0.3943711 -0.4429982
0.3195103 0.4027891 -0.4416517
0.3239622 0.4063838 -0.4447935
0.2991467 0.4154174 -0.4425494
0.3032689 0.4171704 -0.4438959
0.3120079 0.4163829 -0.4421005
0.3204172 0.4125225 -0.4443447
0.2894184 0.4282202 -0.4425494
0.2995589 0.4203283 -0.4438959
0.3035987 0.4219946 -0.4403052
0.3146873 0.4237919 -0.4450179
0.2831526 0.4322542 -0.4416517
0.2920566 0.4351924 -0.4418761
0.3004658 0.4301495 -0.4483842
0.273919 0.4483035 -0.4416517
0.2800198 0.4427795 -0.4412029
0.2930046 0.4449281 -0.4472621
0.3021971 0.4497057 -0.4479354
0.2433324 0.4586508 -0.4416517
0.2596562 0.4516368 -0.4403052
0.2639433 0.4535661 -0.4456912
0.2725999 0.4551657 -0.4454668
0.2849664 0.4517245 -0.4483842
0.2961787 0.4568977 -0.4483842
0.0780329 0.4636503 -0.4412029
0.2399522 0.4638257 -0.4416517
0.2437446 0.4635626 -0.4403052
0.2531157 0.4665446 -0.4418013
0.2631188 0.4673336 -0.4459156
0.2711159 0.4619841 -0.4425494
0.2535966 0.4781641 -0.4468133
0.2656746 0.4732101 -0.4492819
0.282658 0.472156 -0.4452424
0.2521538 0.4839082 -0.4483842
-0.2707036 0.1902133 -0.4362657
-0.1363205 0.2846631 -0.4376122
-0.1423664 0.3066152 -0.4352184
-0.1110928 0.30229 -0.4331239
0.3362463 0.3067625 -0.4340215
-0.1422359 0.3156192 -0.4344704
-0.1243662 0.3104449 -0.4331239
0.3369471 0.3140838 -0.4351436
0.3478709 0.3157075 -0.4371634
-0.1498413 0.3232486 -0.4331239
0.335257 0.3242132 -0.4340216
-0.1455955 0.3353941 -0.4376122
-0.1387114 0.3377193 -0.4371634
0.3359715 0.3324567 -0.4335727
0.3457274 0.3354392 -0.4389587
-0.1479863 0.3453042 -0.4391831
0.3289913 0.3447333 -0.4351436
0.337854 0.3455673 -0.438061
0.3263531 0.359817 -0.4331239
0.3363288 0.3501713 -0.438061
0.3237149 0.368456 -0.4322262
0.3255562 0.3753116 -0.4382107
0.3157179 0.3860394 -0.4365649
0.3242096 0.3860681 -0.4338719
0.3323715 0.3815675 -0.4385099
0.3082155 0.3968266 -0.435368
0.3140965 0.3939905 -0.4337223
0.3225607 0.3916517 -0.4394075
0.3054743 0.4045428 -0.4357046
0.3151683 0.4053907 -0.4361161
0.2883466 0.4184876 -0.4308797
0.295478 0.414233 -0.4340215
0.3026918 0.4124348 -0.432675
0.3134919 0.4115587 -0.4389587
0.2857084 0.4255024 -0.4317774
0.2930459 0.4252402 -0.4320018
0.3106476 0.4238796 -0.4389587
0.3216538 0.427608 -0.4362657
0.2688899 0.4376045 -0.4340215
0.2762274 0.4383065 -0.4349192
0.2834824 0.4373414 -0.4331239
0.2942825 0.4373414 -0.4385099
0.2674609 0.446287 -0.4341712
0.2733419 0.443567 -0.4322262
0.2821633 0.4449267 -0.4371634
0.2393751 0.4590015 -0.432675
0.2533493 0.4555389 -0.4346948
0.2600684 0.4566337 -0.4376122
0.2422194 0.4686928 -0.4367145
0.2502576 0.4644405 -0.4358169
0.2604806 0.4615456 -0.4376122
0.2434423 0.4751388 -0.4370138
0.2548745 0.4725953 -0.4358169
-0.2292345 0.2192416 -0.4250449
0.3357517 0.302026 -0.427289
0.3331135 0.3157075 -0.4277379
-0.144771 0.3256598 -0.4286355
0.3442434 0.3206168 -0.4268402
-0.1585803 0.3392093 -0.4290844
0.3388845 0.3363153 -0.4290844
0.3254462 0.3499959 -0.4281867
0.3392968 0.3412263 -0.429982
0.3284417 0.3548198 -0.4266906
0.3267653 0.3648166 -0.427289
0.3172019 0.3784095 -0.429982
0.3210767 0.3771827 -0.427289
0.3076384 0.3921787 -0.4205565
0.2980749 0.406033 -0.4277379
0.2918917 0.4130495 -0.4259425
0.2785358 0.4283964 -0.424596
0.2756915 0.4336148 -0.4248205
0.3006307 0.4354121 -0.4290844
0.2590791 0.4469012 -0.4290844
0.06624345 0.4583017 -0.4232495
0.2494332 0.4573362 -0.4241472
0.2895008 0.4335705 -0.4183124
0.2627066 0.4442694 -0.4196589
0.1157921 0.4747877 -0.4035009
