# .PCD v.7 - Point Cloud Data file format
VERSION .7
FIELDS x y z
SIZE 4 4 4
TYPE F F F
COUNT 1 1 1
WIDTH 152
HEIGHT 1
VIEWPOINT 0 0 0 1 0 0 0
POINTS 152
DATA ascii
0.2662517 -0.1148821 -0.6122082
0.2503401 -0.08489089 -0.6023339
0.2379735 -0.07278793 -0.6099641
0.2410239 -0.07041925 -0.6041293
0.230636 -0.06892929 -0.6032316
0.2434973 -0.007541881 -0.6054758
0.2423431 -0.1736387 -0.5969479
0.2330269 -0.158818 -0.5906643
0.213158 -0.1475052 -0.5982944
0.221155 -0.1425933 -0.5951526
0.2594913 -0.1004131 -0.5987433
0.247908 -0.09330799 -0.5933573
0.2483202 -0.08839787 -0.5949281
0.237314 -0.07743583 -0.5951526
0.2402407 -0.07743583 -0.5904399
0.2333567 -0.002103834 -0.5951526
0.2366544 0.0007006934 -0.5924596
0.1762233 0.05682808 -0.5982944
0.2889237 -0.245112 -0.5888689
0.2472072 -0.08173295 -0.5821365
0.2344697 -0.06524561 -0.584605
0.2289047 -0.05209248 -0.5888689
0.2725586 -0.05498601 -0.584605
0.2453522 -0.001490399 -0.5875224
0.2441568 0.002980797 -0.5861759
0.1768828 0.06735075 -0.5834829
0.256276 -0.09971069 -0.5798923
0.273919 -0.05577485 -0.5798923
0.2831114 -0.05402136 -0.5749551
0.2747434 -0.04586429 -0.5776481
0.2360773 -0.003859514 -0.5798923
0.1883425 0.04165662 -0.5794435
0.2708685 -0.05314396 -0.5610413
0.2810915 -0.05700172 -0.5641831
0.2713632 -0.04831978 -0.5691203
0.2013686 -0.156801 -0.5574507
0.236572 0.006839434 -0.5502693
0.1883425 0.0474437 -0.5507181
0.2483614 -0.1840737 -0.5448833
0.2154664 0.006839434 -0.540395
0.2331094 0.004297995 -0.5444345
0.2360773 0.03928882 -0.5417415
0.21761 0.06629752 -0.540395
0.2077167 0.07033331 -0.5444345
0.1980708 -0.1589934 -0.5363555
0.2622944 -0.02323952 -0.5385997
0.2065625 0.02244937 -0.5390485
0.1971639 0.03314832 -0.5390485
0.2387567 0.03442124 -0.5359067
0.1849623 0.04867057 -0.5354578
0.1872295 0.05573056 -0.5365799
0.2297292 0.0521793 -0.5300718
0.1894142 0.06279055 -0.5336625
0.1979471 0.06169435 -0.5311939
0.2206604 0.06620983 -0.5368043
0.2506699 -0.1868808 -0.529623
0.2088709 -0.1513629 -0.5233393
0.2510408 -0.0273174 -0.5237882
0.2444041 -0.01867931 -0.5264812
0.2533081 -0.01898581 -0.5217685
0.2126633 0.01175043 -0.5287253
0.2370667 0.01754014 -0.5237882
0.2139824 0.0266588 -0.529623
0.230059 0.0573525 -0.5210952
0.1965868 0.06559771 -0.5228905
0.2078816 0.0758573 -0.5260323
0.210932 0.07462955 -0.5246859
0.2692197 -0.2167861 -0.518851
0.2542149 -0.02547621 -0.513465
0.2536378 -0.01376832 -0.5143627
0.2147244 0.002542316 -0.5166068
0.233604 0.01508464 -0.5175045
0.237685 0.04362847 -0.5163824
0.1856218 0.05910818 -0.5192998
0.2268436 0.05902049 -0.5130162
0.2399522 0.05244326 -0.510772
0.2308009 0.06743845 -0.5112208
0.2176924 0.07191096 -0.5184022
0.2212375 0.07673514 -0.5130162
0.2733419 0.07024561 -0.510772
0.2152191 0.08462693 -0.5148115
0.2641082 0.08568016 -0.5139138
0.2518241 0.1048856 -0.513465
0.2351705 0.03525479 -0.5049372
0.2289872 0.04797075 -0.5049372
0.2394575 0.04770679 -0.505386
0.1881776 0.05384552 -0.5017954
0.2364895 0.05016316 -0.5062836
0.240282 0.05752789 -0.5040395
0.2197535 0.0621758 -0.5031418
0.2273795 0.06678029 -0.502693
0.2337689 0.06151895 -0.5026931
0.2622119 0.06620983 -0.5044883
0.2728472 0.06542231 -0.5067325
0.2206604 0.07191096 -0.508079
0.2311307 0.07278705 -0.5008976
0.2596562 0.07559421 -0.5035906
0.2631188 0.07612038 -0.502693
0.2701266 0.07252572 -0.505386
0.2188466 0.08708242 -0.5089766
0.261415 0.08234741 -0.5049372
0.2191764 0.09225738 -0.5004488
0.2505874 0.0927384 -0.5020198
0.2610578 0.09032631 -0.5085278
0.2447339 0.1069018 -0.5058348
0.2547096 0.1004123 -0.5062836
0.2450637 0.1119891 -0.5017954
0.2154664 -0.1466721 -0.4957361
0.1927944 0.0265711 -0.4923698
0.2073045 0.03823559 -0.4995512
0.2257719 0.04954841 -0.4950628
0.2464652 0.04551438 -0.4991023
0.2367369 0.05559858 -0.4937163
0.2376438 0.06551001 -0.497307
0.2440744 0.06178204 -0.4910233
0.2668288 0.06393119 -0.4977559
0.2178573 0.07734726 -0.4991023
0.2281627 0.07708505 -0.4952872
0.2419308 0.07761122 -0.4923698
0.2544623 0.07252426 -0.4961101
0.2625417 0.07129709 -0.4959605
0.2216909 0.08445153 -0.4997756
0.2425904 0.08506584 -0.4932675
0.2530195 0.08318038 -0.4982047
0.2223092 0.0919066 -0.4959605
0.2331918 0.09778138 -0.4905745
0.242398 0.09509172 -0.495362
0.2538851 0.09317688 -0.4957361
0.2419308 0.1026342 -0.4958109
0.2511645 0.1003246 -0.4959605
0.1936189 0.03674475 -0.4883303
0.2469599 0.05336276 -0.4869838
0.252731 0.05475172 -0.4859366
0.2611402 0.05674038 -0.489228
0.2444866 0.0668693 -0.485413
0.2513294 0.06638522 -0.4851885
0.2359124 0.07480465 -0.489228
0.2462179 0.07322583 -0.4839916
0.2289047 0.08721441 -0.4854129
0.2343735 0.08567899 -0.483842
0.2496805 0.0857661 -0.4820467
0.2294818 0.09479882 -0.4802513
0.23954 0.09085336 -0.4802513
0.2063976 0.06726306 -0.4793537
0.2557539 0.06325798 -0.475763
0.2386331 0.08103225 -0.4771095
0.2491859 0.08103225 -0.4744165
0.2325323 0.09322117 -0.4775583
0.2334391 0.103044 -0.4780072
0.1957624 0.03007983 -0.4636445
0.2297292 0.1001492 -0.4663375
0.1926295 0.03279929 -0.448833
