# .PCD v.7 - Point Cloud Data file format
VERSION .7
FIELDS x y z
SIZE 4 4 4
TYPE F F F
COUNT 1 1 1
WIDTH 1433
HEIGHT 1
VIEWPOINT 0 0 0 1 0 0 0
POINTS 1433
DATA ascii
0.8031246 -0.9953521 -0.3545781
0.8249722 -0.9941252 -0.3527828
0.8478091 -0.9964053 -0.3505386
0.9946824 -0.9875046 -0.3550269
0.9754318 -0.9564158 -0.3500898
0.9971969 -0.9572936 -0.3527828
0.4545529 -0.9992125 -0.3438061
0.5618121 -0.9908796 -0.3406643
0.6915784 -0.9945646 -0.3447038
0.8016406 -0.9954398 -0.3460503
0.4458139 -0.9807077 -0.3429084
0.5609877 -0.9874603 -0.3473968
0.9950534 -0.9808831 -0.3429084
0.3328662 -0.9775515 -0.3424596
0.5629663 -0.9720258 -0.3442549
0.5844017 -0.9793931 -0.3406643
0.6059195 -0.9798298 -0.3482944
0.6923616 -0.9768057 -0.3406643
0.8613298 -0.9722012 -0.3464991
0.874191 -0.9738674 -0.3473968
0.9845006 -0.9777251 -0.3496409
0.9957954 -0.973079 -0.3478456
0.6164722 -0.9672902 -0.3478456
0.6596727 -0.9695703 -0.3442549
0.7925718 -0.9675533 -0.3456014
0.8516839 -0.967904 -0.3491921
0.984583 -0.9616784 -0.3491921
0.5216621 -0.9543988 -0.3429084
0.6393915 -0.9529088 -0.3424596
0.6838287 -0.9579934 -0.3478456
0.7723731 -0.9545742 -0.3442549
0.7938085 -0.9529966 -0.3473968
0.5130055 -0.9474699 -0.3451526
0.7731152 -0.9464193 -0.3464991
0.8765819 -0.9451021 -0.3438061
0.9965374 -0.9464193 -0.3424596
0.5130879 -0.9364211 -0.34231
0.6311472 -0.9397544 -0.3420108
0.7957871 -0.9379115 -0.3478456
0.6741003 -0.9281776 -0.3406643
0.9892823 -0.9200227 -0.3429084
0.8675956 -0.9161641 -0.3478456
0.957624 -0.9103752 -0.3482944
0.9896945 -0.9160764 -0.3487433
0.946604 -0.9058738 -0.3420108
0.9572117 -0.9053327 -0.3415619
0.9793066 -0.9036815 -0.3445542
0.9902716 -0.9073068 -0.3420108
0.9699081 -0.8937138 -0.3456014
0.9789768 -0.8980986 -0.3496409
0.9040356 -0.8705603 -0.3438061
0.9384146 -0.8780153 -0.3464991
0.9056845 -0.8695974 -0.3447038
0.560493 -0.9918451 -0.3393178
0.8262088 -0.9908796 -0.3339318
0.9922503 -0.9980716 -0.3384201
0.4466384 -0.984041 -0.3379713
0.5625541 -0.9829001 -0.3384201
0.6811081 -0.9853556 -0.3303411
0.8614947 -0.9849171 -0.3352783
0.8719238 -0.9894773 -0.3341562
0.9932396 -0.9836025 -0.3303411
0.3323303 -0.9764106 -0.337298
0.4477926 -0.9720258 -0.3379713
0.4576858 -0.9769368 -0.3352783
0.4672493 -0.9732527 -0.3303411
0.5730245 -0.9719381 -0.3370736
0.6806958 -0.9756204 -0.3339318
0.691331 -0.9796562 -0.3357271
0.8389052 -0.9789538 -0.3312388
0.3425945 -0.9685188 -0.3370736
0.4585102 -0.9688678 -0.3370736
0.5322148 -0.9676409 -0.3370736
0.6064966 -0.9629492 -0.3325853
0.7600066 -0.9657117 -0.3316876
0.8039491 -0.9664141 -0.3352783
0.850035 -0.9669385 -0.3348294
0.5105322 -0.958959 -0.3388689
0.523311 -0.9504524 -0.3370736
0.5325034 -0.9568105 -0.3357271
0.5543922 -0.9552767 -0.3348294
0.6071149 -0.9566346 -0.3366248
0.6405458 -0.9538717 -0.3370736
0.7607486 -0.9577321 -0.333483
0.5113566 -0.9489625 -0.333483
0.5219918 -0.9490502 -0.3343806
0.760776 -0.9461843 -0.3352783
0.7715487 -0.9460676 -0.3388689
0.9759265 -0.9474699 -0.3361759
0.5252072 -0.9296676 -0.3357271
0.5784657 -0.9258098 -0.3343806
0.6649491 -0.9247583 -0.3348294
0.9653737 -0.9280022 -0.3312388
0.9666927 -0.9136209 -0.3393178
0.9879633 -0.9166008 -0.3303411
0.95614 -0.9095868 -0.3384201
0.9670225 -0.9085336 -0.3375224
0.9791418 -0.9099359 -0.3348294
0.9888701 -0.9071314 -0.3388689
0.8696566 -0.8902919 -0.3393178
0.9679294 -0.8987108 -0.3384201
0.9799662 -0.8820494 -0.3303411
0.9816151 -0.8802955 -0.333483
0.9050249 -0.8754283 -0.3323609
0.4769776 -0.8646855 -0.3303411
0.9054922 -0.8633701 -0.3325853
0.626283 -0.853021 -0.3348294
0.7565439 -0.8595105 -0.3325853
0.9056845 -0.8580205 -0.3325853
0.6071561 -0.8448662 -0.3325853
0.759347 -0.8463561 -0.3339318
0.8848262 -0.847497 -0.3370736
0.6169257 -0.8367108 -0.3332585
0.7152397 -0.8305725 -0.3361759
0.760089 -0.8374988 -0.3321365
0.7700647 -0.8324142 -0.3388689
0.9081578 -0.8386397 -0.3316876
0.940723 -0.829607 -0.3384201
0.5885239 -0.8139094 -0.333483
0.5995713 -0.8093482 -0.3303411
0.6193578 -0.8088221 -0.3325853
0.6202646 -0.7986502 -0.3312388
0.8539099 -0.7834787 -0.3316876
0.8791376 -0.7565551 -0.3316876
0.880869 -0.7583967 -0.3316876
0.4438353 -0.9984223 -0.3204668
0.8141721 -0.9941252 -0.3240575
0.9592729 -0.9996492 -0.3204668
0.3319593 -0.9848294 -0.3289946
0.8380807 -0.9863212 -0.322711
0.9928274 -0.9881628 -0.3271993
0.4472979 -0.9753591 -0.3245063
0.4564492 -0.9743935 -0.3218133
0.4684035 -0.9722012 -0.3222621
0.562719 -0.9780759 -0.3249551
0.5734367 -0.9783399 -0.3213645
0.5828353 -0.9796562 -0.3289946
0.8833423 -0.978603 -0.320018
0.9952183 -0.9760598 -0.3285458
0.6052599 -0.9672016 -0.3213645
0.6166371 -0.9613268 -0.3258528
0.6494497 -0.9600123 -0.3294435
0.6506863 -0.9608006 -0.3236086
0.6814378 -0.9652731 -0.3209156
0.7941383 -0.960976 -0.3271993
0.8841667 -0.9687819 -0.3204668
0.5228163 -0.9540471 -0.3267505
0.53205 -0.9529966 -0.3289946
0.9742776 -0.9510672 -0.3298923
0.9965373 -0.9507589 -0.3218133
0.5235583 -0.9457169 -0.3263016
0.5445814 -0.9460676 -0.3289946
0.6407931 -0.9492238 -0.3271993
0.8746857 -0.946243 -0.3236086
0.5235583 -0.9287038 -0.3204668
0.5659343 -0.9282653 -0.328097
0.5767344 -0.9274752 -0.3267505
0.7973536 -0.9237051 -0.3231598
0.9667752 -0.9262483 -0.3245063
0.9779051 -0.9219512 -0.3240575
0.9871388 -0.9261606 -0.3258528
0.5667588 -0.9180057 -0.3218133
0.665114 -0.9197587 -0.320018
0.6876211 -0.9113408 -0.3249551
0.7984253 -0.9112531 -0.322711
0.8655344 -0.9174787 -0.3258528
0.8792201 -0.9109891 -0.3263016
0.9783173 -0.9177418 -0.3245063
0.6771507 -0.906692 -0.3258528
0.8798797 -0.9025711 -0.325404
0.9689187 -0.9010786 -0.3249551
0.9779051 -0.9068683 -0.3294435
0.9362711 -0.8979224 -0.3209156
0.969331 -0.8970445 -0.3276481
0.4960221 -0.8841541 -0.328097
0.527598 -0.8838901 -0.3213645
0.9370131 -0.8895921 -0.3218133
0.4760707 -0.8745943 -0.3285458
0.5079352 -0.8764364 -0.3233842
0.9268725 -0.8791545 -0.3294435
0.4781318 -0.8677557 -0.3249551
0.5507647 -0.8615276 -0.3267505
0.5734367 -0.8612662 -0.3298923
0.5528258 -0.8549512 -0.3256284
0.5617297 -0.8554774 -0.320018
0.5102024 -0.8437269 -0.3267505
0.7155695 -0.844076 -0.3258528
0.9301702 -0.8400419 -0.3236086
0.5112742 -0.8370606 -0.3233094
0.8846201 -0.8374562 -0.323833
0.9084051 -0.833641 -0.320018
0.6174616 -0.8287292 -0.3222621
0.6623933 -0.8297824 -0.3285458
0.6736057 -0.8257492 -0.3267505
0.6844882 -0.8251345 -0.3294435
0.7500309 -0.8241689 -0.3204668
0.7722495 -0.8234244 -0.3213645
0.8750154 -0.8246074 -0.320018
0.5987468 -0.8181179 -0.3289946
0.6297457 -0.8122431 -0.328097
0.6313945 -0.813733 -0.3298923
0.589678 -0.8002278 -0.3271993
0.6633826 -0.8000525 -0.3245063
0.7497836 -0.8081214 -0.328097
0.7515973 -0.8066297 -0.3218133
0.6121852 -0.7869857 -0.3245063
0.8553115 -0.7876881 -0.3245063
0.6240571 -0.7735699 -0.3231598
0.8658642 -0.7768138 -0.3249551
0.6248815 -0.7645372 -0.3222621
0.7237314 -0.7508557 -0.3258528
0.9060143 -0.7317388 -0.3289946
0.928274 -0.7330533 -0.3263016
0.7478874 -0.7250739 -0.3240575
0.8516015 -0.6718413 -0.3209156
0.885898 -0.673946 -0.3209156
0.8538274 -0.6690342 -0.3213645
0.8886186 -0.666491 -0.3209156
0.84278 -0.6558517 -0.3219629
0.9482254 -0.6272907 -0.322711
0.6799538 -0.9966684 -0.3195691
0.8127705 -0.993072 -0.314632
0.5610701 -0.9811462 -0.3182226
0.6908638 -0.9867587 -0.3138839
0.8383281 -0.9820223 -0.314632
0.8835071 -0.9837113 -0.3130611
0.3322066 -0.9798298 -0.3114901
0.3432541 -0.9723765 -0.3195691
0.4577683 -0.9714987 -0.3101436
0.5614823 -0.9763229 -0.317325
0.6049576 -0.9739548 -0.3132855
0.8852385 -0.9722888 -0.3159785
0.9934045 -0.9779005 -0.3110413
0.5306484 -0.9669385 -0.3182226
0.6066614 -0.966151 -0.3195691
0.682963 -0.9624668 -0.3168761
0.7601715 -0.9607129 -0.3137343
0.7925718 -0.9608883 -0.3132855
0.5745084 -0.9513286 -0.3150808
0.6074035 -0.9579934 -0.3182226
0.6393092 -0.9564154 -0.3139587
0.6509337 -0.9563281 -0.317325
0.8053506 -0.9543558 -0.3153052
0.9854075 -0.9595737 -0.3123878
0.5330805 -0.9468126 -0.3173249
0.5755802 -0.9458046 -0.311939
0.7708892 -0.9499263 -0.3191203
0.8061338 -0.945541 -0.3177738
0.874933 -0.9406296 -0.3101436
0.5230636 -0.9331772 -0.3132855
0.5667588 -0.9324747 -0.3137343
0.8065872 -0.9310725 -0.3137343
0.9756792 -0.9307208 -0.3137343
0.5142421 -0.9293185 -0.314632
0.6632178 -0.9241436 -0.314632
0.6755843 -0.9230027 -0.3191203
0.7954574 -0.9266 -0.311939
0.9670225 -0.9215127 -0.3132855
0.9765036 -0.9208102 -0.3114901
0.6859722 -0.9111645 -0.311939
0.7860588 -0.9127001 -0.3126122
0.9779463 -0.9122169 -0.3177738
0.6665155 -0.9024835 -0.3114901
0.879385 -0.9061658 -0.3132855
0.9680943 -0.9090607 -0.3159785
0.5172514 -0.8955984 -0.3123878
0.6669278 -0.8985372 -0.314632
0.8802094 -0.8979224 -0.3177738
0.9361886 -0.8858785 -0.3155296
0.8937302 -0.872665 -0.3168761
0.9802135 -0.87635 -0.317325
0.4881899 -0.8688072 -0.3110413
0.5521662 -0.8610908 -0.3177738
0.94872 -0.8632832 -0.3155296
0.5632136 -0.855038 -0.3166517
0.5828353 -0.8571427 -0.317325
0.7579455 -0.8580205 -0.3101436
0.9068387 -0.8507409 -0.311939
0.572942 -0.8479364 -0.3177738
0.7137557 -0.8449538 -0.3195691
0.9839235 -0.8490756 -0.3141831
0.512552 -0.8329394 -0.3177738
0.7153221 -0.8350441 -0.3155296
0.8738613 -0.8376741 -0.3186715
0.9306237 -0.8329833 -0.3150808
0.629993 -0.8261 -0.3128366
0.7706418 -0.8209251 -0.311939
0.8745208 -0.8284678 -0.3105925
0.9087349 -0.8290799 -0.3155296
0.9421245 -0.8289922 -0.3191203
0.5989942 -0.8129455 -0.3132855
0.6291686 -0.8166279 -0.3150808
0.6846531 -0.8199595 -0.3141831
0.7487943 -0.8176794 -0.3168761
0.7507455 -0.8150795 -0.3150808
0.5881941 -0.8050529 -0.3101436
0.5998186 -0.8040006 -0.3110413
0.6536543 -0.802771 -0.3128366
0.7518447 -0.8016327 -0.3101436
0.932726 -0.8090852 -0.3186715
0.68556 -0.7915459 -0.3155296
0.8670184 -0.7826886 -0.311939
0.9767509 -0.786549 -0.3150808
0.9003257 -0.774446 -0.317325
0.7342842 -0.7533555 -0.3153052
0.958366 -0.7468225 -0.3182226
0.9602622 -0.7450686 -0.3128366
0.9821922 -0.7426131 -0.314632
0.9037058 -0.7333164 -0.3114901
0.7149923 -0.7028858 -0.3150808
0.7260398 -0.7021843 -0.3191203
0.7154046 -0.697624 -0.3128366
0.7940558 -0.6773653 -0.314632
0.9197823 -0.675963 -0.3155296
0.9218435 -0.6762261 -0.3177738
0.7964467 -0.6660829 -0.3167265
0.8527831 -0.6637739 -0.3108917
0.8635558 -0.6652641 -0.314632
0.8889484 -0.6614941 -0.3128366
0.7866359 -0.6577213 -0.311939
0.8545694 -0.6597384 -0.3195691
0.842038 -0.6469347 -0.3128366
0.9469888 -0.6408845 -0.3141831
0.810627 -0.614751 -0.3123878
0.8111216 -0.6097515 -0.317325
0.992745 -0.5923885 -0.311939
0.8042789 -0.5835303 -0.314632
0.9843357 -0.5899321 -0.3177738
0.9990931 -0.5429286 -0.3150808
0.9903953 -0.5161365 -0.3105925
0.3306402 -0.9954398 -0.3043088
0.6788821 -0.9988599 -0.3056553
0.6894348 -0.9971078 -0.3070018
0.9812853 -0.992723 -0.3043088
0.3306402 -0.9823731 -0.3043088
0.3609794 -0.9885135 -0.3002693
0.8368441 -0.9807954 -0.3029623
0.8726246 -0.9834263 -0.3047576
0.3418525 -0.971411 -0.3029623
0.4466384 -0.9781636 -0.3034111
0.4673042 -0.9771414 -0.3061042
0.5629663 -0.9731667 -0.3083483
0.5722824 -0.9750083 -0.3070018
0.6710499 -0.971411 -0.30386
0.6819324 -0.9720258 -0.306553
0.5210437 -0.9615456 -0.3040844
0.5739313 -0.9691309 -0.3002693
0.6061668 -0.969658 -0.3096948
0.6698133 -0.9698334 -0.3007181
0.6823447 -0.9680794 -0.3083483
0.5214559 -0.9570739 -0.3040844
0.7586875 -0.9598368 -0.306553
0.7947153 -0.9518547 -0.3087971
0.8044025 -0.9551008 -0.3052065
0.9752669 -0.9501017 -0.3087971
0.9948885 -0.958432 -0.3025135
0.5334103 -0.9417267 -0.3067774
0.5658519 -0.9401929 -0.3020646
0.5758275 -0.9489625 -0.3047576
0.8064224 -0.9483477 -0.3043088
0.9867266 -0.942822 -0.3056553
0.524259 -0.9342282 -0.3038599
0.7957047 -0.9311159 -0.3043088
0.9871388 -0.9388766 -0.3096948
0.5132528 -0.9228272 -0.3025135
0.5674183 -0.9238805 -0.3083483
0.6741828 -0.9216004 -0.309246
0.7839152 -0.928353 -0.3083483
0.9768059 -0.9265696 -0.3053561
0.5153139 -0.9165131 -0.3096948
0.5680778 -0.9152862 -0.3029623
0.7860588 -0.919408 -0.3043088
0.787213 -0.9071314 -0.3083483
0.8781483 -0.9010786 -0.3061041
0.9677233 -0.903228 -0.3083483
0.5172101 -0.8952915 -0.3052065
0.5279278 -0.894326 -0.3034111
0.5369966 -0.892309 -0.3002693
0.6651964 -0.8985372 -0.301167
0.5387279 -0.8824878 -0.3054309
0.9469063 -0.883278 -0.3070018
0.9251412 -0.8777522 -0.309246
0.9816975 -0.874682 -0.3087971
0.9909312 -0.8752968 -0.3020646
0.4870358 -0.8637199 -0.3020646
0.9590255 -0.8682802 -0.3087971
0.551012 -0.8555651 -0.3087971
0.5729008 -0.8543369 -0.3052065
0.6275197 -0.851531 -0.3016158
0.7677563 -0.8534604 -0.3047576
0.5743436 -0.8470585 -0.3047576
0.8615772 -0.8436393 -0.3002693
0.9051898 -0.8482854 -0.301167
0.6076508 -0.8347819 -0.3078995
0.8724597 -0.8312723 -0.3047576
0.9065914 -0.8334647 -0.309246
0.6064966 -0.8287292 -0.3056553
0.6604147 -0.8294316 -0.3029623
0.7276887 -0.8261877 -0.30386
0.7592646 -0.8231174 -0.3096948
0.7605837 -0.8275899 -0.3096948
0.9292634 -0.8270638 -0.3029623
0.9310771 -0.8261877 -0.3083483
0.6841035 -0.8130035 -0.3071514
0.7491241 -0.8123308 -0.3096948
0.7596768 -0.8177671 -0.30386
0.7613257 -0.8186449 -0.3047576
0.9321489 -0.8127702 -0.3056553
0.7499485 -0.8017204 -0.3007181
0.9859021 -0.8052274 -0.3052065
0.6525001 -0.7956676 -0.3002693
0.8542396 -0.7953186 -0.3007181
0.86471 -0.7859342 -0.3016158
0.6761614 -0.7727798 -0.3025135
0.8905149 -0.7752353 -0.3043088
0.6226555 -0.7666419 -0.3070018
0.7231543 -0.754275 -0.3043088
0.8919988 -0.7571698 -0.3002693
0.7997444 -0.7421738 -0.3078995
0.9382497 -0.7412959 -0.3056553
0.9386619 -0.7369988 -0.3078995
0.8746857 -0.691573 -0.3002693
0.8876293 -0.6749993 -0.3047576
0.79521 -0.6613187 -0.301167
0.8406365 -0.6617571 -0.3029623
0.8415433 -0.6518466 -0.306553
0.9796364 -0.6185211 -0.3025135
0.7779793 -0.6037013 -0.30386
0.8458304 -0.6007187 -0.3052065
0.8013933 -0.5901075 -0.306553
0.9997526 -0.5331049 -0.3052065
0.9887464 -0.5226257 -0.3076751
0.3391319 -0.9989494 -0.2912926
0.3504266 -0.9902675 -0.2966786
0.6906715 -0.9959669 -0.2980251
0.3415227 -0.9872849 -0.2998205
0.4665073 -0.9818034 -0.2953321
0.8374212 -0.9887749 -0.2948833
0.3632879 -0.9757081 -0.293088
0.6919906 -0.9797439 -0.2921903
0.8620718 -0.9707989 -0.2962298
0.3524877 -0.9662387 -0.290395
0.5308133 -0.9608006 -0.2939856
0.6385671 -0.9676409 -0.2917415
0.6806958 -0.9685188 -0.2908438
0.5750855 -0.956942 -0.2993716
0.63799 -0.9597492 -0.2912926
0.6510985 -0.9512426 -0.2975763
0.7941383 -0.9550127 -0.290395
0.5654396 -0.9440506 -0.2980251
0.5764871 -0.9403665 -0.2971275
0.8750979 -0.9348425 -0.2926391
0.5148193 -0.9201104 -0.2980251
0.7856466 -0.9232658 -0.2971275
0.7957872 -0.9209856 -0.2980251
0.8759223 -0.9248461 -0.290395
0.5135826 -0.917654 -0.2975763
0.6652789 -0.9144961 -0.2993716
0.7863061 -0.9145838 -0.2917415
0.7971063 -0.9123927 -0.2933124
0.8772414 -0.9103752 -0.2971275
0.9766685 -0.9150231 -0.2948833
0.5250422 -0.9073068 -0.2921903
0.5158086 -0.892836 -0.2971275
0.538563 -0.8902919 -0.2917415
0.9891999 -0.8948522 -0.2944345
0.5282575 -0.8895921 -0.2962298
0.4977534 -0.8680179 -0.2978007
0.9164846 -0.8640707 -0.2917415
0.9499567 -0.8635463 -0.295781
0.9602622 -0.8694211 -0.2971275
0.4873655 -0.8581083 -0.2908438
0.5722 -0.8518818 -0.2975763
0.7692815 -0.8526273 -0.2948833
0.9502865 -0.8590738 -0.2935368
0.9821097 -0.8503042 -0.2998205
0.4988252 -0.8471462 -0.2926391
0.5113566 -0.8428491 -0.2975763
0.7698998 -0.8462684 -0.2980251
0.8610825 -0.847497 -0.290395
0.8833423 -0.8477172 -0.2980251
0.672369 -0.8327649 -0.290395
0.7157756 -0.8360527 -0.2960054
0.8729131 -0.8338164 -0.2924147
0.9285214 -0.834343 -0.2966786
0.6728637 -0.8285537 -0.2953321
0.7480523 -0.8215398 -0.2921903
0.7586875 -0.8273269 -0.2926391
0.8727895 -0.8257492 -0.2971275
0.5867101 -0.8106654 -0.2993716
0.59784 -0.8041759 -0.2971275
0.6205944 -0.807946 -0.2989228
0.6317243 -0.803035 -0.290395
0.985325 -0.8096999 -0.2926391
0.6311472 -0.790319 -0.2971275
0.8521786 -0.796984 -0.2966786
0.9777402 -0.7911091 -0.293088
0.6220784 -0.7898806 -0.2926391
0.9781525 -0.7868121 -0.2975763
0.6879508 -0.7790939 -0.2935368
0.8886186 -0.7747968 -0.2989228
0.8952142 -0.7744017 -0.2953321
0.9021394 -0.7708505 -0.2980251
0.732388 -0.7517335 -0.2989228
0.7991673 -0.7466463 -0.2944345
0.810627 -0.7444538 -0.2917415
0.980296 -0.7396306 -0.2953321
0.9039532 -0.7274417 -0.2966786
0.8138835 -0.717838 -0.2955565
0.8739437 -0.6877578 -0.2975763
0.7963642 -0.6715782 -0.2980251
0.8508595 -0.6757877 -0.2953321
0.86471 -0.6728069 -0.2944345
0.8736139 -0.6783308 -0.2944345
0.8863927 -0.6621938 -0.290395
0.931984 -0.6595647 -0.2917415
0.9936519 -0.6036136 -0.2953321
0.7896038 -0.5957218 -0.293088
0.803207 -0.5922122 -0.2953321
0.8359372 -0.5809871 -0.298474
0.8270333 -0.5776555 -0.2971275
0.9976091 -0.5307371 -0.2966786
0.981409 -0.9953091 -0.2874776
0.3620512 -0.9871095 -0.2827648
0.6691125 -0.9830755 -0.2881508
0.6793767 -0.9828124 -0.2899461
0.8134302 -0.9855599 -0.285009
0.8589389 -0.987548 -0.2800718
0.3425121 -0.9744812 -0.2845601
0.3530648 -0.9720258 -0.2872531
0.5734367 -0.9725519 -0.2881508
0.6689888 -0.9760155 -0.282316
0.8833423 -0.9718504 -0.2859066
0.3537244 -0.9636946 -0.2809695
0.53205 -0.9608006 -0.285009
0.5623892 -0.9600123 -0.2827648
0.6495321 -0.9668508 -0.2845601
0.827363 -0.9682557 -0.2836625
0.8393998 -0.9643093 -0.2827648
0.5737664 -0.9548373 -0.2899461
0.6494497 -0.9529088 -0.2868043
0.9950534 -0.9526449 -0.282316
0.5637907 -0.9457169 -0.2881508
0.851519 -0.9400175 -0.282316
0.8531679 -0.9379128 -0.2834381
0.86471 -0.9373857 -0.2809695
0.8765819 -0.9337034 -0.282316
0.9854075 -0.9384372 -0.2809695
0.784616 -0.9244948 -0.2854578
0.8772414 -0.9252828 -0.2809695
0.6747599 -0.9107261 -0.2890485
0.7972711 -0.9177418 -0.2872531
0.8548168 -0.9193203 -0.2845601
0.5266087 -0.9062535 -0.2881508
0.8671421 -0.9002906 -0.2838869
0.5388928 -0.8858194 -0.2890485
0.5582671 -0.8888897 -0.287702
0.9480605 -0.8845925 -0.2894973
0.485964 -0.8730167 -0.2863555
0.4975061 -0.8762623 -0.2832136
0.959163 -0.8740985 -0.2841113
0.5498578 -0.8645101 -0.2868043
0.7683334 -0.8631079 -0.2894973
0.8919164 -0.8689826 -0.282316
0.9494621 -0.8673164 -0.285009
0.9809967 -0.8694654 -0.2847846
0.4998145 -0.8503919 -0.2832136
0.5733542 -0.8548626 -0.2894973
0.9168144 -0.8595982 -0.2885996
0.94872 -0.856706 -0.285009
0.9061792 -0.8438576 -0.2870287
0.6275197 -0.8303971 -0.2881508
0.9391566 -0.8368866 -0.2814183
0.6078157 -0.8294316 -0.2868043
0.8629787 -0.8257492 -0.2894973
0.9404757 -0.8218906 -0.2841113
0.6304877 -0.8161894 -0.2899461
0.7614906 -0.8134699 -0.2899461
0.9298404 -0.8160141 -0.2818671
0.9315718 -0.8161017 -0.2841113
0.6208417 -0.802771 -0.2832136
0.9868914 -0.8081214 -0.2845601
0.9760089 -0.7904067 -0.2894973
0.632796 -0.7895289 -0.2854578
0.6875386 -0.783391 -0.2894973
0.8662764 -0.7856711 -0.2827648
0.6318892 -0.7794447 -0.282316
0.9012325 -0.7790062 -0.2827648
0.9582011 -0.7638786 -0.2827648
0.8896904 -0.7585721 -0.2827648
0.9575415 -0.7502418 -0.2841113
0.8003215 -0.7307733 -0.2854578
0.812853 -0.7388404 -0.2863555
0.8722948 -0.693327 -0.2863555
0.8753452 -0.6818379 -0.2894973
0.8739437 -0.6727192 -0.282316
0.8850736 -0.677453 -0.2872531
0.8652047 -0.6654395 -0.2847846
0.8746033 -0.6651325 -0.2832136
0.8545694 -0.6534243 -0.2827648
0.8761422 -0.6544778 -0.282316
0.9437734 -0.6478125 -0.2827648
0.9798013 -0.6126463 -0.2854578
0.7886145 -0.605806 -0.2881508
0.7911703 -0.6003698 -0.2841113
0.9931572 -0.6079984 -0.2885996
0.7920772 -0.591073 -0.2881508
0.8479739 -0.5974749 -0.2894973
0.8146667 -0.5869522 -0.2832136
0.8374212 -0.5873889 -0.2841113
0.8468198 -0.5844081 -0.2809695
0.9982687 -0.5461717 -0.2805206
0.3393792 -0.993072 -0.2719928
0.3405334 -0.9936867 -0.2724417
0.3510862 -0.9909673 -0.2701975
0.3615565 -0.9905306 -0.2724417
0.6784698 -0.9914066 -0.2760323
0.6900944 -0.9985977 -0.274237
0.8353601 -0.9934228 -0.2751347
0.9816975 -0.9977199 -0.2791741
0.3514984 -0.9873726 -0.2778277
0.8604229 -0.9856187 -0.2746858
0.3415639 -0.9763224 -0.2764812
0.3522404 -0.9793931 -0.2760323
0.6486253 -0.9742182 -0.2719928
0.6700606 -0.9781636 -0.279623
0.8608351 -0.9634315 -0.2719928
0.5323797 -0.9564158 -0.279623
0.5641205 -0.9553643 -0.279623
0.6391442 -0.9588713 -0.2787253
0.986067 -0.9453661 -0.2760323
0.5552166 -0.9356326 -0.2755835
0.8518488 -0.9347548 -0.2755835
0.8631024 -0.9366398 -0.2713196
0.8760872 -0.9289677 -0.2731149
0.8868049 -0.9275628 -0.271544
0.854487 -0.9126115 -0.2780521
0.8761697 -0.9192326 -0.27693
0.6656911 -0.9045873 -0.2706463
0.6750072 -0.9050267 -0.2737882
0.9906014 -0.8912575 -0.2764812
0.5372439 -0.8861711 -0.2791741
0.8790552 -0.8846803 -0.2764812
0.4977534 -0.8717012 -0.2778277
0.8917515 -0.8788046 -0.2753591
0.9578713 -0.8765253 -0.2760323
0.4863762 -0.8675804 -0.2782765
0.7676326 -0.8588094 -0.2755835
0.8811163 -0.8594229 -0.2733393
0.9172266 -0.8524957 -0.2749102
0.9504514 -0.8539866 -0.279623
0.9704027 -0.8551257 -0.2706463
0.8820232 -0.8496017 -0.2773788
0.7590997 -0.839079 -0.2773788
0.6278495 -0.8247837 -0.2778277
0.9855723 -0.820662 -0.2706463
0.7263696 -0.816891 -0.2719928
0.737417 -0.8158378 -0.2701975
0.6295808 -0.804525 -0.2760323
0.6310648 -0.8063684 -0.2706463
0.6847355 -0.802508 -0.2722172
0.7403026 -0.8038251 -0.279623
0.9435261 -0.8049634 -0.2791741
0.976957 -0.7968524 -0.2755835
0.7984253 -0.7506803 -0.2719928
0.9020982 -0.756687 -0.2764812
0.9591079 -0.7524343 -0.2782765
0.9150831 -0.747261 -0.2773788
0.9594377 -0.74761 -0.2719928
0.8121521 -0.7334042 -0.2713196
0.8730368 -0.682628 -0.27693
0.8755101 -0.6763138 -0.2706463
0.9208541 -0.6787694 -0.2737882
0.8523434 -0.6543021 -0.2737882
0.877159 -0.6580721 -0.274237
0.9322313 -0.6538636 -0.2778277
0.9330558 -0.6436031 -0.2764812
0.9359413 -0.6343073 -0.279623
0.9445155 -0.6372021 -0.2737882
0.9362711 -0.6294832 -0.2782765
0.989777 -0.6213283 -0.2755835
0.812111 -0.6146634 -0.2733393
0.9805433 -0.6018597 -0.2719928
0.9914259 -0.6008065 -0.2724417
0.8026299 -0.5961586 -0.279623
0.8575374 -0.5932655 -0.274237
0.7813595 -0.584145 -0.2728905
0.8476442 -0.5859876 -0.2749102
0.7798755 -0.5768654 -0.2755835
0.328744 -0.9966246 -0.2636894
0.3400387 -0.9970201 -0.2621185
0.3606084 -0.9926783 -0.2657092
0.8244775 -0.9990371 -0.2670557
0.8695742 -0.9954398 -0.2621185
0.9800487 -0.9997369 -0.2639138
0.3615978 -0.9819354 -0.2630162
0.691331 -0.9821976 -0.263465
0.3508389 -0.9789538 -0.2616697
0.3633703 -0.9703595 -0.2679533
0.6475535 -0.9709743 -0.2657092
0.8267859 -0.9712356 -0.2639138
0.8725421 -0.9772884 -0.2639138
0.3524877 -0.9683421 -0.2670557
0.3622985 -0.9674656 -0.2643627
0.8624016 -0.9612391 -0.2684022
0.5635434 -0.9585205 -0.2625673
0.9852426 -0.9530842 -0.268851
0.8637207 -0.9445777 -0.260772
0.9851601 -0.9456292 -0.2639138
0.555464 -0.9308962 -0.2630162
0.888124 -0.9290555 -0.2697487
0.8530854 -0.916952 -0.2625673
0.6652789 -0.908709 -0.2679533
0.9996702 -0.8930991 -0.266158
0.8902675 -0.8856449 -0.2675045
0.9258832 -0.8802955 -0.2692998
0.9459994 -0.8860825 -0.266158
0.9908488 -0.8864342 -0.2675045
0.4962694 -0.8710873 -0.2684022
0.8927408 -0.8741575 -0.2630162
0.9691661 -0.8700358 -0.2697487
0.5511769 -0.8626685 -0.2666068
0.8825178 -0.8610908 -0.2648115
0.9268725 -0.867141 -0.2616697
0.9818624 -0.863983 -0.2657092
0.9925801 -0.8646855 -0.2612208
0.4885197 -0.8578452 -0.263465
0.4986191 -0.8521883 -0.2630162
0.8717177 -0.8518818 -0.2603232
0.88293 -0.8569691 -0.2675045
0.9150831 -0.8564429 -0.2621185
0.9826044 -0.8553011 -0.266158
0.6717095 -0.8358334 -0.266158
0.939404 -0.8309215 -0.2639138
0.940723 -0.8349573 -0.2652603
0.9291809 -0.8201349 -0.2643627
0.6181211 -0.8103138 -0.2630162
0.727936 -0.8152257 -0.2603232
0.73853 -0.8111912 -0.2643626
0.9410528 -0.8106654 -0.2639138
0.7391896 -0.8039554 -0.2659336
0.9430314 -0.8089098 -0.2692998
0.621254 -0.7846626 -0.2654848
0.6438435 -0.785408 -0.2697487
0.8911744 -0.7600647 -0.2675045
0.9032936 -0.7512074 -0.2643627
0.9132693 -0.7522881 -0.2672053
0.979554 -0.743576 -0.2692998
0.9812028 -0.7448055 -0.2675045
0.9271199 -0.7348064 -0.2679533
0.918793 -0.6787694 -0.2652603
0.93421 -0.6523728 -0.2679533
0.9538316 -0.6581607 -0.268851
0.9348695 -0.6428139 -0.2616697
0.9333856 -0.6381651 -0.2692998
0.8096377 -0.6176459 -0.2643627
0.8211797 -0.6157166 -0.268851
0.8020529 -0.6001943 -0.2652603
0.7913352 -0.5945809 -0.2616697
0.8481388 -0.5916001 -0.2630162
0.9828517 -0.5969487 -0.263465
0.7792159 -0.5815141 -0.2639138
0.8347005 -0.589669 -0.2666068
0.8484686 -0.5867768 -0.2616697
0.8578672 -0.5877397 -0.2652603
0.7816069 -0.5788824 -0.260772
0.9988458 -0.5361751 -0.2675045
0.3595779 -0.9952644 -0.2522442
0.823076 -0.9979839 -0.2535907
0.8347005 -0.9969324 -0.2549372
0.8708521 -0.9946084 -0.2551616
0.3396265 -0.9873726 -0.2540395
0.3515809 -0.9820223 -0.2517953
0.6795416 -0.9891257 -0.2540395
0.3517457 -0.9739108 -0.2522442
0.3621336 -0.9749193 -0.258079
0.8254668 -0.9700965 -0.2594255
0.6583536 -0.9697456 -0.2576302
0.5749207 -0.9502771 -0.252693
0.9838411 -0.9518547 -0.2562837
0.8515602 -0.942954 -0.2560592
0.8628138 -0.9455849 -0.2533662
0.9842533 -0.9467701 -0.252693
0.8534153 -0.93037 -0.2585278
0.8862278 -0.9316846 -0.2571813
0.8541572 -0.9221266 -0.2589767
0.5258667 -0.9089721 -0.2594255
0.8772414 -0.9035341 -0.2594255
0.9986809 -0.9023949 -0.2531418
0.9563873 -0.8904673 -0.2567325
0.9579538 -0.8886266 -0.255386
0.9895297 -0.8830149 -0.2571813
0.9240694 -0.8798569 -0.2540395
0.9359413 -0.8705603 -0.2522442
0.937755 -0.869158 -0.2576302
0.4987427 -0.8577575 -0.2585278
0.8813636 -0.853548 -0.2558348
0.9721341 -0.8507409 -0.2585278
0.7678387 -0.8433762 -0.2558348
0.7373346 -0.8332893 -0.2549372
0.8727895 -0.8389913 -0.2594255
0.9718043 -0.8342549 -0.2531418
0.6068263 -0.8161894 -0.2571813
0.9308298 -0.819172 -0.2576302
0.9425368 -0.8125062 -0.2549372
0.9862319 -0.8112776 -0.258079
0.9679294 -0.7707627 -0.252693
0.6882806 -0.7680442 -0.2508977
0.9013974 -0.7512074 -0.2598743
0.9574178 -0.7575649 -0.2574058
0.9017272 -0.7456807 -0.2508977
0.9258419 -0.7364735 -0.2531418
0.9047776 -0.7100778 -0.255386
0.9277794 -0.7038496 -0.2562837
0.9286038 -0.69359 -0.2549372
0.9068387 -0.6849081 -0.2562837
0.8757575 -0.6711389 -0.258079
0.9333031 -0.6611424 -0.2585278
0.9203594 -0.6579844 -0.2585278
0.9336329 -0.6565822 -0.2585278
0.9448864 -0.6421123 -0.2556104
0.7992498 -0.605674 -0.2542639
0.7887794 -0.5994042 -0.2598743
0.8121934 -0.5868645 -0.2589767
0.8256317 -0.5851965 -0.2544883
0.9878808 -0.5351219 -0.2549372
0.9964137 -0.5364387 -0.2520198
0.8363906 -0.9921525 -0.2475314
0.8698215 -0.9900912 -0.25
0.3502617 -0.9829001 -0.2482047
0.8248897 -0.9899158 -0.2437163
0.8147492 -0.9739551 -0.2468582
0.8491282 -0.9785153 -0.247307
0.8726246 -0.9722888 -0.2455117
0.6477184 -0.9649215 -0.2432675
0.7684159 -0.9652731 -0.244614
0.8272806 -0.9622906 -0.2477558
0.861742 -0.9472069 -0.241921
0.863968 -0.9397544 -0.2486535
0.8865988 -0.9337902 -0.2432675
0.8535801 -0.9254581 -0.2428187
0.9898595 -0.8935376 -0.2405745
0.8916278 -0.8838467 -0.2450628
0.9252236 -0.8834516 -0.2491023
0.9910136 -0.8810856 -0.247307
0.8910095 -0.8719652 -0.2437163
0.4974236 -0.8549503 -0.2477558
0.88293 -0.8512679 -0.2405745
0.9807082 -0.8577575 -0.2495512
0.8601756 -0.849514 -0.2459605
0.8720475 -0.8447784 -0.2455117
0.9398162 -0.8426737 -0.2464093
0.7567913 -0.8397788 -0.241921
0.9511934 -0.8392544 -0.2437163
0.9625706 -0.8322378 -0.2459605
0.6610742 -0.8296947 -0.2405745
0.6278495 -0.8179425 -0.2401257
0.6719568 -0.8106654 -0.2428187
0.7265345 -0.8105778 -0.2486535
0.6084752 -0.8054905 -0.2482047
0.6850653 -0.8033858 -0.247307
0.7379117 -0.8042636 -0.2423698
0.640958 -0.7933016 -0.244614
0.6431015 -0.7884783 -0.2414722
0.6851478 -0.782864 -0.2428187
0.6214601 -0.7788304 -0.2450628
0.6318892 -0.7725167 -0.2455117
0.9675172 -0.7750599 -0.2495512
0.9662806 -0.7688343 -0.2450628
0.9034585 -0.7457684 -0.2441652
0.905973 -0.7163042 -0.244614
0.9293458 -0.6829787 -0.2464093
0.9149594 -0.6654395 -0.2461849
0.9309947 -0.6624569 -0.2432675
0.9221732 -0.6591262 -0.2477558
0.9452574 -0.6467593 -0.241921
0.9562224 -0.6491271 -0.2414722
0.9350344 -0.6372021 -0.2405745
0.9814502 -0.6101908 -0.2468582
0.8011872 -0.6062883 -0.2437163
0.9798013 -0.6059814 -0.2495512
0.9817799 -0.605279 -0.241921
0.7789686 -0.5938355 -0.2434919
0.7802053 -0.5923885 -0.2464093
0.7786388 -0.5859867 -0.25
0.7806175 -0.5878274 -0.2486535
0.858032 -0.581865 -0.2464093
0.8357723 -0.9975445 -0.2378815
0.8355249 -0.9841717 -0.2358617
0.6489962 -0.9643085 -0.2383303
0.8368441 -0.9672902 -0.2307002
0.6480482 -0.9598368 -0.2383303
0.5642854 -0.9446654 -0.2324955
0.8644627 -0.9307208 -0.2315978
0.8520137 -0.9254143 -0.2374327
0.9894472 -0.8974839 -0.2351885
0.8802919 -0.8809102 -0.2360862
0.9127746 -0.888364 -0.2345152
0.9889526 -0.8868726 -0.2374327
0.970073 -0.871175 -0.2383303
0.9896945 -0.8768744 -0.2342908
0.9912609 -0.8764377 -0.2387792
0.8802094 -0.8624054 -0.2333932
0.9691661 -0.8634586 -0.2383303
0.4968465 -0.8594229 -0.2360862
0.858032 -0.8533727 -0.2374327
0.9370131 -0.8547767 -0.2378815
0.9818624 -0.8579329 -0.2329443
0.9914259 -0.8569691 -0.2383303
0.8699864 -0.8481995 -0.2396768
0.8703986 -0.8431122 -0.2396768
0.8929881 -0.846093 -0.2307002
0.939239 -0.8461807 -0.231149
0.9489674 -0.8439883 -0.2329443
0.955027 -0.8461816 -0.2331688
0.9704027 -0.8483731 -0.2347397
0.7698998 -0.8342549 -0.2342908
0.940723 -0.8288168 -0.231149
0.9403108 -0.8142601 -0.2329443
0.608805 -0.8089098 -0.2320467
0.6618987 -0.8005786 -0.2342908
0.7281009 -0.8095245 -0.2356373
0.9750196 -0.8021576 -0.2351885
0.9745249 -0.7976864 -0.2342908
0.6860546 -0.7894412 -0.2329443
0.9229152 -0.777867 -0.2315978
0.965621 -0.7732191 -0.2302513
0.799662 -0.7508557 -0.2369838
0.8104621 -0.7367357 -0.2374327
0.9065089 -0.7091123 -0.2383303
0.9283153 -0.7048143 -0.2381059
0.9278618 -0.697624 -0.2324955
0.9302527 -0.6921877 -0.2329443
0.9087349 -0.6815765 -0.2333932
0.9093533 -0.6746485 -0.2333932
0.9215137 -0.662984 -0.2315978
0.9557278 -0.6535996 -0.2387792
0.9545736 -0.6411476 -0.2302513
0.7999917 -0.6175582 -0.233842
0.8204378 -0.619399 -0.2383303
0.9901892 -0.6094007 -0.239228
0.34919 -0.9907919 -0.220377
0.6789232 -0.9836021 -0.2221723
0.8579496 -0.9893019 -0.2253142
0.8480564 -0.9707989 -0.2298025
0.8595985 -0.9704481 -0.2271095
0.8703986 -0.9794808 -0.2280072
0.8371738 -0.9622906 -0.2262118
0.8498701 -0.9651855 -0.2239677
0.8382181 -0.9557731 -0.2254638
0.863968 -0.9171278 -0.2253142
0.9131868 -0.8905559 -0.225763
0.9879633 -0.8963447 -0.2266607
0.9988458 -0.896257 -0.2298025
0.9469063 -0.8854704 -0.2244165
0.8788078 -0.8768744 -0.2221723
0.9366833 -0.8761746 -0.2293537
0.9799662 -0.8615276 -0.2248653
0.8595161 -0.8525843 -0.2217235
0.9807906 -0.8516188 -0.2275583
0.9929098 -0.8542505 -0.2244165
0.7562142 -0.844076 -0.228456
0.9376726 -0.8439883 -0.2239677
0.659178 -0.8305725 -0.2262118
0.7466507 -0.8353511 -0.2248653
0.7680036 -0.8369743 -0.2293537
0.8707284 -0.8374988 -0.2298025
0.8941424 -0.8304848 -0.22307
0.9398986 -0.8372374 -0.2248653
0.9492972 -0.8387274 -0.2280072
0.6703904 -0.8247837 -0.2212747
0.7151573 -0.8207054 -0.2248653
0.6082278 -0.8128579 -0.2226212
0.6728637 -0.8163648 -0.228456
0.7163115 -0.8172427 -0.2275583
0.6193578 -0.8088221 -0.228456
0.6613216 -0.805052 -0.22307
0.7283483 -0.8044373 -0.22307
0.6425244 -0.7921606 -0.2271095
0.630735 -0.781374 -0.2208259
0.6735232 -0.7892658 -0.2239677
0.6873325 -0.7643614 -0.2221723
0.923987 -0.7642732 -0.2271095
0.9792242 -0.7609399 -0.2266607
0.9127746 -0.7430499 -0.22307
0.9258832 -0.741823 -0.2262118
0.9151655 -0.7355965 -0.2221723
0.9243992 -0.738316 -0.228456
0.9929098 -0.7246345 -0.2217235
0.9037058 -0.7163038 -0.22307
0.9933221 -0.7199866 -0.2212747
0.9073334 -0.6732436 -0.2235188
0.9211015 -0.6671934 -0.2235188
0.9536667 -0.6509687 -0.2244165
0.9552331 -0.6448313 -0.2250898
0.7994971 -0.6218553 -0.225763
0.8003215 -0.6122956 -0.2226212
0.7896038 -0.6068593 -0.2217235
0.9820273 -0.6000189 -0.2293537
0.992003 -0.6098392 -0.2266607
0.8248897 -0.5885298 -0.2248653
0.3492312 -0.9954836 -0.214991
0.3500969 -0.9917575 -0.2136445
0.8122758 -0.9961423 -0.2167864
0.8229935 -0.9912304 -0.2154399
0.8580321 -0.9936424 -0.2125224
0.8484686 -0.9809708 -0.2190305
0.8594336 -0.9864948 -0.2181329
0.8474793 -0.9749206 -0.2167864
0.8607527 -0.9702718 -0.2136445
0.8706459 -0.9741305 -0.2181329
0.8382456 -0.9646584 -0.2163375
0.8488808 -0.9672459 -0.2190305
0.8710582 -0.969394 -0.2172352
0.8393174 -0.9525572 -0.2145422
0.5637907 -0.947997 -0.217684
0.8632672 -0.9240121 -0.2172352
0.8656994 -0.913357 -0.2163375
0.9126922 -0.8941523 -0.2140934
0.9450101 -0.8883635 -0.214991
0.9994229 -0.885295 -0.2127469
0.8804567 -0.8755598 -0.2140934
0.8815285 -0.8626685 -0.2140934
0.8693268 -0.8520581 -0.2167864
0.8932355 -0.8586353 -0.2109515
0.9924976 -0.8582836 -0.2199282
0.7575333 -0.8444268 -0.2118492
0.8945958 -0.8435954 -0.2145422
0.9823571 -0.8481995 -0.2127469
0.7255452 -0.8346942 -0.2154399
0.7681685 -0.8310969 -0.2118492
0.8837545 -0.8368866 -0.212298
0.9380024 -0.838552 -0.2158887
0.9819449 -0.8359211 -0.2154399
0.7243085 -0.8289045 -0.2105027
0.6175852 -0.8176807 -0.2165619
0.6711324 -0.8144355 -0.2163375
0.9842808 -0.81347 -0.2155895
0.9948061 -0.8102261 -0.212298
0.7266169 -0.8036489 -0.2145422
0.9652088 -0.795494 -0.212298
0.6537368 -0.7847056 -0.2185817
0.665114 -0.7800595 -0.2181329
0.6633826 -0.779357 -0.2114004
0.6875386 -0.7709391 -0.2194794
0.9230801 -0.7726921 -0.2163375
0.6865493 -0.7610276 -0.2127469
0.989035 -0.7690974 -0.212298
0.9135991 -0.7533112 -0.2163375
0.990519 -0.7511188 -0.2100539
0.9234099 -0.7479609 -0.217684
0.9132693 -0.7351142 -0.2172352
0.8014758 -0.7271786 -0.2167864
0.9049425 -0.7214766 -0.2105027
0.9272847 -0.7231445 -0.2145422
0.9906839 -0.729634 -0.2154399
0.8927408 -0.7095516 -0.214991
0.9836761 -0.7063051 -0.2167864
0.9197823 -0.6805233 -0.2136445
0.9285214 -0.686662 -0.2167864
0.8957088 -0.6738583 -0.2163375
0.9076631 -0.6677196 -0.2163375
0.7980955 -0.6113318 -0.2118492
0.9914259 -0.6137855 -0.2118492
0.7873779 -0.6076468 -0.2167864
0.812853 -0.5955465 -0.2138689
0.8241478 -0.9919328 -0.209605
0.8589389 -0.9897404 -0.2055655
0.8644627 -0.9249337 -0.2001795
0.8652047 -0.9167762 -0.2019749
0.8666887 -0.9002911 -0.2078097
0.9445155 -0.8929237 -0.206912
0.8790552 -0.8709996 -0.2046679
0.9258007 -0.8683679 -0.2037702
0.9906014 -0.8603884 -0.2078097
0.8914217 -0.8599499 -0.204219
0.937755 -0.8576698 -0.2019749
0.7449194 -0.8423229 -0.2046679
0.9704852 -0.8419713 -0.2082585
0.668824 -0.8392544 -0.2055655
0.7261223 -0.8253099 -0.2028725
0.8957912 -0.828117 -0.2078097
0.662146 -0.8102261 -0.2024237
0.6505215 -0.8011057 -0.2064632
0.6618162 -0.8054023 -0.2055655
0.9628179 -0.8021589 -0.2006284
0.9951358 -0.8047004 -0.201526
0.9650439 -0.7950112 -0.2033214
0.6518406 -0.7859342 -0.2055655
0.9657859 -0.7861973 -0.2033214
0.6764912 -0.7708505 -0.2019749
0.9211015 -0.7725167 -0.2019749
0.9766272 -0.7768147 -0.2028725
0.9874686 -0.7765955 -0.2055655
0.9872212 -0.7696218 -0.204219
0.9224206 -0.7572575 -0.2006284
0.9846655 -0.7453308 -0.2048923
0.9911785 -0.7417353 -0.2019749
0.8114514 -0.7394552 -0.2055655
0.9249763 -0.7269146 -0.2051167
0.9915907 -0.7259929 -0.2013016
0.811369 -0.7198989 -0.2055655
0.8942798 -0.7047274 -0.2052663
0.9816975 -0.7045521 -0.2019749
0.916732 -0.6910468 -0.2001795
0.9295107 -0.6954316 -0.206912
0.9182571 -0.6851716 -0.2055655
0.9305825 -0.6816624 -0.2024237
0.7885321 -0.6153658 -0.201526
0.9893647 -0.6131734 -0.2082585
0.8376685 -0.9673778 -0.1925494
0.8647925 -0.9206349 -0.1970377
0.9221732 -0.8916968 -0.1970377
0.9462467 -0.8880996 -0.1938959
0.9996702 -0.8793299 -0.1952424
0.8926584 -0.861966 -0.193447
0.9241518 -0.8667025 -0.1938959
0.9914259 -0.8653879 -0.1929982
0.960592 -0.847234 -0.1992819
0.6162249 -0.8376741 -0.1921005
0.6692362 -0.8337287 -0.1979354
0.7237314 -0.8332016 -0.1974865
0.7691578 -0.8367112 -0.1979354
0.8948843 -0.8360965 -0.1929982
0.7246383 -0.8233805 -0.198833
0.7369224 -0.8257492 -0.1921005
0.7473515 -0.8219774 -0.19614
0.6177913 -0.8118923 -0.1986086
0.6704728 -0.8183818 -0.1952424
0.9409704 -0.8182064 -0.1916517
0.9642195 -0.8033858 -0.1925494
0.9962076 -0.8096122 -0.1992819
0.6726988 -0.7931262 -0.1979354
0.9635599 -0.791809 -0.19614
0.6520879 -0.7800595 -0.1903052
0.664372 -0.7832156 -0.1912029
0.6652789 -0.7746214 -0.1979354
0.6854776 -0.7703243 -0.1956912
0.976957 -0.7717274 -0.1970377
0.9867266 -0.7743583 -0.1970377
0.9775753 -0.7645583 -0.1970377
0.9891999 -0.763747 -0.1947935
0.9983512 -0.7639225 -0.1952424
0.677563 -0.7569944 -0.1925494
0.6867967 -0.7548897 -0.1921005
0.9243991 -0.743402 -0.1981598
0.9896121 -0.7387527 -0.1938959
0.9144235 -0.7278359 -0.1918761
0.8926996 -0.7172685 -0.1932226
0.9274496 -0.7178819 -0.198833
0.9281916 -0.7084098 -0.190754
0.9830166 -0.7096393 -0.1912029
0.9300878 -0.6856982 -0.1912029
0.9957129 -0.6870128 -0.1979354
0.8972752 -0.6747362 -0.1909785
0.9065914 -0.6771917 -0.1997307
0.9313245 -0.671929 -0.1929982
0.7970238 -0.6208012 -0.1947935
0.7866359 -0.6115931 -0.1929982
0.797436 -0.6156289 -0.1925494
0.8225813 -0.610717 -0.198833
0.8337936 -0.6112441 -0.1912029
0.7897688 -0.6011581 -0.1983842
0.8342883 -0.5945814 -0.1972621
0.8224989 -0.5871276 -0.1983842
0.9215961 -0.8959939 -0.1844704
0.879385 -0.8826632 -0.188061
0.9234923 -0.8827952 -0.1851436
0.8805392 -0.8700358 -0.1898564
0.9347871 -0.8723159 -0.1894075
0.8693268 -0.8652126 -0.1840215
0.9355291 -0.8618783 -0.1822262
0.9467414 -0.8617907 -0.1858169
0.9899419 -0.8644224 -0.1876122
0.9262954 -0.8588107 -0.1835727
0.9360238 -0.8571427 -0.188061
0.8920813 -0.8489879 -0.1876122
0.7360979 -0.8340795 -0.1858169
0.7455789 -0.8311846 -0.1844704
0.8929057 -0.8388151 -0.1885099
0.981986 -0.8389462 -0.1878366
0.7255452 -0.8287292 -0.1831239
0.9500391 -0.8211882 -0.1804309
0.7359331 -0.8164525 -0.1808797
0.9505338 -0.8165402 -0.1889587
0.9948885 -0.8136458 -0.1855925
0.6516345 -0.8031665 -0.1882855
0.9731234 -0.8055782 -0.1871634
0.9630653 -0.7964578 -0.1871634
0.9638897 -0.7863736 -0.1889587
0.9872212 -0.7857588 -0.1894075
0.9092296 -0.7765507 -0.1808797
0.9205244 -0.7768138 -0.1867145
0.9974443 -0.7736576 -0.1858169
0.6771507 -0.7612039 -0.1867145
0.6884868 -0.7535313 -0.1837971
0.9225854 -0.7514704 -0.1844704
0.9894472 -0.7589229 -0.1876122
0.9245641 -0.748751 -0.1822262
0.9887052 -0.7486633 -0.1898564
0.9906014 -0.74533 -0.1840215
0.9899419 -0.7332287 -0.1844704
0.8930294 -0.7120501 -0.1844704
0.9255534 -0.7156895 -0.1822262
0.9932396 -0.6924508 -0.1844704
0.9410528 -0.6855229 -0.182675
0.9506162 -0.6795577 -0.1822262
0.9299229 -0.665001 -0.1889587
0.9404757 -0.6686834 -0.1817774
0.8319799 -0.6061568 -0.1808797
0.8100499 -0.5989657 -0.1889587
0.8791376 -0.8645101 -0.1763914
0.880704 -0.8649486 -0.1736984
0.9243992 -0.8607392 -0.1741472
0.9599324 -0.8501288 -0.1728007
0.9591904 -0.8415346 -0.1799821
0.7246383 -0.836799 -0.1714542
0.7342017 -0.8363596 -0.1772891
0.8941011 -0.8318862 -0.1743716
0.9719692 -0.8380258 -0.1799821
0.7371697 -0.8205742 -0.1772891
0.7467744 -0.8256172 -0.176167
0.9714745 -0.8226347 -0.1723519
0.9822746 -0.8239076 -0.1768402
0.9412177 -0.8129455 -0.1754937
0.649697 -0.804525 -0.1723519
0.99629 -0.8037366 -0.1719031
0.6741828 -0.7915459 -0.1714542
0.9874685 -0.7806715 -0.1763914
0.6847355 -0.774182 -0.1714542
0.9095593 -0.7711144 -0.1736984
0.9112082 -0.7737436 -0.1768402
0.9968671 -0.7782161 -0.1768402
0.9011501 -0.7605032 -0.1799821
0.9219259 -0.7643606 -0.1720527
0.9344573 -0.7621694 -0.1781867
0.9658684 -0.7603278 -0.1768402
0.9873037 -0.76322 -0.1777379
0.6755843 -0.7565551 -0.1772891
0.9558102 -0.7500656 -0.1763914
0.9670225 -0.7566441 -0.1757181
0.9888701 -0.7533555 -0.1728007
0.9793066 -0.7491903 -0.1701077
0.9912609 -0.7360359 -0.1777379
0.9250587 -0.7205136 -0.1768402
0.93792 -0.7215642 -0.1772891
0.8932355 -0.7198112 -0.1799821
0.9258832 -0.7101637 -0.1750449
0.9361886 -0.7192842 -0.1772891
0.9393215 -0.7032375 -0.1719031
0.993858 -0.6937215 -0.174596
0.9188755 -0.6832427 -0.1736984
0.9386619 -0.6887658 -0.1745961
0.9936519 -0.6870128 -0.1795332
0.9518117 -0.67627 -0.1775135
0.9319016 -0.6620185 -0.1781867
0.9408055 -0.6632471 -0.1736984
0.834041 -0.6058937 -0.1763914
0.822334 -0.5927098 -0.1735488
0.9332207 -0.8858194 -0.1620287
0.9370131 -0.8600376 -0.1638241
0.8914217 -0.853021 -0.1678635
0.9591079 -0.8582836 -0.1642729
0.9687539 -0.8546013 -0.1633752
0.7343254 -0.8411825 -0.1631508
0.8934828 -0.8476733 -0.1678635
0.9714745 -0.8417959 -0.1687612
0.7229069 -0.8364473 -0.1629264
0.7466508 -0.8334647 -0.1602334
0.9596438 -0.8332906 -0.1658438
0.9612515 -0.8323264 -0.1629264
0.7351499 -0.8233809 -0.1687612
0.9513583 -0.8118042 -0.1638241
0.9732058 -0.8199595 -0.1656194
0.9969496 -0.7945284 -0.1642729
0.9856822 -0.7867817 -0.1659186
0.9978565 -0.7834787 -0.1649461
0.6633002 -0.7720773 -0.1678635
0.9107136 -0.7776917 -0.1674147
0.9427841 -0.7701489 -0.1602334
0.9988458 -0.772429 -0.1669659
0.9441032 -0.7551528 -0.1651706
0.9680943 -0.7532235 -0.1696589
0.987551 -0.7576083 -0.1651706
0.9915083 -0.7310363 -0.1683124
0.9140937 -0.7145485 -0.1611311
0.9372604 -0.7034129 -0.1638241
0.9381673 -0.6935023 -0.1678635
0.9944763 -0.6943802 -0.1624776
0.9166495 -0.6842057 -0.1633752
0.9404757 -0.6892929 -0.166517
0.9313245 -0.6657912 -0.1602334
0.9424543 -0.6664033 -0.1669659
0.8351128 -0.5914247 -0.1642729
0.8929057 -0.8511803 -0.1517056
0.9580362 -0.8502165 -0.1539497
0.9701554 -0.8539866 -0.1530521
0.9704852 -0.8496017 -0.1526032
0.7349025 -0.8336858 -0.1586625
0.9488025 -0.8297824 -0.1512567
0.9511934 -0.8215398 -0.1535009
0.9735356 -0.8152257 -0.1579892
0.9839235 -0.8194351 -0.1588869
0.6620635 -0.8035612 -0.1588869
0.9857373 -0.797511 -0.1593357
0.6748423 -0.7820765 -0.1597846
0.6832516 -0.7888291 -0.1579892
0.99629 -0.7823396 -0.1584381
0.6538192 -0.7725167 -0.1517056
0.9983512 -0.7762867 -0.1548474
0.9321489 -0.7641855 -0.1584381
0.9431139 -0.764888 -0.1566427
0.9671875 -0.7615547 -0.1566427
0.9012325 -0.7549774 -0.1566427
0.94523 -0.7548015 -0.1578396
0.9787295 -0.752785 -0.1526032
0.9682592 -0.7480494 -0.1548474
0.9151655 -0.7231445 -0.1521544
0.9821922 -0.7124438 -0.1557451
0.9144235 -0.7089369 -0.1512567
0.9387444 -0.7068322 -0.1517056
0.9388268 -0.682628 -0.1530521
0.896863 -0.6729805 -0.1539497
0.9304176 -0.6748239 -0.1561939
0.941465 -0.6750423 -0.154623
0.9290985 -0.6685957 -0.1570916
0.9426192 -0.6610547 -0.1503591
0.8311554 -0.6101031 -0.1543986
0.8227462 -0.5992288 -0.1503591
0.8337936 -0.5795848 -0.1548474
0.9692485 -0.8617907 -0.1404847
0.9503689 -0.8300455 -0.1485637
0.9718043 -0.8317117 -0.1400359
0.9492147 -0.8245197 -0.1476661
0.9507812 -0.8257492 -0.1494614
0.7372522 -0.8147871 -0.1490126
0.960427 -0.8195228 -0.1413824
0.9718043 -0.813733 -0.1463196
0.6726164 -0.8032981 -0.1409336
0.9519079 -0.8055493 -0.1493118
0.9737005 -0.809963 -0.1427289
0.6717095 -0.7955817 -0.1445242
0.9859021 -0.792336 -0.1440754
0.9950534 -0.7943092 -0.1451975
0.6630529 -0.7895289 -0.1431777
0.9964137 -0.7879951 -0.1454219
0.6520054 -0.7727798 -0.1454219
0.665114 -0.7677811 -0.1499102
0.933468 -0.7673856 -0.146544
0.9121975 -0.7565551 -0.1458707
0.9347871 -0.7518195 -0.1472172
0.9453399 -0.7582231 -0.1449731
0.9768333 -0.7526096 -0.1427289
0.9662806 -0.7485756 -0.1418312
0.9340451 -0.7380529 -0.1440754
0.967105 -0.7384914 -0.1418312
0.9812028 -0.7206891 -0.1400359
0.9272023 -0.7106022 -0.1422801
0.9162373 -0.7093753 -0.1481149
0.9366009 -0.7073592 -0.1404847
0.9938992 -0.6980625 -0.1431777
0.9285214 -0.6733313 -0.1485637
0.9413826 -0.6747362 -0.1476661
0.823076 -0.5940539 -0.1404847
0.8361021 -0.5766023 -0.1476661
0.9582423 -0.8533722 -0.1355476
0.9605095 -0.835131 -0.1324057
0.970073 -0.8334647 -0.1395871
0.9732471 -0.804482 -0.1362208
0.6733583 -0.7941777 -0.1359964
0.9843357 -0.7918975 -0.1391382
0.9962076 -0.7975987 -0.1377917
0.6633826 -0.7655887 -0.1377917
0.9103838 -0.7537506 -0.1301616
0.967476 -0.7428315 -0.1328546
0.9357764 -0.7375259 -0.1333034
0.9156601 -0.713234 -0.1346499
0.93792 -0.7126192 -0.1324057
0.9800487 -0.7118317 -0.1368941
0.9164846 -0.7044644 -0.1391382
0.9805433 -0.7066568 -0.1382406
0.9150831 -0.6981502 -0.1382406
0.9392803 -0.6743411 -0.1380162
0.8351952 -0.585635 -0.1395871
0.9694958 -0.8569691 -0.1288151
0.9600973 -0.8392544 -0.1283662
0.9512758 -0.8159255 -0.1283662
0.6727812 -0.79786 -0.1216338
0.6523352 -0.7847056 -0.1274686
0.6619811 -0.7801471 -0.1279174
0.6539016 -0.766905 -0.1292639
0.6759965 -0.7625202 -0.1234291
0.9094769 -0.763747 -0.1265709
0.9109609 -0.7665542 -0.1225314
0.6637124 -0.7598007 -0.1229803
0.9098067 -0.7585721 -0.1243268
0.9233686 -0.7528288 -0.1288151
0.9340038 -0.7468651 -0.1267953
0.9131868 -0.7177065 -0.1207361
0.9359413 -0.7116554 -0.1256732
0.9921266 -0.7056921 -0.1281418
0.670885 -0.7991763 -0.1135548
0.6747599 -0.7755869 -0.1166966
0.665114 -0.7616423 -0.1175943
0.9112906 -0.7619931 -0.1198384
0.9332206 -0.7533108 -0.1151257
0.9343337 -0.7416471 -0.1187163
0.9769158 -0.7462955 -0.1180431
0.9685889 -0.7373505 -0.1189408
0.9150831 -0.7170041 -0.1175943
0.9902716 -0.7143749 -0.1126571
0.9930747 -0.7010451 -0.1108618
0.8202729 -0.5987017 -0.1184919
0.973618 -0.8036489 -0.1032316
0.6622285 -0.7922484 -0.1081688
0.6821798 -0.7911091 -0.1014363
0.6726164 -0.7784792 -0.1095153
0.9437734 -0.7470856 -0.1045781
0.9772456 -0.7408574 -0.1086176
0.978812 -0.7200743 -0.1014363
0.9142586 -0.7015695 -0.1036804
0.9906014 -0.7086738 -0.1005386
0.916567 -0.6984133 -0.1086176
0.9914259 -0.6985896 -0.1032316
0.8314028 -0.5975626 -0.1036804
0.6736881 -0.7833033 -0.09335727
0.9318191 -0.7562043 -0.09964094
0.9791418 -0.7146363 -0.09290843
0.9809555 -0.7139364 -0.09111311
0.9921678 -0.7093753 -0.0938061
0.8333814 -0.5972118 -0.08617594
0.6839111 -0.7861096 -0.07585278
0.8314852 -0.5909854 -0.06956912
