# .PCD v.7 - Point Cloud Data file format
VERSION .7
FIELDS x y z
SIZE 4 4 4
TYPE F F F
COUNT 1 1 1
WIDTH 454
HEIGHT 1
VIEWPOINT 0 0 0 1 0 0 0
POINTS 454
DATA ascii
-0.4882724 0.3635897 -0.5444345
-0.8058453 0.3773563 -0.5439857
-0.828105 0.4200653 -0.5421903
-0.8959562 0.4965364 -0.5475763
-0.8883713 0.7375259 -0.540395
-0.8424502 0.7337549 -0.5471275
-0.8729544 0.7458561 -0.5444345
-0.6814378 0.3191268 -0.5318671
-0.6746774 0.3175492 -0.5345601
-0.6278495 0.3164074 -0.5309695
-0.6169669 0.3197416 -0.5332136
-0.6849829 0.3214946 -0.5327648
-0.6739355 0.3273694 -0.535009
-0.6698133 0.3287743 -0.5341113
-0.6550009 0.3228101 -0.5342609
-0.6343213 0.3249591 -0.5352334
-0.6200998 0.3265819 -0.5300718
-0.6162249 0.3295618 -0.5314183
-0.6802012 0.3339466 -0.5332136
-0.6736057 0.3324566 -0.5314183
-0.6517581 0.3357005 -0.5305206
-0.6478008 0.3350884 -0.5345601
-0.6368358 0.3377193 -0.5300718
-0.6724514 0.347365 -0.5300718
-0.6683293 0.3485937 -0.5309695
-0.6466466 0.3499959 -0.5354578
-0.6181211 0.3513982 -0.532316
-0.5240529 0.3551709 -0.5314183
-0.5135413 0.3571436 -0.5314183
-0.4927244 0.3599924 -0.5300718
-0.7892329 0.3657817 -0.5302962
-0.4992374 0.3600801 -0.5300718
-0.4880251 0.3686744 -0.537702
-0.796859 0.3737034 -0.5320168
-0.7778144 0.3732346 -0.5314183
-0.5184467 0.3771827 -0.532316
-0.5016695 0.3772256 -0.5345601
-0.4977946 0.3771818 -0.5363555
-0.4708768 0.3755147 -0.5305206
-0.8074529 0.3850744 -0.532316
-0.787955 0.3830574 -0.5300718
-0.7623975 0.3821796 -0.532316
-0.4972588 0.3847237 -0.5314183
-0.4701348 0.3853375 -0.5305206
-0.4667546 0.380865 -0.5305206
-0.8048559 0.3924418 -0.5300718
-0.7763304 0.3928785 -0.5314183
-0.7616554 0.3921787 -0.5314183
-0.4801105 0.3902494 -0.5314183
-0.8293417 0.4054209 -0.5332136
-0.8188714 0.4048061 -0.5316427
-0.8082361 0.4024383 -0.5309695
-0.7972711 0.4027891 -0.5327648
-0.8141721 0.4136634 -0.5309695
-0.8922874 0.4972823 -0.5316427
-0.8754277 0.499255 -0.5314183
-0.8958737 0.5017114 -0.5314183
-0.8833216 0.5055032 -0.5329892
-0.890721 0.5169701 -0.535009
-0.9008203 0.5206529 -0.5305206
-0.8897729 0.5292472 -0.5336625
-0.8932355 0.5362629 -0.5318671
-0.8826002 0.5418745 -0.5318671
-0.9086112 0.5534071 -0.530745
-0.8983882 0.5527059 -0.530745
-0.9117853 0.5647641 -0.5354578
-0.907828 0.563186 -0.5311939
-0.8975638 0.5624402 -0.5352334
-0.8839606 0.565114 -0.5305206
-0.8894431 0.668422 -0.5354578
-0.9018921 0.6977109 -0.5318671
-0.8969455 0.7035882 -0.5368043
-0.8957912 0.718408 -0.5372531
-0.8781483 0.7378767 -0.5300718
-0.8834247 0.7471725 -0.5332136
-0.6707202 0.3189514 -0.529623
-0.6639597 0.3174606 -0.5282765
-0.642442 0.3172852 -0.521544
-0.6349808 0.3176803 -0.5287253
-0.6208417 0.3168467 -0.5260323
-0.6822073 0.326669 -0.5239378
-0.672369 0.3233358 -0.5255835
-0.6634239 0.3249586 -0.5271544
-0.6593429 0.327194 -0.5278276
-0.6421122 0.3221971 -0.5228905
-0.6344037 0.3250893 -0.5282764
-0.6250739 0.3232488 -0.524237
-0.6167195 0.3249139 -0.5246858
-0.684076 0.3365784 -0.5206463
-0.6799538 0.3391216 -0.5224416
-0.6672026 0.3349996 -0.5264812
-0.6555505 0.3314486 -0.5276033
-0.6435138 0.333129 -0.5254339
-0.637248 0.3328075 -0.52693
-0.6182311 0.336023 -0.5243866
-0.6836638 0.3415771 -0.5210952
-0.6795416 0.3440334 -0.5255835
-0.6642072 0.3445 -0.5255835
-0.6546437 0.343923 -0.5255834
-0.6473474 0.3426728 -0.5255835
-0.6365885 0.342804 -0.5233393
-0.6257883 0.3436822 -0.5235637
-0.6168845 0.3456547 -0.5251347
-0.514407 0.3472331 -0.5255835
-0.6787172 0.3536783 -0.529623
-0.6645368 0.3555208 -0.5237882
-0.6572406 0.3545123 -0.525359
-0.6461931 0.3575378 -0.5251347
-0.6355991 0.3552139 -0.5233393
-0.6262006 0.3546734 -0.5258827
-0.6139165 0.3593803 -0.5287253
-0.5202606 0.354995 -0.5278276
-0.5103673 0.3515736 -0.5233393
-0.5055306 0.3572455 -0.5237882
-0.7856053 0.3630627 -0.5228904
-0.7764541 0.3661316 -0.5233393
-0.6566223 0.3617481 -0.5282765
-0.6456573 0.3649043 -0.5264812
-0.6244693 0.360958 -0.5233393
-0.5332866 0.3695522 -0.5201975
-0.527653 0.3663364 -0.5236386
-0.5150117 0.3672426 -0.5266308
-0.5070421 0.3659274 -0.5237882
-0.4945107 0.3667752 -0.5227408
-0.7992498 0.3779711 -0.5251346
-0.7861137 0.373089 -0.5252843
-0.7774847 0.3781464 -0.5278276
-0.7666021 0.3798995 -0.5210952
-0.5258873 0.3746827 -0.5251346
-0.5156025 0.373499 -0.525359
-0.5088009 0.3715692 -0.5206463
-0.495074 0.3724905 -0.5267056
-0.4856342 0.3746091 -0.5246858
-0.4777196 0.3728855 -0.52693
-0.8075354 0.385206 -0.5260323
-0.794839 0.3841966 -0.5235637
-0.7852343 0.3845778 -0.5273789
-0.7755336 0.3866237 -0.5254339
-0.7646784 0.3872376 -0.5248355
-0.5284224 0.3841966 -0.5251346
-0.5179933 0.3847232 -0.5251347
-0.5044519 0.3855129 -0.5243492
-0.4907457 0.3873988 -0.5224416
-0.4828037 0.3834965 -0.5249851
-0.4746967 0.3837886 -0.5245363
-0.4665073 0.38604 -0.5210952
-0.4597469 0.386389 -0.5287253
-0.8261264 0.3987559 -0.5228905
-0.8182393 0.3963291 -0.5248355
-0.8065872 0.3975264 -0.5276033
-0.7958283 0.3973085 -0.5224416
-0.7832969 0.3928356 -0.5251346
-0.7734449 0.3967381 -0.5230401
-0.7650356 0.3995435 -0.5273788
-0.754689 0.3947649 -0.5231149
-0.5207552 0.3998951 -0.5273788
-0.5169628 0.397002 -0.5260323
-0.5048436 0.3939321 -0.5270796
-0.4966816 0.3947219 -0.5201975
-0.4880663 0.3967376 -0.521544
-0.477225 0.3952466 -0.52693
-0.4660126 0.3908615 -0.5287253
-0.4594996 0.3913886 -0.524237
-0.8364319 0.4021752 -0.5255835
-0.8298364 0.4005967 -0.5278276
-0.8146667 0.4089278 -0.5206463
-0.8052682 0.4058591 -0.5251347
-0.7952925 0.4047184 -0.5217685
-0.7844511 0.4040611 -0.5237882
-0.7740495 0.4064726 -0.5227408
-0.5167155 0.4020875 -0.5201975
-0.4975885 0.4069766 -0.5264812
-0.4854693 0.4036652 -0.5228905
-0.4794509 0.4004213 -0.5224416
-0.4670019 0.4030965 -0.5231149
-0.8289294 0.413093 -0.5240126
-0.8183767 0.4124348 -0.5219928
-0.7944887 0.4146062 -0.5237881
-0.7858114 0.4128733 -0.5206463
-0.7749289 0.412961 -0.5233393
-0.494703 0.4194505 -0.5260323
-0.4883548 0.4194505 -0.5206463
-0.4771975 0.4128736 -0.5237882
-0.8242302 0.4233969 -0.5237882
-0.8135125 0.4235722 -0.5228905
-0.8026299 0.4223454 -0.524237
-0.4879426 0.4243624 -0.5233393
-0.8169751 0.4322542 -0.5201975
-0.8044163 0.4355577 -0.5249851
-0.7951276 0.432605 -0.5255835
-0.8839606 0.4982031 -0.5276033
-0.8929057 0.5070015 -0.5284261
-0.874933 0.506753 -0.5246858
-0.8623191 0.5073227 -0.5226661
-0.8950492 0.5141191 -0.5233393
-0.8833973 0.514485 -0.52693
-0.8741498 0.516575 -0.5271544
-0.8530855 0.5162677 -0.5219928
-0.900573 0.5256516 -0.5228905
-0.8922462 0.5254754 -0.5226661
-0.8821468 0.5229769 -0.5226661
-0.8796323 0.5285465 -0.5255835
-0.8662764 0.5248619 -0.5204219
-0.8558061 0.5230646 -0.5231149
-0.9039119 0.5334123 -0.5251347
-0.8967806 0.5335438 -0.5231149
-0.8863102 0.5356933 -0.5239004
-0.874933 0.5354441 -0.5225913
-0.8655344 0.5347716 -0.5208707
-0.8579496 0.537053 -0.5233393
-0.9032936 0.5407354 -0.5278276
-0.8959768 0.5433005 -0.5278276
-0.8855683 0.5455582 -0.5235637
-0.8741636 0.5452959 -0.5254339
-0.8657543 0.5455291 -0.5225913
-0.8574138 0.5444182 -0.5235637
-0.9023043 0.5558192 -0.521544
-0.8923286 0.5512589 -0.5219928
-0.8848262 0.5553811 -0.5240126
-0.8732842 0.5568423 -0.5245362
-0.8641741 0.5519609 -0.5258079
-0.911538 0.5698514 -0.5246858
-0.9016447 0.5630107 -0.5260323
-0.884043 0.5652022 -0.5267056
-0.8739024 0.5634058 -0.521544
-0.9042417 0.5706389 -0.5237882
-0.8905973 0.5733584 -0.5222173
-0.8823804 0.5739142 -0.5239378
-0.8656169 0.5745862 -0.5233393
-0.8834247 0.6692973 -0.5219928
-0.876417 0.6661845 -0.5255835
-0.8962035 0.6764449 -0.5228904
-0.8868873 0.6770152 -0.5246858
-0.8727895 0.6749116 -0.5224416
-0.865452 0.6742969 -0.524237
-0.9029226 0.685522 -0.5246858
-0.8922462 0.6885045 -0.5251346
-0.8851973 0.6860915 -0.5219928
-0.8779422 0.6846446 -0.5251347
-0.8676779 0.6837685 -0.5278276
-0.9023043 0.6928017 -0.52693
-0.8937852 0.6951975 -0.5257331
-0.8874644 0.6956505 -0.5246859
-0.8772002 0.6944674 -0.5244614
-0.8610825 0.6919238 -0.5237882
-0.8563832 0.6952553 -0.5233393
-0.8939363 0.7059548 -0.525359
-0.8837132 0.7058239 -0.5231149
-0.8764582 0.7043762 -0.524237
-0.8660291 0.705956 -0.52693
-0.8579496 0.703455 -0.5231149
-0.8493755 0.7070514 -0.5217684
-0.8934828 0.7133651 -0.5217685
-0.8862278 0.7128823 -0.5201975
-0.8777773 0.7150756 -0.5237882
-0.8654932 0.7133212 -0.5244614
-0.8594337 0.7141553 -0.5222173
-0.8441403 0.7169611 -0.5208707
-0.8892782 0.7277924 -0.5278276
-0.8790552 0.7282292 -0.5206463
-0.8539099 0.727222 -0.5224416
-0.8867637 0.7326578 -0.5246859
-0.8785605 0.7330525 -0.52693
-0.8660498 0.7346319 -0.5252469
-0.8839194 0.7423491 -0.5228905
-0.6465917 0.3244465 -0.5170557
-0.6844058 0.3316665 -0.518851
-0.6733583 0.3377193 -0.5197486
-0.6625582 0.3375439 -0.5192998
-0.6586834 0.3372808 -0.5192998
-0.6305289 0.3349564 -0.5118941
-0.6266953 0.3339909 -0.5166068
-0.61606 0.3349999 -0.5130162
-0.683334 0.3465766 -0.518851
-0.6762027 0.3458295 -0.516158
-0.6404634 0.3446465 -0.5157092
-0.6362587 0.3478912 -0.5184022
-0.6299105 0.3423655 -0.513465
-0.6827981 0.3541176 -0.5130162
-0.6784698 0.3588533 -0.518851
-0.6646193 0.3556523 -0.5175045
-0.6506451 0.3533722 -0.5172801
-0.6397213 0.3546004 -0.5159336
-0.6163074 0.3556962 -0.5143627
-0.7783091 0.3685007 -0.5197486
-0.6820149 0.3638528 -0.518851
-0.6778103 0.3689374 -0.5166068
-0.6628606 0.364495 -0.5157092
-0.6532421 0.3638954 -0.5163825
-0.6497794 0.3658698 -0.5103232
-0.6376603 0.3639692 -0.516158
-0.6268601 0.3651381 -0.5140635
-0.6137516 0.3645526 -0.5143626
-0.5238881 0.3603432 -0.518851
-0.5197659 0.3627119 -0.5197486
-0.5028649 0.3651674 -0.5170556
-0.7884496 0.3783218 -0.518851
-0.7738159 0.3765245 -0.5136894
-0.5330393 0.3749025 -0.5103232
-0.5120986 0.3797241 -0.5152603
-0.5084711 0.3763925 -0.5192998
-0.4813471 0.3761294 -0.5197486
-0.4773898 0.3779711 -0.5192998
-0.7987963 0.3855134 -0.5179533
-0.7731976 0.3838476 -0.5175045
-0.5365844 0.3854255 -0.5127169
-0.5241904 0.3849283 -0.5166069
-0.5114803 0.3871353 -0.5168313
-0.4942496 0.3849868 -0.518851
-0.486706 0.3889331 -0.516158
-0.8159034 0.3941072 -0.5152603
-0.809143 0.3928785 -0.518851
-0.7963231 0.3923528 -0.5184021
-0.7872955 0.3958172 -0.5123429
-0.7634692 0.3960365 -0.5168312
-0.5349355 0.392704 -0.513465
-0.5245476 0.3947649 -0.5135772
-0.512978 0.3954229 -0.5157092
-0.5003092 0.3998951 -0.510772
-0.4933427 0.3973081 -0.5159336
-0.485964 0.3987559 -0.5197486
-0.468431 0.3940192 -0.5164573
-0.8256317 0.4061649 -0.5181777
-0.8150789 0.404016 -0.5184022
-0.7932314 0.4066477 -0.516158
-0.7845336 0.404237 -0.5190754
-0.7716311 0.4035792 -0.5179533
-0.7629746 0.4036222 -0.5127918
-0.5164681 0.4071739 -0.5103232
-0.5075092 0.4054785 -0.5167565
-0.4874479 0.4067793 -0.5123429
-0.4766204 0.4054498 -0.516158
-0.4692279 0.400509 -0.5157092
-0.824931 0.4161632 -0.5130162
-0.816027 0.4181359 -0.5157092
-0.8054124 0.41511 -0.5176167
-0.7831184 0.4145109 -0.5149611
-0.7709716 0.413488 -0.513465
-0.5058329 0.4111202 -0.5121185
-0.4970939 0.4145413 -0.5186266
-0.4859914 0.415622 -0.5155596
-0.8161507 0.4261751 -0.5142131
-0.8044437 0.4273888 -0.5179533
-0.7938703 0.4246472 -0.5162702
-0.7813595 0.420153 -0.5103232
-0.4839853 0.4233969 -0.5184022
-0.4779669 0.4205037 -0.518851
-0.8124408 0.4385701 -0.5143626
-0.8020529 0.4323419 -0.513465
-0.7913352 0.4312904 -0.5130162
-0.812111 0.4434793 -0.5148115
-0.805433 0.4421647 -0.5197486
-0.8710582 0.505613 -0.5154848
-0.8538274 0.5090761 -0.510772
-0.8805392 0.5188113 -0.5192998
-0.8703161 0.5155227 -0.514587
-0.8639268 0.5146023 -0.5168313
-0.8595985 0.5174967 -0.5148115
-0.8494167 0.5130234 -0.5148115
-0.8945546 0.5216184 -0.518851
-0.8839194 0.5272301 -0.5184022
-0.873614 0.5266163 -0.5132406
-0.8663589 0.5249066 -0.5152603
-0.8587741 0.5273178 -0.5175045
-0.9002432 0.5306512 -0.5197486
-0.8790552 0.5384552 -0.5166068
-0.8655757 0.5348167 -0.5175045
-0.8584443 0.5322288 -0.5166068
-0.9030463 0.5459103 -0.5175045
-0.8884538 0.5491542 -0.5192998
-0.8782308 0.548364 -0.518851
-0.8619069 0.5417868 -0.5152603
-0.9027165 0.5508196 -0.5197486
-0.8919988 0.5561699 -0.5184022
-0.8849087 0.5554249 -0.5177289
-0.877901 0.553275 -0.5192998
-0.8670184 0.5573968 -0.5184022
-0.891463 0.5635803 -0.5159336
-0.8736551 0.568447 -0.5141382
-0.866565 0.5647641 -0.5132406
-0.8971103 0.572613 -0.514587
-0.873078 0.5758578 -0.513465
-0.8696566 0.5785334 -0.5157092
-0.8692444 0.5835303 -0.5184022
-0.8732017 0.6699997 -0.5175045
-0.8694505 0.6642556 -0.5118941
-0.9037058 0.6757438 -0.5186266
-0.8963271 0.6764892 -0.5163825
-0.8830949 0.6742091 -0.5184022
-0.8767468 0.6765184 -0.5158588
-0.8687497 0.6715774 -0.518851
-0.858032 0.6756991 -0.510772
-0.8966432 0.6856393 -0.5175045
-0.8853209 0.6861806 -0.5150359
-0.8719238 0.6872754 -0.5172801
-0.8619069 0.6821886 -0.513465
-0.8572901 0.685522 -0.5121185
-0.897605 0.6988518 -0.5192998
-0.8814873 0.6963525 -0.5159336
-0.8712231 0.6971855 -0.5170556
-0.8640093 0.6941162 -0.5166068
-0.8567954 0.6903461 -0.5175045
-0.8499526 0.6997279 -0.5192998
-0.8909271 0.7083239 -0.516158
-0.8705223 0.7070071 -0.5139138
-0.8635145 0.7015704 -0.5121185
-0.8558061 0.7052536 -0.510772
-0.8901026 0.7180573 -0.5192998
-0.8830537 0.7157333 -0.5157092
-0.8755926 0.7168304 -0.5175045
-0.8697391 0.7167866 -0.5150359
-0.8549542 0.7150168 -0.5163076
-0.8487159 0.7170049 -0.5154848
-0.8868049 0.7244887 -0.5173549
-0.8765544 0.7238745 -0.5166068
-0.866936 0.7248976 -0.5154848
-0.8588153 0.7241079 -0.5121185
-0.846435 0.7276162 -0.5152603
-0.8843316 0.7375259 -0.518851
-0.8743559 0.7340623 -0.5148115
-0.8564932 0.7341934 -0.5160084
-0.8474793 0.7341943 -0.5130162
-0.8758399 0.7421299 -0.5177289
-0.8635558 0.7404199 -0.5116696
-0.6296632 0.3475404 -0.5058348
-0.6722454 0.3552577 -0.5058348
-0.678305 0.3641159 -0.5076302
-0.6671751 0.3689374 -0.5076302
-0.6348572 0.367886 -0.5089766
-0.6175028 0.3642904 -0.5085279
-0.816398 0.3893716 -0.5089766
-0.5423967 0.3866525 -0.5083034
-0.8363494 0.4075256 -0.502693
-0.5102848 0.404543 -0.5076302
-0.4892617 0.4098934 -0.5076302
-0.8069994 0.4226961 -0.5094255
-0.7852343 0.4230478 -0.5098743
-0.4838204 0.4286595 -0.5071813
-0.8129354 0.4337468 -0.5089766
-0.8600932 0.5125849 -0.5085278
-0.8524259 0.5289832 -0.5062836
-0.8609176 0.5567847 -0.5071813
-0.8764994 0.573183 -0.5071813
-0.8624016 0.6772794 -0.5071813
-0.8616596 0.6871882 -0.5098743
-0.8577023 0.680611 -0.5085278
-0.8671009 0.6963086 -0.5062836
-0.8437693 0.7243714 -0.5094255
-0.6294159 0.3526277 -0.4964093
-0.6716682 0.3652989 -0.4964094
-0.5326683 0.3825308 -0.4986535
-0.863226 0.6676319 -0.5
-0.8652047 0.6587746 -0.4169659
-0.8647925 0.6637733 -0.4160682
