# .PCD v.7 - Point Cloud Data file format
VERSION .7
FIELDS x y z
SIZE 4 4 4
TYPE F F F
COUNT 1 1 1
WIDTH 1498
HEIGHT 1
VIEWPOINT 0 0 0 1 0 0 0
POINTS 1498
DATA ascii
0.6887341 -0.9963176 -0.9358169
0.6995754 -0.9900912 -0.9385099
0.7338445 -0.9929265 -0.9361162
0.7456202 -0.9950022 -0.9355924
0.7689105 -0.9939936 -0.938061
0.7810297 -0.9968447 -0.9304309
0.1129066 -0.9839534 -0.9313285
0.1650934 -0.9848294 -0.9344704
0.1859516 -0.9828124 -0.9340215
0.2890061 -0.9836025 -0.9317774
0.2989818 -0.9876357 -0.9313285
0.3825797 -0.9831632 -0.9364901
0.4866647 -0.9865825 -0.9320018
0.5110269 -0.9881628 -0.9344704
0.534853 -0.9845654 -0.9326751
0.5524547 -0.9879422 -0.9337971
0.578768 -0.9821109 -0.9337224
0.5934705 -0.9827247 -0.9313285
0.6367534 -0.9876357 -0.9353681
0.6689888 -0.9860581 -0.9362657
0.7333773 -0.9882053 -0.9362657
0.7446309 -0.9853117 -0.9391831
0.7567089 -0.989565 -0.9308797
0.8040315 -0.9864948 -0.9385099
0.834783 -0.9869332 -0.9340215
0.4876953 -0.9751385 -0.9340215
0.5516716 -0.9742182 -0.9331239
0.7021037 -0.9765269 -0.9371634
0.7124366 -0.9722888 -0.9340215
0.7250505 -0.9706235 -0.9358169
0.7459912 -0.9734293 -0.9346948
0.4786265 -0.9680794 -0.9394075
0.4888495 -0.969658 -0.9317774
0.5616884 -0.9654043 -0.9355924
0.5938827 -0.9631684 -0.9340215
0.6150707 -0.9657117 -0.9322262
0.7018839 -0.9678164 -0.9344704
0.7141267 -0.9621161 -0.9382855
0.7245833 -0.964864 -0.9358169
0.7364277 -0.9673778 -0.9398564
0.7580279 -0.9622037 -0.9355924
0.9513583 -0.9694825 -0.9385099
0.4886022 -0.956942 -0.9308797
0.5623068 -0.9578198 -0.9340215
0.605095 -0.9570297 -0.9326751
0.7046869 -0.9525572 -0.9376122
0.7261223 -0.9579058 -0.9335727
0.7590997 -0.9592221 -0.9376122
0.7692403 -0.9543111 -0.9398564
0.7816069 -0.9572051 -0.9385099
0.8256317 -0.9586082 -0.9389587
0.9291809 -0.9505402 -0.9367145
0.4908282 -0.9484354 -0.9313285
0.5529906 -0.9433491 -0.9317774
0.6072798 -0.9413759 -0.9344704
0.6179974 -0.9452996 -0.9355924
0.6293747 -0.9424729 -0.9324507
0.6390618 -0.9400175 -0.9340215
0.7050167 -0.9480847 -0.9317774
0.7163115 -0.9445777 -0.9331239
0.8153263 -0.9443146 -0.9367145
0.8394822 -0.9494869 -0.9380611
0.5762398 -0.9354573 -0.9304309
0.5865452 -0.9331321 -0.931553
0.5979224 -0.9340962 -0.9324507
0.6076783 -0.933585 -0.9329743
0.6290861 -0.9378676 -0.9355925
0.639474 -0.9348425 -0.9313285
0.716284 -0.9336435 -0.9328247
0.7826374 -0.9371665 -0.9378366
0.5663465 -0.9281776 -0.9313285
0.5877818 -0.9276506 -0.9322262
0.5969331 -0.9279145 -0.9313285
0.6077332 -0.9267753 -0.9326751
0.6290036 -0.9292309 -0.9340215
0.7172595 -0.9251521 -0.9342459
0.7512676 -0.9210733 -0.9331239
0.7623975 -0.9207225 -0.9367145
0.8644627 -0.9282653 -0.9335727
0.750979 -0.9162948 -0.9378366
0.7612432 -0.9156379 -0.9317774
0.7966115 -0.9143207 -0.9358169
0.7632219 -0.9018249 -0.9317774
0.8337524 -0.8821371 -0.9378366
0.8441815 -0.8859085 -0.9367145
0.9586958 -0.8834516 -0.9394075
0.8328868 -0.8724896 -0.9376122
0.8458304 -0.8756475 -0.9331239
0.8343707 -0.8642027 -0.9326751
0.8343295 -0.8541623 -0.9320018
0.8923286 -0.8524089 -0.9335727
0.8824766 -0.8424544 -0.9355924
0.9062616 -0.8424983 -0.9308797
0.915248 -0.8497771 -0.9340215
0.9273672 -0.8493825 -0.936939
0.8828888 -0.8376303 -0.9342459
0.8935653 -0.8368866 -0.9308797
0.9055196 -0.8306602 -0.9326751
0.9182984 -0.8337287 -0.9358169
0.9277794 -0.8345188 -0.9385099
0.9384971 -0.8386397 -0.9385099
0.8945958 -0.8241259 -0.9324507
0.9071136 -0.8266253 -0.9361162
0.9176663 -0.8274724 -0.9335728
0.9286863 -0.8243443 -0.9394075
0.9302939 -0.823776 -0.9322262
0.9178037 -0.8189957 -0.9344704
0.1644338 -0.990706 -0.9281867
0.1745744 -0.9921959 -0.9250449
0.1840554 -0.9955283 -0.9243716
0.2057381 -0.9951776 -0.9259425
0.2472897 -0.9976322 -0.9228007
0.2575951 -0.9985977 -0.9263914
0.2987895 -0.9938329 -0.9274387
0.3087102 -0.991055 -0.9205565
0.3148934 -0.9947838 -0.926167
0.3256111 -0.9979839 -0.9290844
0.3923905 -0.9955275 -0.9232495
0.4125067 -0.9926353 -0.9263914
0.4243374 -0.9935114 -0.9249327
0.4853869 -0.9911427 -0.9201077
0.4966404 -0.9904429 -0.9266158
0.5058329 -0.9973261 -0.9239228
0.5444989 -0.9985101 -0.9263914
0.5587617 -0.9971955 -0.9281867
0.5848963 -0.9984224 -0.9263914
0.768828 -0.9922836 -0.9272891
0.113676 -0.9842738 -0.9254937
0.1226349 -0.9880751 -0.9232495
0.1633621 -0.9893019 -0.9286355
0.1745744 -0.984852 -0.9247082
0.1847699 -0.9848876 -0.9253441
0.19557 -0.9831047 -0.9247457
0.2480317 -0.9897404 -0.9290844
0.2689723 -0.9848584 -0.9229504
0.2885115 -0.9883382 -0.9272891
0.2993116 -0.9821976 -0.9223519
0.3064018 -0.9851799 -0.9268402
0.3107713 -0.9842147 -0.9286355
0.3205821 -0.9888626 -0.9250449
0.3724391 -0.9852679 -0.9214542
0.3829094 -0.9862334 -0.9290844
0.414238 -0.9877234 -0.9245961
0.4975885 -0.9864071 -0.9272891
0.5792077 -0.9854433 -0.9259425
0.5920689 -0.9827247 -0.9277379
0.6674224 -0.9893896 -0.9263914
0.6995754 -0.9878111 -0.9219031
0.7333773 -0.9867579 -0.9254937
0.7566264 -0.9882504 -0.9290844
0.1657117 -0.9760593 -0.9252693
0.2912321 -0.971411 -0.9201077
0.3119255 -0.9715864 -0.9254937
0.3832667 -0.9765562 -0.9260921
0.4148976 -0.9727721 -0.9216787
0.4768952 -0.9711479 -0.9268402
0.4884373 -0.9735157 -0.9268402
0.5924811 -0.9776375 -0.9241472
0.7013892 -0.9725519 -0.9290844
0.9158251 -0.9762352 -0.9290844
0.1752339 -0.9683434 -0.9201077
0.1869409 -0.9697456 -0.9223519
0.256331 -0.9639577 -0.921903
0.2608104 -0.9630369 -0.9221275
0.2715281 -0.9615899 -0.9214542
0.2902428 -0.9684311 -0.9241472
0.300878 -0.9649658 -0.9243716
0.3642772 -0.960976 -0.9241472
0.3743353 -0.964483 -0.9232495
0.3935447 -0.9677286 -0.9223519
0.415788 -0.9649397 -0.9241472
0.4884373 -0.9657998 -0.9250449
0.5933056 -0.9677286 -0.9250449
0.6049302 -0.9634026 -0.9280372
0.6924853 -0.9640463 -0.9228007
0.7033678 -0.9643971 -0.9205565
0.7349437 -0.9657117 -0.9281867
0.8250546 -0.9627291 -0.9214542
0.9170617 -0.9611514 -0.9259425
0.4171236 -0.9561518 -0.9223519
0.4788189 -0.9539311 -0.9242968
0.4863487 -0.9528496 -0.9242969
0.4904159 -0.9524695 -0.9281867
0.5534853 -0.9529088 -0.9268402
0.5730245 -0.954925 -0.9245961
0.6063316 -0.9568543 -0.9201077
0.6169257 -0.9517683 -0.9266158
0.6270525 -0.9567663 -0.9277379
0.7592646 -0.9540471 -0.9201077
0.907828 -0.9555397 -0.9290844
0.2935405 -0.946243 -0.9205565
0.4591698 -0.9492238 -0.9205565
0.4790387 -0.9458923 -0.9223519
0.4851807 -0.9442265 -0.9241472
0.4911579 -0.9441392 -0.9299821
0.5421906 -0.9452775 -0.9286355
0.5969331 -0.9446654 -0.9299821
0.6071561 -0.9486994 -0.9250449
0.6172142 -0.9405419 -0.9299821
0.6274372 -0.9465066 -0.927289
0.6388144 -0.9465353 -0.9248953
0.6604147 -0.9422099 -0.9210054
0.7145802 -0.9469438 -0.9286355
0.7698998 -0.9435245 -0.9268402
0.8501999 -0.9406296 -0.9277379
0.4911167 -0.9357191 -0.9221275
0.5444989 -0.9364202 -0.9268402
0.5748382 -0.9348425 -0.9250449
0.5852261 -0.9390519 -0.9236984
0.5960262 -0.9376497 -0.9250449
0.6083928 -0.9360694 -0.9277379
0.6191928 -0.9337902 -0.923474
0.628509 -0.9337034 -0.9241472
0.6409168 -0.9348426 -0.926167
0.6622285 -0.9385249 -0.9250449
0.716971 -0.9356326 -0.9263914
0.7268643 -0.9308962 -0.9228007
0.7829259 -0.9395781 -0.9250449
0.7942619 -0.9311163 -0.9252692
0.8506122 -0.9356326 -0.9277379
0.5752504 -0.9297553 -0.9245961
0.5860505 -0.92888 -0.9232495
0.59784 -0.9248899 -0.9243716
0.6093408 -0.9253266 -0.9279623
0.6352694 -0.9283968 -0.9275135
0.6415351 -0.9285284 -0.9295332
0.6506039 -0.9290555 -0.9201077
0.728678 -0.9276506 -0.9277379
0.7399728 -0.9239682 -0.9205565
0.7607486 -0.9206349 -0.9299821
0.8164805 -0.9284407 -0.9232495
0.6085576 -0.9160764 -0.9241472
0.6426069 -0.9151986 -0.9223519
0.6515932 -0.9192326 -0.9272891
0.7177405 -0.915462 -0.9254937
0.7391484 -0.9150231 -0.9214542
0.741127 -0.9110768 -0.9236984
0.7512676 -0.9109882 -0.9268402
0.7624525 -0.912539 -0.9251945
0.5992827 -0.9084021 -0.9212298
0.6106187 -0.9097605 -0.9205565
0.6321365 -0.9094992 -0.9205565
0.642442 -0.9077005 -0.9216787
0.6528299 -0.903798 -0.9228007
0.6637536 -0.9043247 -0.9232496
0.7192795 -0.9097605 -0.9254937
0.7408247 -0.9025124 -0.9254937
0.7520096 -0.90526 -0.926541
0.7627684 -0.9062974 -0.9284111
0.654149 -0.8945023 -0.9226512
0.6654025 -0.8936472 -0.923474
0.7253391 -0.8939756 -0.9230251
0.7309452 -0.8916516 -0.9216787
0.7530813 -0.8987985 -0.9241472
0.7638814 -0.8958475 -0.9253442
0.8426976 -0.8916968 -0.9259425
0.6237273 -0.8839787 -0.9268402
0.7430232 -0.8891528 -0.9210054
0.7522569 -0.8891528 -0.9201077
0.8336837 -0.8740097 -0.9245961
0.8453357 -0.8798569 -0.9286355
0.8352776 -0.8615276 -0.9236984
0.8468198 -0.8618783 -0.9232495
0.8243126 -0.856706 -0.9245961
0.835896 -0.8548197 -0.9232496
0.8475617 -0.8444927 -0.926728
0.8595985 -0.8486362 -0.9210054
0.8716353 -0.8445153 -0.9281867
0.88293 -0.8462684 -0.9259425
0.8250546 -0.8342841 -0.9266906
0.8365142 -0.8373681 -0.9212298
0.8715253 -0.8375578 -0.9236984
0.8822705 -0.8317117 -0.9223519
0.8948845 -0.8339617 -0.924596
0.9050249 -0.8354818 -0.9281867
0.9164022 -0.8339041 -0.9259425
0.8271569 -0.8229859 -0.9216787
0.8837545 -0.8250902 -0.923474
0.9190404 -0.8243443 -0.9277379
0.8835896 -0.8161894 -0.9205565
0.9084876 -0.8150502 -0.9219031
0.9193701 -0.8197841 -0.9268402
0.9289336 -0.8183818 -0.9245961
0.9778227 -0.7606768 -0.9205565
0.9791005 -0.7569076 -0.9254937
0.009027577 -0.9971078 -0.9102334
0.01974525 -0.9978953 -0.9120287
0.02521951 -0.9964054 -0.9120287
0.03961416 -0.9963176 -0.9115799
0.04104319 -0.9945058 -0.9150209
0.05123872 -0.9978514 -0.9131508
0.06129684 -0.994257 -0.9182002
0.09114143 -0.9992125 -0.9142729
0.1119172 -0.9928107 -0.9129264
0.1329404 -0.9976322 -0.9147217
0.1433695 -0.9948715 -0.9194345
0.2892535 -0.9918451 -0.9111311
0.3926378 -0.9908796 -0.9151706
0.4131663 -0.9973691 -0.9115799
0.4231419 -0.9949141 -0.9156194
0.5899254 -0.9993002 -0.9120287
0.0204048 -0.989565 -0.9106822
0.03124614 -0.9871529 -0.912702
0.06245105 -0.9872849 -0.9115799
0.1031782 -0.9843032 -0.911131
0.1136485 -0.9878111 -0.9160682
0.1236654 -0.98176 -0.9174147
0.1340121 -0.9851802 -0.9147217
0.1441527 -0.9841287 -0.9102334
0.153936 -0.9858224 -0.9171156
0.1636094 -0.9836025 -0.9142729
0.1959273 -0.9864948 -0.9178635
0.2782885 -0.984041 -0.9115799
0.3212416 -0.9802684 -0.9192101
0.3613916 -0.9894773 -0.9106822
0.37112 -0.9829878 -0.9102334
0.4862113 -0.9810585 -0.9169659
0.8233233 -0.9824607 -0.9192101
0.1139371 -0.9766298 -0.9131508
0.1552001 -0.9762352 -0.9174147
0.1642689 -0.9761471 -0.9142729
0.1864463 -0.9731667 -0.9102334
0.2494332 -0.9725519 -0.9183124
0.2592028 -0.9720696 -0.9160682
0.2906138 -0.9776822 -0.9185368
0.3108949 -0.9730351 -0.912702
0.3716147 -0.9782522 -0.9142729
0.3825797 -0.9729036 -0.9178635
0.4151449 -0.9769368 -0.9187612
0.4866235 -0.9759712 -0.9129264
0.561977 -0.9738674 -0.9151706
0.7899336 -0.9705358 -0.9129264
0.9595202 -0.9797439 -0.9129264
0.9610866 -0.9779005 -0.9120287
0.07316872 -0.9666754 -0.9115799
0.1242013 -0.9676409 -0.9106822
0.1456367 -0.9674656 -0.9102334
0.176553 -0.9690432 -0.9187612
0.2485263 -0.9671139 -0.9187612
0.2701266 -0.9601859 -0.9151706
0.3021147 -0.9639148 -0.9120287
0.3118705 -0.9651858 -0.9144225
0.3422647 -0.9620293 -0.9196589
0.3527076 -0.9633147 -0.915769
0.3628756 -0.9606243 -0.9160682
0.3839812 -0.9672604 -0.9172651
0.4887671 -0.9608879 -0.9192101
0.615318 -0.9600123 -0.9183124
0.6910013 -0.9629053 -0.9151706
0.2613051 -0.9563281 -0.9151706
0.2720228 -0.9549249 -0.9144973
0.3026918 -0.9576445 -0.9129264
0.3129148 -0.9583443 -0.9133752
0.3537794 -0.9564453 -0.9148714
0.3736345 -0.9559335 -0.9142729
0.3853827 -0.9560642 -0.9115799
0.3943691 -0.957469 -0.9156194
0.448617 -0.9514163 -0.9192101
0.6053423 -0.9510672 -0.9142729
0.6157302 -0.9547496 -0.9124776
0.3034888 -0.944226 -0.9132257
0.3855064 -0.9479531 -0.9167415
0.4483285 -0.9469885 -0.9169659
0.4579331 -0.9477339 -0.9165171
0.4698875 -0.9457169 -0.9151706
0.4793685 -0.9402806 -0.9111311
0.4850983 -0.9434806 -0.916517
0.606579 -0.9447961 -0.9118043
0.6401336 -0.9404542 -0.9102334
0.2420957 -0.9377374 -0.9115799
0.4489468 -0.9315969 -0.9124776
0.4754524 -0.9341853 -0.9151706
0.4810998 -0.9371226 -0.9142729
0.4918587 -0.9347987 -0.9162927
0.5545571 -0.9396659 -0.9196589
0.5764871 -0.9305454 -0.9165171
0.5866276 -0.937562 -0.9169658
0.5971804 -0.9397544 -0.9187612
0.617544 -0.9349302 -0.9192101
0.6508512 -0.9340962 -0.9169658
0.7610784 -0.9324747 -0.9156194
0.4925595 -0.9258975 -0.9102334
0.5987468 -0.9225659 -0.9187612
0.6522528 -0.925634 -0.9167415
0.6620635 -0.921425 -0.9111311
0.7166412 -0.9212496 -0.9183124
0.7382415 -0.9248461 -0.9160682
0.5983896 -0.9141173 -0.9141233
0.6102065 -0.9139717 -0.9178635
0.6412603 -0.9172155 -0.915769
0.651923 -0.9136209 -0.9183124
0.6627231 -0.9140585 -0.9144973
0.7187848 -0.9137086 -0.9183124
0.7293376 -0.9184424 -0.9156194
0.7496187 -0.9196711 -0.9187612
0.8062575 -0.9135332 -0.9178635
0.5451585 -0.9091484 -0.9138241
0.5895132 -0.904939 -0.9151706
0.6318067 -0.9040182 -0.9176391
0.6419473 -0.9034464 -0.9142729
0.6539841 -0.9061658 -0.9169659
0.665114 -0.9033587 -0.9102334
0.7304918 -0.9056388 -0.9196589
0.774764 -0.9043242 -0.9192101
0.5360072 -0.89424 -0.9115799
0.631477 -0.8978347 -0.9138241
0.6548085 -0.8974839 -0.9176391
0.6655262 -0.899237 -0.9142729
0.719197 -0.8907313 -0.9174147
0.7415392 -0.896168 -0.9178636
0.7523805 -0.8966947 -0.9189856
0.6651964 -0.8861711 -0.9187612
0.743353 -0.8845925 -0.9187612
0.7538233 -0.8896798 -0.9178635
0.6133394 -0.8789791 -0.9138241
0.6240571 -0.8790668 -0.9169659
0.6553856 -0.8725773 -0.9120287
0.6883631 -0.877401 -0.9149461
0.7994146 -0.8782784 -0.9138241
0.8439342 -0.8759106 -0.9178635
0.656581 -0.8680618 -0.9133753
0.8235294 -0.8545123 -0.9189856
0.8024651 -0.8424983 -0.9102334
0.8122758 -0.8419713 -0.9178635
0.83558 -0.8430541 -0.9138241
0.8460777 -0.8499534 -0.9174147
0.8698215 -0.842059 -0.9156194
0.8022177 -0.8361842 -0.9131508
0.8137392 -0.8347808 -0.9171903
0.8375036 -0.8341672 -0.9129264
0.8839194 -0.8322378 -0.9147217
0.8044437 -0.8201349 -0.9124776
0.814227 -0.8253678 -0.9145721
0.8843316 -0.8277653 -0.9142729
0.8960798 -0.8258369 -0.918088
0.8153675 -0.8154883 -0.9144973
0.8276104 -0.8156624 -0.9120287
0.8847026 -0.8124628 -0.915395
0.9073334 -0.8168038 -0.916517
0.9307473 -0.8164525 -0.9196589
0.7943856 -0.8062806 -0.9106822
0.8041964 -0.8025079 -0.9115799
0.874933 -0.8032104 -0.9124776
0.8860217 -0.8072444 -0.9120287
0.8996661 -0.7824273 -0.9106822
0.9768333 -0.7705874 -0.9129264
0.9793891 -0.7622571 -0.9169659
0.9785647 -0.7501532 -0.9156194
0.9698256 -0.7465586 -0.9124776
0.9805433 -0.7484002 -0.9165171
0.9961252 -0.6927122 -0.9124776
0.01471619 -0.9948966 -0.9052963
0.02334529 -0.9953822 -0.9045482
0.0335683 -0.9935999 -0.904249
0.05068909 -0.9929845 -0.9054458
0.3911538 -0.991582 -0.9075404
0.4446597 -0.9926353 -0.9079892
0.68927 -0.9936867 -0.9070916
0.01459252 -0.9862335 -0.9030521
0.04134548 -0.9809707 -0.9012567
0.05160971 -0.9844567 -0.9039497
0.06104951 -0.9864948 -0.9030521
0.1034255 -0.9874603 -0.9008079
0.1335999 -0.981059 -0.9043986
0.27969 -0.9821976 -0.9035009
0.289913 -0.9832509 -0.9066427
0.3003009 -0.98211 -0.9026032
0.372604 -0.980356 -0.9075404
0.4961045 -0.984041 -0.9003591
0.8247249 -0.9811462 -0.9084381
0.9164022 -0.9809708 -0.9039497
0.9258832 -0.9834263 -0.9021544
0.02160023 -0.9747448 -0.9059695
0.0421974 -0.9737221 -0.9026033
0.05185704 -0.9739985 -0.9014812
0.06294572 -0.974534 -0.906553
0.07337482 -0.9721574 -0.9050719
0.08293828 -0.9736477 -0.9057451
0.1141844 -0.9714562 -0.9012567
0.1238716 -0.9750952 -0.9040993
0.1335999 -0.974262 -0.9064183
0.1452245 -0.971411 -0.9057451
0.1543482 -0.9741594 -0.9052962
0.1749866 -0.9770249 -0.9052962
0.1852096 -0.9705358 -0.9021544
0.1962571 -0.9738669 -0.9052962
0.2786182 -0.978603 -0.9012567
0.3099468 -0.9756204 -0.9088869
0.3108537 -0.9787784 -0.9039497
0.9168144 -0.9769368 -0.9061939
0.9613339 -0.9735157 -0.9075404
0.04254091 -0.9674651 -0.9032764
0.05395935 -0.9639586 -0.9037253
0.07485881 -0.9622915 -0.9010323
0.08380395 -0.9635635 -0.9043986
0.1056515 -0.9625537 -0.9026032
0.1253555 -0.9674656 -0.9052962
0.134177 -0.9666754 -0.9030521
0.1442764 -0.9670705 -0.9064183
0.1543757 -0.967904 -0.9012567
0.1660827 -0.9688678 -0.9075404
0.1976586 -0.9650092 -0.9048474
0.2392926 -0.9670262 -0.9043986
0.2815862 -0.9616784 -0.9052962
0.3015376 -0.9698334 -0.9061939
0.3112659 -0.9607129 -0.9084381
0.3329486 -0.960976 -0.9012567
0.3432541 -0.9627291 -0.9061939
0.373346 -0.9654924 -0.9082136
0.3833216 -0.962466 -0.9075404
0.394534 -0.969658 -0.9075404
0.7018839 -0.9610637 -0.9003591
0.0960056 -0.9573814 -0.9075404
0.1162455 -0.9559326 -0.9039497
0.1361557 -0.9541652 -0.9051466
0.1453069 -0.9545742 -0.9017056
0.2598211 -0.9552767 -0.9039497
0.2615524 -0.9515039 -0.9039497
0.2705388 -0.9548373 -0.9088869
0.2808442 -0.9538717 -0.9026032
0.2923039 -0.9582565 -0.9093357
0.3015376 -0.9536972 -0.9032764
0.3124201 -0.9544865 -0.9028276
0.343996 -0.9543111 -0.9066427
0.3547137 -0.950014 -0.9070916
0.3751597 -0.9529965 -0.905745
0.3846407 -0.9553196 -0.9059695
0.606579 -0.9518547 -0.9048474
0.09518117 -0.9494869 -0.9017056
0.1257678 -0.9472069 -0.9012567
0.1469833 -0.9458043 -0.9027529
0.1569314 -0.9442842 -0.9030521
0.1672369 -0.9449273 -0.9033513
0.2613051 -0.9461106 -0.9012567
0.2727235 -0.9461115 -0.9079893
0.2817511 -0.9436122 -0.9008079
0.2930459 -0.9497509 -0.9070916
0.3027742 -0.9412444 -0.9088869
0.3137392 -0.9407616 -0.9059695
0.5104497 -0.9436998 -0.9079892
0.5845665 -0.9433491 -0.9093357
0.1570139 -0.9379128 -0.9026032
0.1687209 -0.939315 -0.9084381
0.1797683 -0.9300193 -0.9017056
0.189744 -0.9348425 -0.9012567
0.2407766 -0.9337901 -0.9014812
0.2523187 -0.9381741 -0.9030521
0.2732594 -0.9394904 -0.9017056
0.2822458 -0.9387889 -0.9021544
0.3033513 -0.9334403 -0.9021544
0.3143576 -0.9340537 -0.9068671
0.4693516 -0.9341844 -0.9088869
0.4814296 -0.9326501 -0.9097846
0.5531555 -0.9367719 -0.9017056
0.6495321 -0.9380882 -0.9008079
0.6510161 -0.9381741 -0.9093357
0.2847191 -0.9273875 -0.9035009
0.3054948 -0.9254143 -0.9010323
0.3159652 -0.9237928 -0.9039497
0.3242096 -0.9295799 -0.9008079
0.4717837 -0.9238805 -0.9093357
0.482254 -0.9238805 -0.9070916
0.4928892 -0.921425 -0.9084381
0.630735 -0.9215127 -0.9003591
0.6634651 -0.9201104 -0.9008079
0.7271116 -0.9250197 -0.9057451
0.7596768 -0.9296676 -0.9088869
0.4103632 -0.9113408 -0.9012567
0.5989942 -0.9175664 -0.9048474
0.6533245 -0.912216 -0.9088869
0.7405499 -0.9147601 -0.9093357
0.483738 -0.9062535 -0.9012567
0.5563709 -0.9014294 -0.9052962
0.5773115 -0.9035341 -0.9061939
0.632796 -0.9001148 -0.9061939
0.6522528 -0.9081829 -0.9097846
0.796694 -0.9085336 -0.9093357
0.599324 -0.8959063 -0.9017056
0.6209242 -0.8938015 -0.9043986
0.6332083 -0.8958177 -0.9070916
0.6422771 -0.8979224 -0.9066427
0.7186199 -0.8951161 -0.9043986
0.7515973 -0.8935376 -0.9057451
0.5909972 -0.886785 -0.9021544
0.6331258 -0.88718 -0.9064183
0.6435962 -0.8825755 -0.9043986
0.6550559 -0.8841975 -0.9061939
0.6778103 -0.88161 -0.9030521
0.6223257 -0.8786301 -0.9088869
0.6567872 -0.8724896 -0.9017056
0.8666887 -0.8775768 -0.9079892
0.5599159 -0.8603884 -0.9030521
0.61235 -0.8690703 -0.9017056
0.8219218 -0.8616152 -0.9093357
0.8121934 -0.8509606 -0.9050718
0.8227462 -0.8511803 -0.9048474
0.7015541 -0.8406567 -0.9097846
0.7887794 -0.8498657 -0.9057451
0.8137599 -0.8413591 -0.9035009
0.7018839 -0.835131 -0.9026032
0.7129313 -0.8343426 -0.9039497
0.8027948 -0.8376741 -0.9052962
0.7142504 -0.8285985 -0.90193
0.7248031 -0.8230298 -0.9003591
0.7797107 -0.8251345 -0.9088869
0.8023826 -0.8230298 -0.9084381
0.8153263 -0.8232929 -0.9026032
0.8258379 -0.8246074 -0.904623
0.8360196 -0.82987 -0.9088869
0.8830125 -0.8205742 -0.9070916
0.781813 -0.815883 -0.9039497
0.7935612 -0.815138 -0.9061939
0.8037841 -0.8164964 -0.9050718
0.8152851 -0.8146552 -0.9050719
0.8257966 -0.8149626 -0.9035009
0.8850736 -0.8183818 -0.9097846
0.771961 -0.8060171 -0.904623
0.7818542 -0.8064262 -0.9043986
0.7934787 -0.8050524 -0.904623
0.8059277 -0.8016327 -0.9026032
0.8165011 -0.805271 -0.9043986
0.827734 -0.8032104 -0.9055207
0.8389463 -0.805227 -0.9035009
0.772538 -0.7991763 -0.9039497
0.8056804 -0.7945284 -0.9057451
0.8293829 -0.7950555 -0.9079893
0.907828 -0.7982985 -0.9093357
0.8299188 -0.7880389 -0.9030521
0.9560575 -0.7550651 -0.9061939
0.958366 -0.7496271 -0.9039497
0.9789768 -0.7446302 -0.9093357
0.9486376 -0.7336681 -0.9079892
0.9815326 -0.7336681 -0.9003591
0.9586133 -0.723669 -0.9035009
0.9698256 -0.7237567 -0.9079892
0.9717218 -0.7231445 -0.9070916
0.9911785 -0.7278784 -0.9066427
-0.04645699 -0.9943006 -0.8918312
-0.002019869 -0.9995615 -0.8954219
0.00653778 -0.9957389 -0.8950629
0.01224288 -0.9959677 -0.8996858
0.1130714 -0.9908796 -0.8963196
0.3801064 -0.9963176 -0.8958707
0.4441651 -0.9961423 -0.8967684
0.6355167 -0.9901798 -0.8985637
0.7348613 -0.9989494 -0.8990126
0.00883521 -0.9866424 -0.896918
0.01949792 -0.9829878 -0.8967684
0.02378499 -0.9837774 -0.8978157
0.03091636 -0.9807512 -0.899237
0.04089204 -0.9852679 -0.8947487
0.06137928 -0.9811462 -0.8940754
0.07176718 -0.98062 -0.8949731
0.09361474 -0.9814978 -0.8900359
0.3704605 -0.9870218 -0.8936266
0.8288471 -0.9844778 -0.8990126
0.009439795 -0.9731667 -0.8900359
0.01982769 -0.9779005 -0.8931777
0.02023991 -0.9728159 -0.8909336
0.03143163 -0.9736916 -0.8950853
0.04101571 -0.9752714 -0.89228
0.05280514 -0.9759274 -0.8929533
0.07292139 -0.9763663 -0.8987882
0.08405128 -0.9737788 -0.8954219
0.09351169 -0.9759502 -0.8953097
0.1047446 -0.9702718 -0.8900359
0.1249433 -0.9713233 -0.8981149
0.1347129 -0.9737793 -0.8956463
0.2994765 -0.9757958 -0.8958707
0.3006307 -0.9776375 -0.8963196
0.9597675 -0.9739551 -0.8976661
0.02131168 -0.9678164 -0.8922801
0.03217363 -0.9644622 -0.8935143
0.04225236 -0.9603613 -0.8904848
0.05288759 -0.9680361 -0.896544
0.06286327 -0.9639573 -0.8951975
0.0738695 -0.9645277 -0.8945242
0.08482076 -0.9655363 -0.8976661
0.09551094 -0.9610637 -0.8972172
0.1045797 -0.9651864 -0.8954219
0.1148577 -0.9649516 -0.8946738
0.1351389 -0.9640161 -0.8954219
0.145884 -0.9625537 -0.8954219
0.4768952 -0.9642217 -0.8900359
0.960592 -0.9638709 -0.8945242
0.06484191 -0.957469 -0.8999102
0.0746527 -0.9559326 -0.8987882
0.08493068 -0.954457 -0.8975164
0.09546973 -0.9532145 -0.8936266
0.104621 -0.9566789 -0.8974416
0.1146379 -0.9571174 -0.89228
0.126125 -0.9520599 -0.8946738
0.135661 -0.9554945 -0.8940754
0.145884 -0.9572048 -0.8955716
0.2919329 -0.9527768 -0.8981149
0.3028567 -0.9522941 -0.8909336
0.616802 -0.9557134 -0.8958707
0.7137557 -0.9501894 -0.8945242
0.09658271 -0.9482601 -0.8936266
0.1055278 -0.9466372 -0.8976661
0.1164241 -0.9470321 -0.8948235
0.1267571 -0.9414636 -0.8907092
0.1358259 -0.9460676 -0.8918312
0.157591 -0.9457169 -0.8972172
0.167814 -0.9473822 -0.8990126
0.1778721 -0.9422524 -0.8945242
0.251247 -0.9415075 -0.8985637
0.2622119 -0.942473 -0.8927289
0.2712808 -0.9442269 -0.8963196
0.282658 -0.9484354 -0.8972172
0.2916443 -0.9466824 -0.8909336
0.3139041 -0.9447513 -0.8972172
0.3640299 -0.9444023 -0.8945242
0.3849705 -0.9416828 -0.8931777
0.6614864 -0.9412444 -0.8954219
0.1278289 -0.9371226 -0.8918312
0.1482749 -0.9347987 -0.8931777
0.1581956 -0.9342287 -0.8970675
0.1672369 -0.9376497 -0.8927289
0.178408 -0.9353244 -0.8918313
0.1891394 -0.9346671 -0.8939258
0.1990601 -0.937678 -0.8940754
0.2002144 -0.9349302 -0.8954219
0.2726411 -0.9370788 -0.8969928
0.2834275 -0.9349312 -0.8972173
0.2937879 -0.9320797 -0.8978904
0.3045056 -0.9357204 -0.8963196
0.3139041 -0.9302823 -0.8999102
0.5540624 -0.9326063 -0.8929533
0.1577559 -0.9273875 -0.8936266
0.169298 -0.9299307 -0.8936266
0.1845501 -0.925195 -0.8934022
0.2053671 -0.9268179 -0.8904848
0.2325323 -0.923178 -0.8945242
0.2413537 -0.9256344 -0.8904848
0.2829877 -0.9281776 -0.8936266
0.2948596 -0.9280022 -0.8976661
0.3039284 -0.9253705 -0.8904848
0.3148934 -0.9265109 -0.8996858
0.3264355 -0.9200227 -0.8981149
0.4492766 -0.9257221 -0.8963196
0.4817593 -0.9277382 -0.8990126
0.4904159 -0.9295799 -0.8900359
0.6520054 -0.924583 -0.8963196
0.7287605 -0.9219512 -0.8994614
0.7840801 -0.9205489 -0.8904848
0.3258997 -0.9172595 -0.8920556
0.4088792 -0.9102876 -0.8904848
0.7273589 -0.9193203 -0.8927289
0.4152685 -0.9063412 -0.8960952
0.420916 -0.9020879 -0.8956463
0.4632095 -0.9003788 -0.8909336
0.5880292 -0.9023072 -0.8981149
0.5987468 -0.9007295 -0.8954219
0.6435137 -0.9009909 -0.8990126
0.7284719 -0.9067363 -0.8934022
0.5897605 -0.8996763 -0.8967684
0.6204295 -0.8987108 -0.8994614
0.6442558 -0.8921335 -0.8976661
0.6001484 -0.885295 -0.8940754
0.7415392 -0.883278 -0.8972172
0.5161383 -0.8779277 -0.8972172
0.6010553 -0.8752968 -0.8985637
0.6113607 -0.8790668 -0.8967684
0.4768127 -0.8662632 -0.89228
0.6044354 -0.8557405 -0.8999102
0.6462344 -0.8517064 -0.8999102
0.9159899 -0.8542505 -0.8990126
0.6144936 -0.8431122 -0.8931777
0.6473474 -0.8469709 -0.8922801
0.7029556 -0.8410075 -0.8990126
0.7139206 -0.8412715 -0.8963196
0.8361845 -0.8469709 -0.8999102
0.5513418 -0.8360088 -0.8909336
0.5726947 -0.8334647 -0.8918312
0.5834948 -0.8310092 -0.8931777
0.7033678 -0.8362719 -0.8940754
0.7138107 -0.8361558 -0.8982645
0.585391 -0.827853 -0.8909336
0.6488726 -0.8203989 -0.8927289
0.7145802 -0.8234243 -0.8954219
0.7243085 -0.8280293 -0.8972172
0.7815244 -0.8233805 -0.8994614
0.8036605 -0.8258369 -0.8920556
0.5759924 -0.815487 -0.8940754
0.6492848 -0.8152257 -0.89228
0.705264 -0.8134699 -0.8900359
0.7160641 -0.8164525 -0.8936266
0.7262047 -0.8164525 -0.8985637
0.7927779 -0.8118919 -0.899237
0.8041139 -0.811235 -0.896544
0.716328 -0.8053151 -0.894255
0.7390247 -0.8042189 -0.8940754
0.7491241 -0.8041312 -0.8931777
0.7501134 -0.8028596 -0.8940754
0.7700647 -0.8065437 -0.8985637
0.7834206 -0.8004909 -0.8931777
0.7924894 -0.802771 -0.8900359
0.8045262 -0.8065429 -0.8976661
0.8282699 -0.8059289 -0.8976661
0.8400593 -0.8018958 -0.8976661
0.7825961 -0.7959608 -0.8928785
0.7939734 -0.7970712 -0.8929533
0.8044437 -0.7967209 -0.8990126
0.8155736 -0.7997911 -0.8990126
0.8271981 -0.7962381 -0.8931777
0.8387402 -0.7957128 -0.8951975
0.8406365 -0.795055 -0.8981149
0.7731976 -0.7893535 -0.8900359
0.8168103 -0.7840049 -0.8927289
0.834783 -0.7854953 -0.8958707
0.8530855 -0.7838295 -0.8954219
0.8627313 -0.7857588 -0.8981149
0.7853993 -0.7775162 -0.8904848
0.7957047 -0.7776465 -0.8942999
0.8423678 -0.7742698 -0.8927289
0.8530855 -0.7743804 -0.8974417
0.8649986 -0.7702366 -0.8954219
0.8551465 -0.7611153 -0.8990126
0.8992539 -0.7626956 -0.8976661
0.9010677 -0.7634839 -0.8972172
0.7985902 -0.7551528 -0.8936266
0.8329692 -0.7508557 -0.8963196
0.9443505 -0.7586598 -0.8909336
0.9685065 -0.7595376 -0.8945242
0.7993322 -0.7456807 -0.8900359
0.9563873 -0.7493657 -0.8972172
0.9675172 -0.7491903 -0.8976661
0.8436869 -0.735772 -0.8909336
0.946659 -0.7333164 -0.8999102
0.9819449 -0.7289316 -0.8990126
0.9618286 -0.7075346 -0.8985637
0.9842533 -0.6931223 -0.8939258
-0.09658271 -0.9975445 -0.8815081
-0.05544334 -0.9981303 -0.8822562
-0.04579744 -0.9953238 -0.8862957
-0.03601413 -0.9957914 -0.8818073
-0.02584608 -0.9946514 -0.8839446
-0.0126551 -0.9940374 -0.8845377
-0.003338967 -0.9975017 -0.8839766
0.003998516 -0.9946071 -0.8866696
0.4428459 -0.9949154 -0.8859964
-0.01249021 -0.9871972 -0.8806104
-0.001690094 -0.9849605 -0.8826302
0.06253349 -0.9818486 -0.8877918
0.08124819 -0.9899158 -0.8873429
0.1236242 -0.9829878 -0.8810592
-0.0002061091 -0.9760593 -0.8810593
0.004658065 -0.9739985 -0.885772
0.01051156 -0.9748763 -0.8821813
0.08363906 -0.9776375 -0.8886894
0.1034874 -0.9761692 -0.8864452
0.1744919 -0.971411 -0.8855476
0.2998063 -0.9704481 -0.8886894
0.7908405 -0.9710602 -0.8819569
0.00976957 -0.9680794 -0.8873429
0.022301 -0.9630808 -0.8837522
0.05264026 -0.9606243 -0.8837522
0.06434725 -0.960976 -0.8873429
0.09421246 -0.9663911 -0.8872308
0.1034255 -0.9685188 -0.8864452
0.1141432 -0.9618539 -0.8891382
0.1242838 -0.9614145 -0.8859964
0.02263078 -0.9588713 -0.884201
0.03318356 -0.9583443 -0.8824058
0.0432829 -0.9551446 -0.8833034
0.05437157 -0.9567666 -0.8882406
0.06407245 -0.9531126 -0.8837523
0.07490003 -0.9505844 -0.885772
0.08586504 -0.9523818 -0.8886894
0.09419185 -0.9586959 -0.8891382
0.105734 -0.9572936 -0.8824058
0.1150501 -0.9519433 -0.8882406
0.1253143 -0.9571617 -0.8853232
0.2082938 -0.9598368 -0.8873429
0.3743353 -0.9582565 -0.8859964
0.9182984 -0.9545742 -0.8810592
0.9403933 -0.956942 -0.8819569
0.07605425 -0.9467701 -0.889587
0.08611237 -0.9478216 -0.8824058
0.09617049 -0.9437437 -0.8864452
0.1067645 -0.9470314 -0.8882406
0.1172761 -0.9400175 -0.8833034
0.1270868 -0.9455415 -0.889587
0.1368427 -0.9427642 -0.8858468
0.1464199 -0.9466373 -0.8868941
0.1986067 -0.9433486 -0.8828546
0.2399522 -0.9402806 -0.8837522
0.2707036 -0.9486994 -0.886894
0.3032689 -0.947997 -0.8882406
0.3123377 -0.9444023 -0.884201
0.6503566 -0.9412444 -0.8850988
0.1071905 -0.9354556 -0.8833035
0.1162867 -0.9365965 -0.8846499
0.1280762 -0.9323871 -0.8815081
0.1379282 -0.9351056 -0.8826302
0.1682262 -0.9330013 -0.8846499
0.178408 -0.9347118 -0.8868941
0.2062053 -0.9332348 -0.8843507
0.2421782 -0.9322993 -0.889587
0.2508347 -0.9347548 -0.8806104
0.2838122 -0.935281 -0.8891382
0.2939528 -0.9358957 -0.8864452
0.3047529 -0.9308085 -0.8833034
0.3342677 -0.9302823 -0.8877918
0.1387939 -0.924319 -0.8810592
0.1481924 -0.9255458 -0.8810593
0.1682674 -0.9247132 -0.8862208
0.1786141 -0.9239243 -0.8850988
0.1844676 -0.9251521 -0.8859964
0.1947731 -0.927213 -0.8859964
0.2110557 -0.9249328 -0.8858842
0.2212375 -0.923661 -0.8854354
0.2313368 -0.9263364 -0.8819569
0.2423705 -0.9237928 -0.8834531
0.2849664 -0.9223028 -0.8873429
0.480028 -0.9290555 -0.8886894
0.4908282 -0.9240559 -0.8806104
0.1791912 -0.9163377 -0.8837522
0.1806752 -0.9160764 -0.8828546
0.2012586 -0.9161922 -0.8833034
0.2122923 -0.9148916 -0.8833034
0.2218146 -0.9148189 -0.8864452
0.2325322 -0.9159881 -0.884201
0.3153057 -0.9187506 -0.8812836
0.3254462 -0.9139717 -0.889587
0.5244651 -0.9170402 -0.886894
0.6294159 -0.9166008 -0.8855476
0.2228039 -0.9049376 -0.8810592
0.234346 -0.9007295 -0.8801616
0.2448988 -0.901781 -0.8828546
0.3482007 -0.9061658 -0.8882406
0.4110227 -0.9018687 -0.8850988
0.4921472 -0.9088844 -0.8810592
0.2667464 -0.8900288 -0.8810592
0.3491076 -0.8950284 -0.8824058
0.4113525 -0.8972208 -0.8801616
0.4219053 -0.8984494 -0.8850988
0.2777114 -0.8865219 -0.8819569
0.6867142 -0.8812592 -0.8824058
0.4452368 -0.8700358 -0.8837522
0.4550476 -0.8758229 -0.884201
0.4749165 -0.8695088 -0.8877918
0.4867884 -0.8618796 -0.8828546
0.50641 -0.8674049 -0.8859964
0.5390165 -0.8653003 -0.8855476
0.6024568 -0.8663951 -0.8862208
0.6248815 -0.8641585 -0.8855476
0.823076 -0.8637199 -0.889587
0.4968465 -0.8578452 -0.884201
0.5393875 -0.8520581 -0.8877918
0.5494456 -0.8566183 -0.8877918
0.5822169 -0.8527592 -0.8835278
0.592701 -0.8537527 -0.8879414
0.6476359 -0.8517064 -0.8828546
0.5296591 -0.8417959 -0.8806104
0.531308 -0.8422344 -0.8864452
0.5731069 -0.8467078 -0.8886894
0.6036111 -0.8436393 -0.8819569
0.5317202 -0.8376741 -0.884201
0.5529082 -0.8376741 -0.8886894
0.561977 -0.8337287 -0.8837522
0.5742611 -0.8329386 -0.8828546
0.5848963 -0.8319747 -0.8824058
0.7036151 -0.8312723 -0.8837522
0.5429325 -0.8218897 -0.8846499
0.5633373 -0.8282034 -0.8844255
0.573313 -0.8256173 -0.8859964
0.6379488 -0.829125 -0.886894
0.7703121 -0.8208373 -0.884201
0.5332866 -0.8194351 -0.8815081
0.5425203 -0.815487 -0.8801616
0.5552166 -0.8103138 -0.8810592
0.5637907 -0.813121 -0.8819569
0.5740138 -0.8181179 -0.8877918
0.6513459 -0.8115407 -0.8886894
0.7032853 -0.8163648 -0.8880161
0.7142503 -0.8154002 -0.8864453
0.7266169 -0.8188203 -0.8815081
0.7375819 -0.8123019 -0.8843507
0.7484232 -0.8112351 -0.8871185
0.7584401 -0.8104023 -0.8859964
0.7711365 -0.81198 -0.8882406
0.7802877 -0.8134699 -0.8810592
0.6496146 -0.8095245 -0.8810592
0.6520879 -0.8020712 -0.8815081
0.704151 -0.8060171 -0.8862208
0.7273315 -0.804204 -0.8831539
0.7480523 -0.8056659 -0.8864452
0.6505215 -0.7993518 -0.8833034
0.661404 -0.7989132 -0.8824058
0.706105 -0.7952828 -0.8849192
0.728678 -0.7962824 -0.8864452
0.7727854 -0.793826 -0.8873429
0.7840801 -0.7909338 -0.8846499
0.7952925 -0.7915459 -0.8864452
0.7076549 -0.7861096 -0.8850988
0.7961169 -0.7825132 -0.8877918
0.8060926 -0.7865038 -0.8880161
0.8279401 -0.7854076 -0.8833034
0.841296 -0.7853642 -0.8850988
0.8520137 -0.7844872 -0.8853232
0.8630611 -0.7801471 -0.8877918
0.7843549 -0.7741537 -0.8853979
0.8309081 -0.7733945 -0.8859964
0.8408839 -0.7757901 -0.8849491
0.8634734 -0.7748845 -0.8886894
0.911538 -0.772429 -0.8882406
0.7640463 -0.7667296 -0.8850988
0.7851931 -0.7676938 -0.8853232
0.8534702 -0.7636006 -0.8845003
0.8652871 -0.7647555 -0.8837522
0.8305371 -0.7543631 -0.8824058
0.8543221 -0.7536036 -0.884201
0.8561358 -0.7465586 -0.8846499
0.8672108 -0.7458862 -0.8852484
0.8787254 -0.7423934 -0.8855476
0.8343295 -0.7342373 -0.8889138
0.8440167 -0.7301585 -0.8824058
0.8785605 -0.7319142 -0.884201
0.8802918 -0.7354212 -0.8850988
0.8567542 -0.7284489 -0.8819569
0.8812812 -0.7235813 -0.8810592
0.9952595 -0.6860482 -0.8864453
0.9084876 -0.6740338 -0.8806104
0.9818624 -0.5991411 -0.8833034
0.9946412 -0.5769531 -0.886894
-0.1286533 -0.9991248 -0.8761221
-0.1061874 -0.9965147 -0.8735413
-0.06640834 -0.9959664 -0.8738779
-0.0549369 -0.9947017 -0.8755451
-0.04579744 -0.9952279 -0.8746473
-0.03645383 -0.9945492 -0.8741772
-0.02488424 -0.9972675 -0.8755985
-0.01413908 -0.9979839 -0.8752244
-0.002308422 -0.9916267 -0.8779174
0.09196587 -0.9971955 -0.8734291
-0.06616101 -0.9845654 -0.8707361
-0.05486624 -0.9896527 -0.8702872
-0.04520384 -0.9880393 -0.8761221
-0.03403548 -0.9845375 -0.8720826
-0.02298116 -0.9833609 -0.8756732
-0.01216044 -0.9825059 -0.8772441
-0.001731316 -0.9850925 -0.8788151
0.07119007 -0.9845654 -0.8783662
0.09196587 -0.9828124 -0.8788151
0.1016118 -0.987548 -0.8729802
-0.05354714 -0.9735157 -0.8702872
-0.03219424 -0.9733403 -0.8729802
-0.02304299 -0.9752714 -0.8711849
-0.01162455 -0.9756435 -0.8757855
-0.001690094 -0.9757081 -0.8774686
0.01051156 -0.9747443 -0.8797128
0.07292139 -0.9796562 -0.8725314
0.3007956 -0.9722888 -0.8743268
-0.01174822 -0.9687819 -0.8765709
-0.001030545 -0.9682557 -0.8774686
0.0108963 -0.9636072 -0.8759725
0.02089946 -0.962117 -0.8770198
0.04315924 -0.9634315 -0.8779174
0.06385259 -0.9647461 -0.8779174
0.1969991 -0.9675533 -0.8743268
0.5943773 -0.9626414 -0.8702872
0.9599324 -0.967904 -0.8761221
0.01183066 -0.9577321 -0.8743268
0.03343089 -0.9536086 -0.8716338
0.04423101 -0.9508041 -0.8792639
0.05371202 -0.9525282 -0.8779175
0.1060637 -0.9526449 -0.8752244
0.9168968 -0.953521 -0.8765709
0.04456078 -0.9463316 -0.8747756
0.05467387 -0.9452196 -0.8723819
0.06418236 -0.9455415 -0.8774686
0.0753947 -0.9432622 -0.875
0.08644214 -0.9431736 -0.8756732
0.1072179 -0.9401052 -0.8788151
0.1157921 -0.9414197 -0.8792639
0.2412713 -0.9400175 -0.8738779
0.3862072 -0.9416828 -0.8770198
0.6487077 -0.9415075 -0.8707361
0.9394864 -0.9480847 -0.8752244
0.9409704 -0.9480847 -0.8738779
0.07490004 -0.9396659 -0.8725314
0.08627726 -0.9365522 -0.8734291
0.09670638 -0.935215 -0.8758977
0.1063935 -0.9331772 -0.8797128
0.1170287 -0.9330009 -0.8716338
0.1265922 -0.9332644 -0.8765709
0.1364854 -0.9353696 -0.8788151
0.1465848 -0.9356314 -0.8783662
0.2316254 -0.9308962 -0.8779174
0.1082073 -0.9267753 -0.8702872
0.1170287 -0.9258975 -0.8729802
0.1272517 -0.9257221 -0.8765709
0.1375984 -0.9291418 -0.8738779
0.1472031 -0.9280899 -0.8765709
0.159075 -0.9252827 -0.8738779
0.169669 -0.9225221 -0.8752245
0.1951028 -0.9219503 -0.8758976
0.2012037 -0.9211611 -0.8792639
0.2310483 -0.9205489 -0.8774686
0.1494291 -0.9187932 -0.8756732
0.1596521 -0.9189686 -0.8761221
0.1646399 -0.9131382 -0.8761221
0.1796034 -0.9107261 -0.8738779
0.1866936 -0.9148192 -0.8755237
0.1911868 -0.9139279 -0.875
0.2004617 -0.9131815 -0.8756732
0.2105198 -0.9169525 -0.8788151
0.2228864 -0.9126554 -0.8797128
0.2318727 -0.9101113 -0.8729802
0.2430026 -0.9160749 -0.8785159
0.2837298 -0.9172156 -0.8779174
0.4911579 -0.9187055 -0.8747756
0.1709469 -0.9073068 -0.8720826
0.1814172 -0.9070437 -0.8752244
0.1918051 -0.9075681 -0.8770198
0.2015335 -0.9061655 -0.874626
0.212416 -0.9059607 -0.8726811
0.2223917 -0.9002911 -0.8743268
0.2329032 -0.9069555 -0.872307
0.2432087 -0.9097614 -0.8720826
0.2552043 -0.9023072 -0.8783662
0.2955192 -0.9002911 -0.8716338
0.3054949 -0.9042365 -0.8725314
0.3154705 -0.9089721 -0.8779174
0.5998186 -0.9030097 -0.8761221
0.6088874 -0.9034464 -0.8756732
0.2030174 -0.8991492 -0.8702872
0.2241642 -0.8973523 -0.8758976
0.2348407 -0.8937577 -0.8720826
0.2447064 -0.8964605 -0.8755237
0.2543798 -0.8938015 -0.8743268
0.2662517 -0.8939769 -0.8729802
0.2772991 -0.890819 -0.8797128
0.2859557 -0.8916091 -0.8743268
0.3081331 -0.8913451 -0.8716338
0.3474587 -0.8966508 -0.8763465
0.369636 -0.8941523 -0.8761221
0.3801888 -0.8935376 -0.8765709
0.4096212 -0.8996763 -0.8792639
0.6435962 -0.8952915 -0.8738779
0.2458881 -0.8881872 -0.8720826
0.2547096 -0.8884512 -0.8702872
0.2670761 -0.8852073 -0.8720826
0.2780412 -0.881874 -0.8761221
0.3294035 -0.8843733 -0.8781419
0.2787831 -0.8728403 -0.8702872
0.289171 -0.8738059 -0.8761221
0.2983635 -0.8768314 -0.8718582
0.3289913 -0.872665 -0.8788151
0.3348448 -0.8721836 -0.8718582
0.3405334 -0.8733674 -0.8734291
0.4024486 -0.8776646 -0.8729802
0.4135372 -0.8725773 -0.8725314
0.2982398 -0.8696851 -0.8707361
0.3298157 -0.8620546 -0.8707361
0.3355044 -0.8653427 -0.8745512
0.3611031 -0.8666143 -0.8734291
0.3825797 -0.8670533 -0.8729802
0.4355909 -0.8607392 -0.8729802
0.4752463 -0.8637199 -0.8765709
0.5488685 -0.8608277 -0.8711849
0.3199225 -0.8577575 -0.8716338
0.3317944 -0.8575812 -0.8716338
0.3407395 -0.8555646 -0.8718582
0.3838163 -0.8536357 -0.8716338
0.4879426 -0.8564429 -0.8761221
0.5084711 -0.8585467 -0.8738779
0.5388103 -0.856706 -0.8770198
0.5407065 -0.8538111 -0.8738779
0.3743353 -0.8431122 -0.8727558
0.4882518 -0.8449102 -0.8785906
0.5206727 -0.8411838 -0.8752244
0.5397172 -0.846093 -0.8720826
0.5419432 -0.8403059 -0.8725314
0.5506822 -0.8401305 -0.8711849
0.8003215 -0.8418836 -0.8770198
0.3858774 -0.8315363 -0.8765709
0.5308408 -0.8334072 -0.875374
0.5637083 -0.8317117 -0.8738779
0.5720351 -0.8379381 -0.8734291
0.406983 -0.8286414 -0.8702872
0.4165464 -0.8221519 -0.8720826
0.4594171 -0.8263614 -0.8707361
0.5319057 -0.8246306 -0.8742145
0.5529082 -0.822942 -0.8783662
0.5847315 -0.8239505 -0.8792639
0.4389711 -0.8146977 -0.8725314
0.5336164 -0.8146109 -0.8743268
0.5442516 -0.8157063 -0.8785907
0.5543922 -0.8190834 -0.8761221
0.584649 -0.8146109 -0.8743268
0.4492766 -0.8070682 -0.8756732
0.4703821 -0.8023325 -0.8743268
0.5547632 -0.8051835 -0.8763465
0.5979224 -0.8047881 -0.8716338
0.7058411 -0.8035612 -0.8725314
0.7262871 -0.8011934 -0.8756732
0.7372522 -0.8003156 -0.8729802
0.4621378 -0.7968962 -0.8716338
0.4721134 -0.7922484 -0.8754488
0.5127581 -0.7944407 -0.8716338
0.6076508 -0.7968085 -0.8743268
0.6516757 -0.7955369 -0.8756733
0.6630941 -0.7967209 -0.8729802
0.7157344 -0.7968963 -0.8774686
0.4821716 -0.7861973 -0.8720826
0.5150666 -0.7861096 -0.8707361
0.6629292 -0.7890036 -0.8734291
0.7055938 -0.7873365 -0.8770198
0.7733625 -0.7840935 -0.8743268
0.7834618 -0.7867673 -0.8781418
0.8395647 -0.7816371 -0.8725314
0.5036069 -0.7797964 -0.8702872
0.6630529 -0.7776917 -0.8711849
0.7967765 -0.7727798 -0.8770198
0.8079888 -0.7728674 -0.8761221
0.8170576 -0.7781284 -0.8779174
0.8289295 -0.7722536 -0.8774686
0.853745 -0.7739189 -0.8792639
0.5364195 -0.7640101 -0.8702872
0.6337029 -0.7641855 -0.8747756
0.7202687 -0.765632 -0.8756733
0.7630982 -0.7651063 -0.8756733
0.7863886 -0.7630446 -0.8765709
0.7958696 -0.7604155 -0.8734291
0.8426151 -0.768922 -0.8770198
0.7627273 -0.75796 -0.8711849
0.7978482 -0.7586598 -0.8702872
0.8556412 -0.7506803 -0.8734291
0.5697267 -0.7451563 -0.8707361
0.7971887 -0.7449809 -0.8756732
0.8335463 -0.7406838 -0.8774686
0.8791376 -0.7463832 -0.8734291
0.7976009 -0.7397183 -0.8716338
0.8319799 -0.735772 -0.8716338
0.8453357 -0.736299 -0.8729802
0.8674307 -0.7374377 -0.8743267
0.8780659 -0.736648 -0.8752244
0.8119461 -0.7263885 -0.8711849
0.8463663 -0.7248104 -0.875
0.8788903 -0.7264761 -0.8774686
0.880869 -0.7281415 -0.8792639
0.9048601 -0.7162166 -0.8792639
0.9938167 -0.6902584 -0.8797128
0.9060555 -0.6885041 -0.8732047
0.9175564 -0.6881099 -0.8761221
0.9852426 -0.6858736 -0.8765709
0.9963725 -0.6815765 -0.8738779
0.9188342 -0.673245 -0.8770198
0.9091471 -0.6642986 -0.8743268
0.9417124 -0.6554412 -0.8743268
0.9112082 -0.6406214 -0.8725314
0.9536667 -0.6441302 -0.8761221
0.9453811 -0.6354035 -0.8720826
0.9460819 -0.6284326 -0.8756732
0.9357764 -0.6170312 -0.8716338
0.9450926 -0.6138732 -0.8707361
0.9801311 -0.6177336 -0.8711849
0.9570469 -0.6024745 -0.8716338
0.9690424 -0.6052364 -0.8741024
0.9748135 -0.6026051 -0.8734291
0.9813678 -0.6034382 -0.8716338
-0.1584154 -0.9992125 -0.8675942
-0.14811 -0.9993002 -0.8635548
-0.1383542 -0.9956456 -0.8660981
-0.1267571 -0.9981592 -0.8644524
-0.1152425 -0.9957333 -0.8620586
-0.1040026 -0.9952433 -0.8656867
-0.09604093 -0.9944637 -0.8648372
-0.07362217 -0.9932035 -0.8637792
-0.06300754 -0.9959006 -0.8615351
-0.05459829 -0.9937962 -0.8681553
-0.04571499 -0.9989494 -0.8653501
-0.03738818 -0.9978518 -0.8687164
0.1123294 -0.9933351 -0.8653501
0.4008822 -0.9936867 -0.8635548
-0.1268395 -0.989038 -0.8653501
-0.1063935 -0.9894773 -0.8662478
-0.09501629 -0.9897404 -0.863106
-0.07322368 -0.9824032 -0.8626571
-0.0640587 -0.9829873 -0.8637792
-0.05490746 -0.9860679 -0.8643402
-0.04593484 -0.9847996 -0.8641533
-0.03334845 -0.9853994 -0.865799
0.07250917 -0.9836025 -0.8675942
0.08231997 -0.9889503 -0.8689408
0.3714498 -0.9864071 -0.865799
-0.06583124 -0.9796562 -0.8693896
-0.05457768 -0.9765421 -0.8633304
-0.04371574 -0.9742839 -0.8628815
-0.0326889 -0.9768491 -0.8617594
-0.02202619 -0.9734294 -0.8678936
0.5931407 -0.9748329 -0.8613106
-0.05288759 -0.9647461 -0.8613106
-0.04315924 -0.9673774 -0.8613106
-0.0317408 -0.9665447 -0.8646768
-0.02144909 -0.9661502 -0.8656493
-0.01067645 -0.9652445 -0.8659486
-0.0007832145 -0.9625537 -0.8635548
0.0006183272 -0.9626414 -0.8633304
0.1253555 -0.9614145 -0.8693896
0.3729337 -0.969658 -0.863106
0.001195433 -0.9563281 -0.8635548
0.01111615 -0.9540776 -0.8666966
0.0218613 -0.9538142 -0.8644524
0.0319469 -0.9548373 -0.8684919
0.04340657 -0.9586959 -0.8693896
0.01249021 -0.9487871 -0.8649012
0.02197123 -0.9463316 -0.8617594
0.03297745 -0.9492247 -0.8628815
0.04303557 -0.9466377 -0.8646768
0.06517169 -0.9471191 -0.8649012
0.08479327 -0.9439629 -0.863106
0.05433035 -0.9369468 -0.8637792
0.0646358 -0.9373423 -0.8640036
0.07619165 -0.9345499 -0.8641533
0.08619481 -0.9364645 -0.864228
0.09740715 -0.9339647 -0.8662478
0.1178532 -0.9305454 -0.865799
0.2196711 -0.9302823 -0.8680431
0.2615112 -0.93743 -0.8644525
0.2928398 -0.9372542 -0.866921
0.7586875 -0.9322993 -0.8635548
0.07642524 -0.9286165 -0.8619839
0.08611237 -0.9286161 -0.860413
0.09814914 -0.9254581 -0.8680431
0.1074378 -0.9239682 -0.8656493
0.1180455 -0.9229161 -0.8650509
0.1284884 -0.9250206 -0.8653501
0.1373099 -0.9246706 -0.8684919
0.1489344 -0.9227413 -0.8698384
0.1579208 -0.9208102 -0.8644524
0.1088668 -0.917654 -0.8608618
0.1189249 -0.9174787 -0.8626571
0.1284472 -0.9170398 -0.8628815
0.1382992 -0.9177707 -0.8668463
0.1486871 -0.9145557 -0.8641533
0.1687209 -0.9163377 -0.8693896
0.1703285 -0.9136209 -0.8675942
0.210932 -0.9114285 -0.8698384
0.1651346 -0.9054426 -0.8637792
0.1815821 -0.9019564 -0.860413
0.1901562 -0.908446 -0.8675942
0.2117565 -0.9010786 -0.865799
0.2230512 -0.9074804 -0.8635548
0.2435797 -0.9047623 -0.8671454
0.2531019 -0.9059461 -0.8635548
0.1909807 -0.8981863 -0.8640036
0.2016983 -0.8971331 -0.8640036
0.2130755 -0.8948964 -0.8664721
0.2329857 -0.8971765 -0.8687164
0.2546272 -0.8977913 -0.8651257
0.2658395 -0.8980986 -0.8675942
0.2758976 -0.8956201 -0.865799
0.2250299 -0.885644 -0.860413
0.2355827 -0.8846364 -0.8646768
0.2463003 -0.8834516 -0.8662478
0.2552043 -0.8833639 -0.8684919
0.2663341 -0.8842418 -0.8675942
0.2761037 -0.884329 -0.8644524
0.2873161 -0.8841102 -0.865799
0.2976627 -0.8837599 -0.8651257
0.306814 -0.8886266 -0.8640036
0.2783709 -0.8770498 -0.8680431
0.2878519 -0.8747995 -0.8656493
0.2982398 -0.8768758 -0.865799
0.3092873 -0.8778399 -0.8662478
0.318521 -0.8730167 -0.8693896
0.3283317 -0.8769621 -0.863106
0.3301455 -0.8751205 -0.8693896
0.4007173 -0.8791545 -0.8689408
0.4113525 -0.8786301 -0.8693896
0.2784121 -0.867141 -0.8628815
0.2894184 -0.8685433 -0.8613106
0.2991055 -0.8668336 -0.8624327
0.304588 -0.8641159 -0.8635548
0.3136293 -0.8625224 -0.8663974
0.3237149 -0.8643643 -0.8668463
0.3308875 -0.8661755 -0.8653501
0.3407258 -0.8652409 -0.8663974
0.3820026 -0.8636332 -0.8671454
0.5388104 -0.8639405 -0.8651257
0.2990643 -0.8589861 -0.863106
0.3115132 -0.8535919 -0.8655745
0.3203347 -0.8523212 -0.8653501
0.3311761 -0.8548635 -0.8671454
0.3420998 -0.8553014 -0.8654997
0.3519518 -0.8524957 -0.8624327
0.3618451 -0.8564868 -0.8613106
0.3833216 -0.8577575 -0.8644524
0.4358383 -0.8556527 -0.8622082
0.4872419 -0.8540747 -0.8660234
0.8469022 -0.8500411 -0.8666966
0.3320417 -0.8451722 -0.865799
0.3533534 -0.8457001 -0.8640036
0.3629169 -0.8447342 -0.8635548
0.3726452 -0.8437256 -0.8644524
0.3829919 -0.8442514 -0.8649012
0.3939569 -0.8466204 -0.8651257
0.4993199 -0.8445153 -0.8640036
0.5410363 -0.8489001 -0.8666966
0.8015582 -0.8447784 -0.8666966
0.8226637 -0.8439006 -0.8635548
0.8933179 -0.8482854 -0.8698384
0.3535595 -0.8355708 -0.8646768
0.3642772 -0.8387274 -0.8622082
0.3743559 -0.8337723 -0.8673699
0.384256 -0.8362427 -0.8663974
0.3950081 -0.8348247 -0.8634426
0.4056638 -0.8328087 -0.864228
0.4159693 -0.8359645 -0.8660233
0.5409539 -0.830134 -0.8613106
0.5530731 -0.8322378 -0.8693896
0.3749536 -0.8263623 -0.8640036
0.3863721 -0.8240821 -0.8626571
0.3958943 -0.8252003 -0.8653501
0.4062822 -0.8257049 -0.8637792
0.4172885 -0.8243157 -0.8625075
0.4264397 -0.8275899 -0.8644524
0.5221567 -0.8225027 -0.860413
0.5524547 -0.8285108 -0.8644525
0.5939651 -0.8287292 -0.863106
0.7683334 -0.8202226 -0.8635548
0.3976256 -0.8158816 -0.8675942
0.4177419 -0.8164525 -0.8644524
0.4281985 -0.8140854 -0.8634052
0.4441238 -0.8138651 -0.8646768
0.5021229 -0.8128579 -0.8617594
0.5125108 -0.8133823 -0.8675942
0.5222392 -0.8139966 -0.8655745
0.5317202 -0.8152257 -0.8640036
0.5862979 -0.8128579 -0.8608618
0.6164722 -0.8161017 -0.8689408
0.7046044 -0.8168033 -0.8662478
0.7252978 -0.8110145 -0.8653501
0.428542 -0.8043066 -0.8653501
0.4388474 -0.8054905 -0.8664722
0.4496888 -0.8014565 -0.8671454
0.4567514 -0.8043803 -0.8613107
0.4656416 -0.8054028 -0.8682675
0.4711241 -0.8098753 -0.8613106
0.4927244 -0.8018081 -0.8617594
0.5026176 -0.8084731 -0.8666966
0.5134177 -0.8043513 -0.8680431
0.5447463 -0.8084731 -0.8684919
0.5766932 -0.8027714 -0.8660234
0.4307267 -0.7996157 -0.8649012
0.4412795 -0.7971593 -0.8622082
0.4510903 -0.7943088 -0.864228
0.460695 -0.7933007 -0.8628815
0.4715363 -0.7964573 -0.8626571
0.4818143 -0.795026 -0.8668463
0.4926694 -0.7965752 -0.8629563
0.5043489 -0.790319 -0.8680431
0.5122635 -0.7994403 -0.8693896
0.5542273 -0.7984748 -0.8617594
0.5755802 -0.7961061 -0.8622082
0.5879467 -0.7947915 -0.8626571
0.6093821 -0.7956676 -0.8689408
0.6616514 -0.7930385 -0.8671454
0.7266994 -0.7957553 -0.8693896
0.7506905 -0.7925115 -0.8684919
0.4630997 -0.7850859 -0.8635548
0.4724432 -0.7833326 -0.862358
0.4830372 -0.7845745 -0.8653501
0.4937412 -0.7855548 -0.8671454
0.5038955 -0.7853859 -0.8656867
0.5142422 -0.7849262 -0.8617594
0.5978812 -0.7849687 -0.8655745
0.6633002 -0.7839164 -0.8689408
0.4725257 -0.7757623 -0.860413
0.4934251 -0.7763749 -0.8622082
0.5048023 -0.775454 -0.865799
0.5160559 -0.7742702 -0.8633304
0.526114 -0.7742999 -0.865799
0.6634651 -0.7722536 -0.8644524
0.7633868 -0.7700612 -0.860413
0.7948803 -0.770412 -0.8649012
0.8302486 -0.7769892 -0.8644524
0.4953213 -0.7645798 -0.8619838
0.5045138 -0.7691851 -0.8644524
0.5160559 -0.7653469 -0.8634425
0.5266499 -0.7654793 -0.8661355
0.5370378 -0.7663345 -0.8655745
0.5480028 -0.7628262 -0.8687164
0.5889361 -0.7650186 -0.865799
0.5994889 -0.7668173 -0.8635548
0.708974 -0.7667296 -0.863106
0.7182901 -0.7655001 -0.8698384
0.7727029 -0.7683949 -0.8622082
0.7845748 -0.7612916 -0.8698384
0.8067521 -0.7640978 -0.8698384
0.5285049 -0.7540996 -0.8626571
0.5381233 -0.7575204 -0.8660982
0.548841 -0.7561762 -0.8643028
0.5582258 -0.75467 -0.8655745
