# .PCD v.7 - Point Cloud Data file format
VERSION .7
FIELDS x y z
SIZE 4 4 4
TYPE F F F
COUNT 1 1 1
WIDTH 1708
HEIGHT 1
VIEWPOINT 0 0 0 1 0 0 0
POINTS 1708
DATA ascii	
577041.91	4179490.31	353.65
577041.98	4179490.85	353.76
577042.0701	4179491.36	353.65
577042.16	4179491.9	353.58
577042.25	4179492.44	353.42
577042.3201	4179492.97	353.49
577042.41	4179493.49	353.36
577042.51	4179494.01	353.12
577042.61	4179494.55	352.88
577042.6901	4179495.08	352.87
577042.79	4179495.62	352.61
577042.9	4179496.15	352.3
577042.99	4179496.68	352.19
577043.0799	4179497.22	351.99
577043.21	4179497.76	351.49
577043.3	4179498.3	351.36
577043.41	4179498.84	351
577043.51	4179499.38	350.76
577046.55	4179500.59	316.59
577046.62	4179501.14	316.72
577046.6999	4179501.7	316.71
577046.81	4179502.26	316.38
577046.29	4179502.65	323.3
577046.26	4179503.17	324.64
577046.53	4179503.77	322.52
577046.46	4179504.27	324.2
577046.53	4179504.82	324.34
577046.54	4179505.36	325.13
577046.64	4179505.9	324.94
577046.76	4179506.45	324.49
577046.8299	4179507	324.69
577046.84	4179507.54	325.45
577046.75	4179508.02	327.48
577046.86	4179508.58	327.09
577047.05	4179509.17	325.92
577047.03	4179509.69	327.04
577047.12	4179510.23	326.99
577047.6901	4179510.6	327.69
577047.5799	4179510.04	328
577047.62	4179509.55	326.58
577047.65	4179509.04	325.43
577047.62	4179508.49	324.83
577047.5	4179507.94	325.17
577047.42	4179507.4	325.19
577047.39	4179506.86	324.7
577047.39	4179506.33	323.75
577047.24	4179505.76	324.44
577047.17	4179505.21	324.32
577047.09	4179504.67	324.34
577047.01	4179504.13	324.38
577047	4179503.58	323.54
577046.88	4179503.02	324.03
577046.91	4179502.51	322.7
577047.36	4179502.08	316.54
577047.26	4179501.52	316.76
577047.17	4179500.97	316.93
577044.15	4179499.75	350.85
577044.0799	4179499.22	350.72
577043.96	4179498.67	351.26
577043.87	4179498.13	351.4
577043.75	4179497.6	351.87
577043.66	4179497.06	351.91
577043.5701	4179496.53	352.08
577043.4499	4179495.98	352.59
577043.35	4179495.45	352.87
577043.26	4179494.92	352.96
577043.16	4179494.38	353.23
577043.0701	4179493.86	353.34
577042.99	4179493.33	353.35
577042.89	4179492.79	353.64
577042.8	4179492.26	353.79
577042.73	4179491.73	353.66
577042.65	4179491.2	353.74
577042.5799	4179490.67	353.59
577042.51	4179490.14	353.49
577042.46	4179489.62	353.25
577042.37	4179489.08	353.34
577042.31	4179488.55	353.05
577042.28	4179488.02	352.55
577042.21	4179487.5	352.44
577042.15	4179486.97	352.26
577042.1	4179486.45	351.96
577042.04	4179485.92	351.69
577041.96	4179485.38	351.68
577041.91	4179484.84	351.41
577041.84	4179484.32	351.28
577041.8	4179483.78	350.74
577043.78	4179483.26	326.26
577044.47	4179482.71	316.96
577044.39	4179482.16	317.01
577044.3	4179481.61	317.02
577044.1999	4179481.05	317.26
577044.14	4179480.49	317
577044.06	4179479.95	316.97
577043.98	4179479.39	317.05
577043.89	4179478.85	317.11
577043.8201	4179478.3	317.03
577043.72	4179477.74	317.18
577043.66	4179477.18	316.99
577043.56	4179476.64	317.15
577043.46	4179476.08	317.36
577043.39	4179475.52	317.18
577043.31	4179474.97	317.25
577043.24	4179474.43	317.13
577043.15	4179473.87	317.24
577043.81	4179473.72	317.14
577043.89	4179474.28	317.11
577043.97	4179474.84	317.15
577044.05	4179475.38	317.25
577044.14	4179475.94	317.11
577044.23	4179476.5	317.01
577044.3	4179477.06	317.25
577044.4	4179477.6	316.97
577044.49	4179478.15	316.92
577044.56	4179478.7	317.02
577044.65	4179479.25	316.98
577044.72	4179479.8	317.11
577044.81	4179480.36	316.99
577044.89	4179480.92	316.99
577044.96	4179481.47	317.2
577045.05	4179482.01	317.09
577045.14	4179482.58	317
577044.75	4179483.14	322.69
577042.46	4179483.65	350.92
577042.53	4179484.17	351.07
577042.5799	4179484.71	351.43
577042.64	4179485.25	351.65
577042.71	4179485.77	351.8
577042.77	4179486.3	352
577042.84	4179486.83	352.16
577042.88	4179487.37	352.53
577042.9401	4179487.88	352.79
577042.99	4179488.41	353.14
577043.06	4179488.95	353.28
577043.12	4179489.48	353.49
577043.17	4179489.99	353.83
577043.23	4179490.52	354.05
577043.3201	4179491.06	353.89
577043.39	4179491.59	354.06
577043.47	4179492.12	353.98
577043.55	4179492.65	354
577043.67	4179493.19	353.6
577043.72	4179493.72	353.92
577043.84	4179494.25	353.4
577043.91	4179494.77	353.51
577044.01	4179495.31	353.36
577044.11	4179495.85	353.05
577044.21	4179496.37	352.8
577044.34	4179496.93	352.19
577044.4499	4179497.46	351.86
577044.55	4179497.99	351.6
577044.66	4179498.52	351.3
577044.76	4179499.06	351.09
577044.85	4179499.6	350.95
577047.89	4179500.82	316.76
577047.98	4179501.37	316.69
577048.0701	4179501.93	316.59
577047.67	4179502.36	322.22
577047.74	4179502.91	322.32
577047.79	4179503.45	322.68
577047.91	4179504.01	322.27
577047.91	4179504.54	323.26
577047.89	4179505.05	324.33
577047.85	4179505.57	325.82
577047.99	4179506.14	325.06
577048.18	4179506.71	323.91
577048.31	4179507.27	323.3
577048.1	4179507.73	326.65
577048.31	4179508.33	325.17
577048.46	4179508.9	324.43
577048.53	4179509.45	324.61
577048.3299	4179509.89	327.76
577048.46	4179510.45	327.22
577048.96	4179510.39	328.22
577049	4179509.89	326.83
577049.11	4179509.4	324.61
577049.09	4179508.87	323.94
577048.9401	4179508.3	324.75
577048.98	4179507.79	323.41
577048.88	4179507.24	323.6
577048.8	4179506.68	323.55
577048.71	4179506.14	323.71
577048.63	4179505.59	323.67
577048.65	4179505.07	322.54
577048.56	4179504.51	322.56
577048.54	4179503.98	321.9
577048.39	4179503.41	322.72
577048.3	4179502.86	322.81
577048.35	4179502.34	321.24
577048.68	4179501.89	316.49
577048.6	4179501.34	316.57
577048.51	4179500.79	316.59
577045.46	4179499.55	350.85
577045.34	4179499	351.33
577045.26	4179498.47	351.38
577045.16	4179497.94	351.6
577045.06	4179497.4	351.83
577044.97	4179496.87	351.99
577044.85	4179496.34	352.49
577044.75	4179495.8	352.67
577044.66	4179495.27	352.83
577044.55	4179494.74	353.25
577044.43	4179494.19	353.63
577044.35	4179493.66	353.68
577044.25	4179493.13	353.96
577044.14	4179492.59	354.26
577044.06	4179492.06	354.28
577043.99	4179491.53	354.23
577043.91	4179491.01	354.26
577043.86	4179490.48	353.93
577043.79	4179489.95	353.83
577043.73	4179489.42	353.59
577043.67	4179488.89	353.38
577043.62	4179488.36	353.1
577043.5799	4179487.84	352.66
577043.48	4179487.31	352.82
577043.4499	4179486.78	352.28
577043.39	4179486.25	352.06
577043.3299	4179485.72	351.82
577043.27	4179485.18	351.63
577043.22	4179484.65	351.3
577043.17	4179484.13	350.98
577043.11	4179483.6	350.72
577043.52	4179483.06	344.88
577045.79	4179482.52	316.88
577045.68	4179481.97	317.13
577045.61	4179481.41	317.08
577045.53	4179480.85	316.98
577045.4499	4179480.31	316.98
577045.38	4179479.75	316.9
577045.28	4179479.2	317.08
577045.21	4179478.64	316.97
577045.12	4179478.09	317
577045.04	4179477.54	317.04
577044.9401	4179476.99	317.25
577044.87	4179476.43	317.07
577044.73	4179475.89	317.76
577044.67	4179475.34	317.6
577044.61	4179474.78	317.3
577044.53	4179474.23	317.23
577045.16	4179474.08	317.59
577045.24	4179474.64	317.54
577045.3299	4179475.18	317.55
577045.41	4179475.74	317.5
577045.54	4179476.3	317.03
577045.61	4179476.85	317.18
577045.6999	4179477.4	317.04
577045.78	4179477.95	317.11
577045.86	4179478.51	317.1
577045.9401	4179479.06	317.15
577046.02	4179479.61	317.24
577046.09	4179480.16	317.41
577046.18	4179480.72	317.25
577046.28	4179481.27	317.02
577046.37	4179481.82	317.05
577046.43	4179482.36	317.2
577046.53	4179482.92	317.03
577043.77	4179483.47	350.96
577043.8201	4179483.99	351.26
577043.89	4179484.52	351.44
577043.9499	4179485.05	351.7
577044.01	4179485.58	351.86
577044.05	4179486.11	352.33
577044.12	4179486.64	352.46
577044.18	4179487.17	352.7
577044.23	4179487.69	353.08
577044.29	4179488.22	353.32
577044.36	4179488.75	353.39
577044.43	4179489.29	353.5
577044.48	4179489.81	353.84
577044.55	4179490.34	354.03
577044.6	4179490.87	354.39
577044.65	4179491.39	354.7
577044.75	4179491.92	354.47
577044.84	4179492.46	354.37
577044.9401	4179492.98	354.1
577045.05	4179493.51	353.77
577045.16	4179494.06	353.42
577045.24	4179494.59	353.37
577045.3299	4179495.12	353.24
577045.47	4179495.65	352.58
577045.56	4179496.18	352.42
577045.64	4179496.72	352.41
577045.76	4179497.25	351.98
577045.87	4179497.79	351.65
577045.97	4179498.33	351.38
577046.0799	4179498.87	351.02
577046.17	4179499.4	350.89
577049.22	4179500.61	316.69
577049.3	4179501.17	316.73
577049.39	4179501.73	316.65
577049.0799	4179502.18	321.13
577049.13	4179502.71	321.58
577049.23	4179503.27	321.29
577049.09	4179503.76	323.88
577049.16	4179504.3	324.05
577049.35	4179504.88	322.85
577049.3299	4179505.42	323.94
577049.42	4179505.96	323.92
577049.49	4179506.5	323.98
577049.54	4179507.05	324.45
577049.5799	4179507.58	324.86
577049.8	4179508.17	323.32
577049.8201	4179508.69	324.05
577049.86	4179509.24	324.52
577049.9499	4179509.79	324.41
577049.8299	4179510.26	326.72
577050.8201	4179510.53	322.52
577050.3	4179509.82	327.46
577050.49	4179509.38	324.31
577050.53	4179508.87	322.99
577050.23	4179508.24	325.47
577050.12	4179507.68	325.76
577050.0799	4179507.14	325.31
577050.0799	4179506.62	324.41
577049.89	4179506.04	325.6
577049.8	4179505.49	325.77
577049.8	4179504.96	324.82
577049.79	4179504.45	323.96
577049.6999	4179503.89	324.03
577049.75	4179503.37	322.58
577049.6999	4179502.83	322.22
577049.75	4179502.31	320.68
577050.03	4179501.84	316.55
577049.9401	4179501.29	316.66
577049.87	4179500.73	316.43
577046.8201	4179499.51	350.64
577046.72	4179498.98	350.96
577046.6	4179498.45	351.39
577046.52	4179497.91	351.48
577046.43	4179497.37	351.59
577046.3	4179496.83	352.15
577046.1999	4179496.3	352.34
577046.1	4179495.76	352.58
577046	4179495.23	352.9
577045.88	4179494.69	353.4
577045.81	4179494.16	353.23
577045.6901	4179493.62	353.69
577045.59	4179493.08	354.02
577045.5	4179492.54	354.08
577045.42	4179492.02	354.17
577045.29	4179491.49	354.69
577045.22	4179490.96	354.65
577045.18	4179490.43	354.23
577045.1	4179489.91	354.15
577045.0701	4179489.38	353.68
577045	4179488.84	353.53
577044.9499	4179488.32	353.22
577044.9	4179487.8	352.87
577044.8201	4179487.26	352.82
577044.76	4179486.73	352.67
577044.71	4179486.2	352.29
577044.67	4179485.67	351.89
577044.6	4179485.14	351.79
577044.54	4179484.62	351.56
577044.49	4179484.09	351.26
577044.4401	4179483.55	350.88
577044.39	4179483.01	350.51
577047.12	4179482.47	317.03
577047.03	4179481.92	317.08
577046.9401	4179481.36	317.12
577046.87	4179480.82	317.01
577046.77	4179480.27	317.23
577046.6999	4179479.71	317.08
577046.63	4179479.15	317.01
577046.52	4179478.61	317.24
577046.4499	4179478.06	317.12
577046.37	4179477.5	317.08
577046.29	4179476.95	317.12
577046.22	4179476.41	317.04
577046.12	4179475.85	317.15
577046.04	4179475.28	317.15
577045.96	4179474.74	317.16
577045.86	4179474.19	317.32
577046.5	4179473.87	317.14
577046.5799	4179474.41	317.22
577046.64	4179474.97	317.4
577046.72	4179475.52	317.53
577046.79	4179476.07	317.68
577046.9	4179476.62	317.31
577047	4179477.17	317.13
577047.09	4179477.72	317.06
577047.17	4179478.27	317.05
577047.25	4179478.83	317.15
577047.3201	4179479.38	317.24
577047.41	4179479.94	317.2
577047.49	4179480.49	317.22
577047.5799	4179481.04	317.13
577047.68	4179481.59	316.97
577047.77	4179482.14	316.91
577047.79	4179482.69	317.58
577045.1	4179483.24	350.68
577045.16	4179483.77	350.92
577045.1999	4179484.3	351.37
577045.26	4179484.83	351.65
577045.3299	4179485.36	351.7
577045.39	4179485.89	351.96
577045.4499	4179486.42	352.19
577045.49	4179486.94	352.67
577045.55	4179487.47	352.94
577045.61	4179488.01	353.17
577045.68	4179488.53	353.26
577045.74	4179489.06	353.5
577045.81	4179489.59	353.67
577045.86	4179490.12	354.03
577045.92	4179490.65	354.24
577045.99	4179491.18	354.32
577046.0799	4179491.71	354.24
577046.18	4179492.24	353.95
577046.26	4179492.76	353.99
577046.37	4179493.3	353.59
577046.48	4179493.82	353.26
577046.5799	4179494.36	352.98
577046.65	4179494.89	353.16
577046.73	4179495.42	353.12
577046.8299	4179495.95	352.86
577046.9401	4179496.48	352.53
577047.05	4179497.03	352.28
577047.15	4179497.57	352.03
577047.25	4179498.09	351.79
577047.35	4179498.63	351.51
577047.4499	4179499.17	351.27
577050.52	4179500.38	316.92
577050.64	4179500.94	316.49
577050.68	4179501.49	316.99
577050.76	4179502.04	317.03
577050.86	4179502.59	316.84
577050.48	4179503.02	322.14
577050.5	4179503.55	322.84
577050.67	4179504.14	321.84
577050.52	4179504.61	324.49
577050.61	4179505.16	324.46
577050.5701	4179505.68	325.85
577050.66	4179506.23	325.72
577050.85	4179506.81	324.51
577050.78	4179507.31	326.28
577051.09	4179507.93	323.59
577051.12	4179508.45	324.24
577051.23	4179509.02	323.96
577051.26	4179509.55	324.53
577051.43	4179510.12	323.57
577051.5	4179510.67	323.63
577052.31	4179510.5	321.01
577051.99	4179509.86	323.7
577051.84	4179509.28	324.44
577051.72	4179508.72	324.86
577051.64	4179508.17	324.88
577051.6	4179507.64	324.34
577051.5	4179507.08	324.59
577051.42	4179506.52	324.57
577051.1901	4179505.94	326.29
577051.1901	4179505.41	325.36
577051.15	4179504.88	324.87
577051.13	4179504.34	324.13
577051.43	4179503.89	319.75
577051.3201	4179503.34	320.13
577051.55	4179502.87	316.56
577051.47	4179502.31	316.5
577051.36	4179501.75	316.77
577051.28	4179501.19	316.79
577051.1901	4179500.63	316.87
577051.12	4179500.09	316.65
577048.0799	4179498.89	350.79
577047.9499	4179498.35	351.36
577047.87	4179497.82	351.38
577047.74	4179497.27	351.95
577047.65	4179496.74	352.08
577047.5701	4179496.21	352.12
577047.48	4179495.68	352.24
577047.37	4179495.14	352.56
577047.28	4179494.6	352.76
577047.1901	4179494.08	352.87
577047.0701	4179493.54	353.4
577046.97	4179493.01	353.56
577046.88	4179492.47	353.67
577046.77	4179491.94	354.1
577046.6901	4179491.42	354.12
577046.62	4179490.88	353.99
577046.56	4179490.35	353.74
577046.48	4179489.83	353.78
577046.4	4179489.29	353.8
577046.36	4179488.76	353.39
577046.31	4179488.24	352.96
577046.24	4179487.71	352.83
577046.1901	4179487.17	352.58
577046.13	4179486.65	352.35
577046.0799	4179486.13	351.96
577046.02	4179485.59	351.8
577045.9499	4179485.06	351.68
577045.9	4179484.53	351.34
577045.84	4179484	351.09
577045.76	4179483.46	351.06
577048.53	4179482.93	317.1
577048.4499	4179482.39	317.19
577048.39	4179481.83	316.87
577048.31	4179481.28	316.9
577048.22	4179480.73	316.95
577048.14	4179480.18	316.86
577048.05	4179479.62	317
577047.96	4179479.07	317.07
577047.9	4179478.52	316.86
577047.81	4179477.97	316.98
577047.6901	4179477.42	317.33
577047.59	4179476.86	317.53
577047.55	4179476.31	317.12
577047.46	4179475.75	317.2
577047.38	4179475.19	317.17
577047.28	4179474.65	317.38
577047.1999	4179474.09	317.31
577047.8201	4179473.71	317.21
577047.92	4179474.26	317.12
577048	4179474.83	317.15
577048.0799	4179475.38	317.15
577048.16	4179475.92	317.2
577048.25	4179476.48	317.09
577048.3299	4179477.04	317.17
577048.43	4179477.59	317.02
577048.51	4179478.13	317.03
577048.61	4179478.68	316.86
577048.68	4179479.25	316.98
577048.75	4179479.79	317.09
577048.8299	4179480.34	317.2
577048.93	4179480.9	317.01
577049.02	4179481.46	316.92
577049.1	4179482.01	316.99
577049.1901	4179482.55	316.88
577049.27	4179483.11	316.88
577046.48	4179483.64	351.09
577046.56	4179484.17	351.11
577046.62	4179484.69	351.28
577046.68	4179485.23	351.54
577046.73	4179485.76	351.88
577046.79	4179486.28	352.16
577046.8299	4179486.81	352.57
577046.9	4179487.35	352.75
577046.97	4179487.87	352.82
577047.04	4179488.39	352.91
577047.12	4179488.93	352.96
577047.18	4179489.47	353.21
577047.25	4179489.99	353.38
577047.31	4179490.52	353.55
577047.4	4179491.05	353.48
577047.47	4179491.58	353.53
577047.5701	4179492.11	353.3
577047.66	4179492.64	353.2
577047.74	4179493.17	353.2
577047.84	4179493.71	352.98
577047.9499	4179494.23	352.69
577048.04	4179494.77	352.53
577048.12	4179495.3	352.51
577048.24	4179495.84	352.12
577048.3299	4179496.36	351.91
577048.4401	4179496.9	351.56
577048.55	4179497.45	351.26
577048.64	4179497.98	351.15
577048.75	4179498.5	350.74
577051.81	4179499.69	316.51
577051.9	4179500.26	316.49
577051.98	4179500.8	316.51
577052.06	4179501.36	316.53
577052.14	4179501.92	316.57
577052.21	4179502.45	316.76
577052.04	4179502.94	319.64
577051.92	4179503.44	321.95
577051.79	4179503.94	324.33
577051.88	4179504.48	324.27
577051.88	4179505.01	325.19
577051.9401	4179505.55	325.48
577051.99	4179506.08	325.82
577052.23	4179506.68	324.07
577052.3201	4179507.23	324
577052.36	4179507.77	324.52
577052.48	4179508.32	324.1
577053.24	4179509.1	316.38
577052.5799	4179509.4	324.83
577052.73	4179509.98	324.02
577054.0799	4179510.48	316.39
577054	4179509.93	316.36
577053.92	4179509.36	316.36
577053.26	4179508.62	322.89
577053.74	4179508.25	316.48
577053.14	4179507.52	322.35
577052.78	4179506.89	325.56
577052.9401	4179506.42	322.83
577052.98	4179505.91	321.39
577052.92	4179505.36	321.12
577052.8299	4179504.81	321.24
577052.68	4179504.23	321.97
577052.41	4179503.64	324.16
577052.52	4179503.14	321.97
577052.89	4179502.7	316.78
577052.8201	4179502.15	316.67
577052.75	4179501.6	316.51
577052.64	4179501.05	316.78
577052.56	4179500.48	316.76
577052.5	4179499.94	316.54
577052.42	4179499.39	316.49
577049.36	4179498.21	350.8
577049.27	4179497.67	350.91
577049.16	4179497.14	351.26
577049.04	4179496.6	351.69
577048.96	4179496.07	351.7
577048.85	4179495.54	352.1
577048.75	4179495	352.3
577048.67	4179494.46	352.28
577048.5701	4179493.94	352.53
577048.49	4179493.4	352.59
577048.4	4179492.86	352.7
577048.3	4179492.33	352.99
577048.18	4179491.8	353.48
577048.09	4179491.27	353.6
577048.02	4179490.73	353.41
577047.97	4179490.21	353.11
577047.89	4179489.68	353.07
577047.8201	4179489.15	353
577047.78	4179488.62	352.6
577047.6901	4179488.09	352.68
577047.62	4179487.57	352.52
577047.5701	4179487.04	352.18
577047.49	4179486.51	352.22
577047.43	4179485.98	352.05
577047.37	4179485.44	351.8
577047.3299	4179484.91	351.26
577047.27	4179484.38	351.06
577047.1999	4179483.86	350.95
577047.13	4179483.33	350.91
577049.91	4179482.78	316.9
577049.8201	4179482.23	316.97
577049.74	4179481.67	316.95
577049.66	4179481.11	316.88
577049.56	4179480.57	317.1
577049.49	4179480.02	316.9
577049.38	4179479.46	317.27
577049.29	4179478.92	317.33
577049.21	4179478.37	317.37
577049.15	4179477.81	317.03
577049.06	4179477.25	317.19
577048.97	4179476.71	317.29
577048.91	4179476.17	316.99
577048.81	4179475.61	317.17
577048.72	4179475.05	317.23
577048.63	4179474.5	317.33
577048.56	4179473.95	317.16
577049.25	4179473.94	317.17
577049.3201	4179474.49	317.28
577049.4	4179475.04	317.39
577049.47	4179475.6	317.53
577049.5799	4179476.15	317.21
577049.66	4179476.7	317.23
577049.75	4179477.25	317.18
577049.85	4179477.8	316.97
577049.93	4179478.36	317.04
577050.02	4179478.9	316.95
577050.0799	4179479.45	317.17
577050.18	4179480.01	317.03
577050.26	4179480.56	317.03
577050.34	4179481.11	317.1
577050.43	4179481.67	317.11
577050.52	4179482.22	316.97
577050.5799	4179482.76	317.22
577050.68	4179483.32	317.11
577047.92	4179483.85	350.79
577047.98	4179484.38	351.07
577048.04	4179484.9	351.27
577048.11	4179485.43	351.39
577048.16	4179485.97	351.73
577048.23	4179486.49	351.89
577048.31	4179487.01	351.91
577048.34	4179487.55	352.45
577048.42	4179488.09	352.57
577048.49	4179488.61	352.59
577048.56	4179489.13	352.72
577048.64	4179489.67	352.7
577048.6999	4179490.2	352.96
577048.8	4179490.73	352.75
577048.86	4179491.26	352.98
577048.96	4179491.8	352.74
577049.03	4179492.31	352.9
577049.14	4179492.84	352.5
577049.25	4179493.39	352.18
577049.34	4179493.93	352.16
577049.42	4179494.45	352.15
577049.49	4179494.97	352.2
577049.6	4179495.51	351.85
577049.6999	4179496.05	351.64
577049.8201	4179496.58	351.21
577049.91	4179497.12	351.03
577049.99	4179497.66	351.07
577053.0701	4179498.81	316.59
577053.15	4179499.34	316.59
577053.23	4179499.9	316.65
577053.31	4179500.46	316.76
577053.4	4179501.01	316.63
577053.49	4179501.56	316.51
577053.56	4179502.11	316.73
577053.65	4179502.67	316.59
577053.75	4179503.22	316.44
577053.84	4179503.78	316.39
577053.93	4179504.34	316.33
577053.99	4179504.88	316.6
577053.6999	4179505.32	320.76
577054.18	4179505.99	316.35
577054.25	4179506.55	316.48
577053.74	4179506.92	323.17
577054.41	4179507.65	316.55
577054.5	4179508.21	316.51
577054.5799	4179508.76	316.51
577054.68	4179509.31	316.32
577054.77	4179509.87	316.32
577054.85	4179510.43	316.41
577055.5	4179510.43	316.26
577055.41	4179509.88	316.32
577055.3299	4179509.33	316.31
577055.24	4179508.77	316.37
577055.17	4179508.22	316.2
577055.0701	4179507.65	316.41
577054.99	4179507.11	316.42
577054.89	4179506.54	316.58
577054.8	4179505.98	316.71
577054.72	4179505.44	316.65
577054.25	4179504.78	321.07
577054.5701	4179504.33	316.46
577054.49	4179503.78	316.47
577054.4	4179503.23	316.46
577054.31	4179502.67	316.58
577054.22	4179502.12	316.65
577054.16	4179501.57	316.45
577054.06	4179501.01	316.66
577053.97	4179500.46	316.66
577053.87	4179499.9	316.85
577053.81	4179499.34	316.61
577053.72	4179498.79	316.67
577050.67	4179497.65	350.88
577050.6	4179497.11	350.75
577050.5	4179496.57	350.93
577050.4	4179496.04	351.19
577050.3	4179495.51	351.43
577050.1999	4179494.97	351.66
577050.09	4179494.44	352.03
577049.98	4179493.9	352.45
577049.91	4179493.36	352.29
577049.85	4179492.83	352.09
577049.74	4179492.3	352.41
577049.65	4179491.77	352.56
577049.55	4179491.23	352.78
577049.47	4179490.72	352.81
577049.41	4179490.19	352.56
577049.34	4179489.65	352.48
577049.27	4179489.13	352.33
577049.18	4179488.6	352.48
577049.13	4179488.06	352.11
577049.0701	4179487.53	351.82
577048.99	4179487.01	351.89
577048.92	4179486.48	351.84
577048.86	4179485.94	351.57
577048.81	4179485.41	351.24
577048.73	4179484.88	351.18
577048.6901	4179484.34	350.73
577051.47	4179483.85	316.87
577051.38	4179483.3	316.99
577051.29	4179482.74	317.07
577051.21	4179482.19	317.02
577051.14	4179481.63	316.86
577051.04	4179481.08	317.04
577050.98	4179480.53	316.81
577050.89	4179479.97	316.89
577050.78	4179479.43	317.19
577050.6901	4179478.88	317.23
577050.63	4179478.32	317.03
577050.51	4179477.76	317.47
577050.46	4179477.22	317.07
577050.38	4179476.67	316.99
577050.28	4179476.11	317.18
577050.1999	4179475.55	317.23
577050.11	4179475	317.27
577050.03	4179474.46	317.29
577049.9499	4179473.91	317.24
577050.6	4179473.71	317.28
577050.6901	4179474.26	317.23
577050.79	4179474.82	317.12
577050.87	4179475.37	317.13
577050.9499	4179475.92	317.15
577051.04	4179476.47	317.15
577051.12	4179477.03	317.16
577051.21	4179477.58	317.09
577051.31	4179478.13	316.94
577051.38	4179478.68	317.02
577051.47	4179479.23	316.96
577051.56	4179479.8	316.97
577051.65	4179480.35	316.91
577051.72	4179480.89	316.96
577051.81	4179481.43	316.93
577051.89	4179482	316.95
577051.97	4179482.55	317
577052.05	4179483.1	317.13
577052.14	4179483.65	317.07
577052.24	4179484.2	316.86
577049.4499	4179484.68	350.76
577049.52	4179485.21	350.88
577049.5799	4179485.75	351.18
577049.62	4179486.28	351.6
577049.6901	4179486.8	351.81
577049.76	4179487.34	351.86
577049.85	4179487.87	351.77
577049.92	4179488.41	351.96
577050	4179488.93	351.88
577050.0701	4179489.46	352.07
577050.15	4179489.99	352.05
577050.22	4179490.53	352.17
577050.3	4179491.05	352.23
577050.4	4179491.58	351.93
577050.48	4179492.11	351.91
577050.56	4179492.65	351.95
577050.64	4179493.17	351.97
577050.74	4179493.7	351.76
577050.85	4179494.25	351.46
577050.93	4179494.77	351.47
577051.01	4179495.3	351.43
577051.12	4179495.84	351.13
577051.22	4179496.38	350.9
577051.3299	4179496.91	350.6
577054.36	4179498.02	316.58
577054.4499	4179498.58	316.52
577054.53	4179499.12	316.59
577054.62	4179499.68	316.53
577054.6999	4179500.23	316.57
577054.81	4179500.79	316.34
577054.88	4179501.34	316.39
577054.96	4179501.89	316.48
577055.06	4179502.45	316.35
577055.12	4179503	316.56
577055.21	4179503.55	316.55
577055.31	4179504.1	316.36
577055.39	4179504.66	316.36
577055.48	4179505.21	316.34
577055.55	4179505.75	316.47
577055.63	4179506.3	316.47
577055.72	4179506.87	316.5
577055.81	4179507.43	316.38
577055.89	4179507.97	316.39
577055.98	4179508.53	316.34
577056.0701	4179509.09	316.27
577056.15	4179509.63	316.41
577056.25	4179510.2	316.16
577056.91	4179510.36	316.13
577056.8299	4179509.81	316.1
577056.72	4179509.24	316.36
577056.65	4179508.69	316.26
577056.5701	4179508.13	316.17
577056.49	4179507.59	316.18
577056.4	4179507.03	316.24
577056.28	4179506.46	316.64
577056.18	4179505.91	316.85
577056.12	4179505.35	316.62
577056.03	4179504.8	316.63
577055.9499	4179504.25	316.66
577055.89	4179503.7	316.43
577055.8	4179503.14	316.47
577055.71	4179502.59	316.49
577055.65	4179502.04	316.29
577055.51	4179501.47	316.94
577055.4401	4179500.92	316.77
577055.35	4179500.37	316.9
577055.27	4179499.8	316.82
577055.22	4179499.26	316.47
577055.13	4179498.71	316.52
577055.04	4179498.15	316.62
577054.97	4179497.6	316.47
577054.88	4179497.05	316.47
577051.84	4179495.98	350.62
577051.73	4179495.43	351.01
577051.63	4179494.91	351.17
577051.55	4179494.38	351.22
577051.4499	4179493.83	351.47
577051.35	4179493.3	351.63
577051.27	4179492.77	351.62
577051.1901	4179492.23	351.6
577051.09	4179491.69	351.9
577051	4179491.17	352.02
577050.9401	4179490.64	351.75
577050.87	4179490.11	351.63
577050.79	4179489.58	351.64
577050.71	4179489.04	351.66
577050.63	4179488.51	351.69
577050.5701	4179487.98	351.48
577050.5	4179487.45	351.34
577050.41	4179486.92	351.39
577050.3299	4179486.38	351.39
577050.28	4179485.86	351.06
577050.23	4179485.33	350.72
577050.17	4179484.8	350.49
577052.93	4179484.31	316.91
577052.84	4179483.76	317.02
577052.78	4179483.21	316.8
577052.68	4179482.66	316.95
577052.59	4179482.1	317.01
577052.52	4179481.55	316.92
577052.42	4179480.99	317.12
577052.34	4179480.44	317.02
577052.23	4179479.89	317.37
577052.16	4179479.34	317.28
577052.0799	4179478.78	317.2
577051.99	4179478.23	317.22
577051.9	4179477.68	317.31
577051.8201	4179477.13	317.3
577051.75	4179476.57	317.16
577051.67	4179476.03	317.17
577051.5799	4179475.48	317.21
577051.5	4179474.92	317.2
577051.43	4179474.37	317.01
577051.34	4179473.82	317.18
577052.0799	4179474.03	317.04
577052.16	4179474.59	317.08
577052.25	4179475.14	317.01
577052.3299	4179475.69	317.1
577052.41	4179476.24	317.14
577052.49	4179476.79	317.16
577052.56	4179477.35	317.33
577052.65	4179477.9	317.2
577052.76	4179478.45	316.99
577052.84	4179479	316.96
577052.93	4179479.56	316.97
577052.99	4179480.11	317.23
577053.09	4179480.65	317.04
577053.18	4179481.21	317.02
577053.27	4179481.78	316.93
577053.36	4179482.33	316.91
577053.43	4179482.87	317
577053.53	4179483.43	316.89
577053.6	4179483.98	317.04
577053.68	4179484.52	317.03
577053.76	4179485.07	317.08
577053.86	4179485.63	316.91
577051.0701	4179486.06	350.72
577051.15	4179486.59	350.7
577051.1999	4179487.12	351.04
577051.28	4179487.66	351.13
577051.35	4179488.19	351.3
577051.42	4179488.71	351.35
577051.49	4179489.24	351.44
577051.5701	4179489.78	351.54
577051.66	4179490.3	351.4
577051.73	4179490.82	351.54
577051.81	4179491.36	351.49
577051.9	4179491.9	351.45
577051.99	4179492.42	351.28
577052.09	4179492.96	351.07
577052.18	4179493.49	350.99
577052.27	4179494.02	350.9
577052.36	4179494.55	350.79
577052.46	4179495.09	350.53
577055.49	4179496.13	316.58
577055.56	4179496.68	316.74
577055.64	4179497.23	316.76
577055.74	4179497.79	316.59
577055.84	4179498.34	316.45
577055.91	4179498.89	316.56
577056.01	4179499.44	316.48
577056.1	4179500.01	316.38
577056.18	4179500.56	316.39
577056.26	4179501.1	316.47
577056.34	4179501.65	316.51
577056.4401	4179502.21	316.35
577056.51	4179502.76	316.47
577056.61	4179503.31	316.32
577056.6999	4179503.87	316.24
577056.76	4179504.42	316.57
577056.8299	4179504.98	316.67
577056.9401	4179505.53	316.42
577057.02	4179506.08	316.41
577057.1	4179506.64	316.54
577057.17	4179507.18	316.63
577057.3	4179507.74	316.1
577057.35	4179508.29	316.49
577057.47	4179508.86	316.19
577057.53	4179509.4	316.45
577057.64	4179509.96	316.08
577057.6999	4179510.51	316.43
577058.3	4179510.26	316.38
577058.23	4179509.71	316.14
577058.13	4179509.15	316.33
577058.0701	4179508.6	316.08
577057.97	4179508.04	316.28
577057.9	4179507.48	316.13
577057.79	4179506.92	316.44
577057.71	4179506.37	316.37
577057.63	4179505.82	316.42
577057.56	4179505.27	316.19
577057.46	4179504.71	316.36
577057.38	4179504.16	316.38
577057.26	4179503.59	316.72
577057.18	4179503.04	316.75
577057.09	4179502.48	316.76
577057.04	4179501.93	316.41
577056.96	4179501.39	316.39
577056.88	4179500.84	316.36
577056.77	4179500.27	316.67
577056.71	4179499.73	316.4
577056.61	4179499.17	316.53
577056.53	4179498.61	316.51
577056.4499	4179498.05	316.46
577056.34	4179497.49	316.78
577056.24	4179496.95	316.96
577056.1901	4179496.39	316.58
577056.1	4179495.84	316.69
577056.01	4179495.29	316.75
577055.93	4179494.73	316.72
577052.91	4179493.75	350.7
577052.8201	4179493.22	350.79
577052.72	4179492.68	350.97
577052.63	4179492.15	351.15
577052.55	4179491.62	351.11
577052.47	4179491.09	351.17
577052.39	4179490.56	351.13
577052.31	4179490.03	351.14
577052.22	4179489.5	351.21
577052.14	4179488.97	351.27
577052.0799	4179488.43	350.97
577052	4179487.9	350.97
577051.9401	4179487.36	350.82
577051.86	4179486.83	350.82
577054.68	4179486.44	316.74
577054.6	4179485.88	316.7
577054.51	4179485.33	316.75
577054.42	4179484.77	316.78
577054.3299	4179484.22	316.9
577054.24	4179483.67	317.06
577054.17	4179483.12	316.83
577054.06	4179482.57	317.14
577053.99	4179482.02	317.03
577053.91	4179481.46	316.96
577053.8299	4179480.9	316.91
577053.73	4179480.36	317.11
577053.65	4179479.81	317.1
577053.5799	4179479.25	316.98
577053.49	4179478.69	316.98
577053.42	4179478.15	316.83
577053.3299	4179477.59	316.99
577053.23	4179477.03	317.11
577053.15	4179476.49	317.12
577053.0701	4179475.95	317.02
577052.96	4179475.39	317.4
577052.91	4179474.83	316.93
577052.81	4179474.29	317.18
577052.73	4179473.73	317.14
577053.43	4179473.79	317.1
577053.53	4179474.33	316.95
577053.61	4179474.89	316.99
577053.6901	4179475.45	317.12
577053.77	4179476.01	317.17
577053.86	4179476.55	316.99
577053.9401	4179477.09	317.11
577054	4179477.65	317.42
577054.0799	4179478.2	317.42
577054.18	4179478.74	317.21
577054.27	4179479.3	317.15
577054.36	4179479.86	317.08
577054.4499	4179480.42	317.06
577054.52	4179480.97	317.25
577054.63	4179481.52	316.96
577054.6901	4179482.07	317.19
577054.79	4179482.63	317.01
577054.88	4179483.17	316.95
577054.97	4179483.73	316.85
577055.04	4179484.28	317.03
577055.14	4179484.83	316.84
577055.23	4179485.38	316.83
577055.29	4179485.93	317.08
577055.39	4179486.49	316.94
577055.47	4179487.04	316.95
577055.56	4179487.59	316.93
577055.65	4179488.15	316.81
577055.73	4179488.71	316.96
577052.93	4179489.02	350.52
577052.98	4179489.54	350.9
577053.0799	4179490.08	350.75
577053.17	4179490.61	350.64
577053.22	4179491.13	350.97
577053.27	4179491.66	351.35
577056.31	4179492.56	317
577056.38	4179493.12	317.24
577056.47	4179493.67	317.12
577056.6	4179494.22	316.65
577056.66	4179494.78	316.87
577056.77	4179495.34	316.61
577056.87	4179495.88	316.44
577056.92	4179496.43	316.82
577056.99	4179496.99	317.04
577057.13	4179497.54	316.38
577057.21	4179498.09	316.47
577057.28	4179498.66	316.58
577057.38	4179499.21	316.45
577057.46	4179499.76	316.52
577057.54	4179500.32	316.51
577057.62	4179500.86	316.55
577057.72	4179501.42	316.38
577057.81	4179501.97	316.36
577057.91	4179502.52	316.19
577057.98	4179503.09	316.28
577058.05	4179503.63	316.45
577058.16	4179504.18	316.22
577058.23	4179504.74	316.34
577058.3201	4179505.3	316.36
577058.39	4179505.85	316.5
577058.5	4179506.4	316.2
577058.5799	4179506.95	316.24
577058.65	4179507.5	316.42
577058.74	4179508.05	316.36
577058.8201	4179508.61	316.4
577058.9	4179509.16	316.45
577059	4179509.72	316.29
577059.0799	4179510.27	316.33
577059.73	4179510.29	316.17
577059.64	4179509.73	316.3
577059.55	4179509.17	316.35
577059.46	4179508.61	316.43
577059.4	4179508.07	316.17
577059.3	4179507.52	316.29
577059.21	4179506.96	316.41
577059.13	4179506.4	316.37
577059.05	4179505.85	316.3
577058.97	4179505.3	316.24
577058.87	4179504.74	316.47
577058.79	4179504.19	316.37
577058.6999	4179503.63	316.55
577058.63	4179503.08	316.29
577058.54	4179502.53	316.38
577058.47	4179501.99	316.31
577058.38	4179501.42	316.32
577058.28	4179500.85	316.56
577058.22	4179500.31	316.24
577058.11	4179499.76	316.51
577058.02	4179499.2	316.58
577057.9499	4179498.64	316.43
577057.87	4179498.1	316.44
577057.79	4179497.54	316.43
577057.6999	4179496.99	316.46
577057.62	4179496.44	316.41
577057.53	4179495.87	316.46
577057.42	4179495.32	316.81
577057.3299	4179494.77	316.85
577057.26	4179494.21	316.75
577057.17	4179493.66	316.77
577057.0701	4179493.11	317.03
577057	4179492.56	316.88
577056.92	4179492	316.8
577056.84	4179491.45	316.79
577056.77	4179490.9	316.56
577056.68	4179490.34	316.61
577056.59	4179489.79	316.72
577056.51	4179489.24	316.72
577056.42	4179488.69	316.74
577056.3201	4179488.13	316.91
577056.23	4179487.57	317.09
577056.15	4179487.02	316.95
577056.0799	4179486.47	316.81
577055.99	4179485.92	316.87
577055.91	4179485.38	316.92
577055.8201	4179484.82	316.96
577055.73	4179484.26	317.01
577055.64	4179483.71	317.14
577055.56	4179483.17	317.14
577055.49	4179482.62	316.91
577055.4	4179482.06	316.97
577055.3299	4179481.52	316.86
577055.23	4179480.97	317.01
577055.14	4179480.4	317.14
577055.0701	4179479.85	316.97
577054.99	4179479.3	316.89
577054.89	4179478.74	317.13
577054.81	4179478.19	317.1
577054.74	4179477.64	316.91
577054.64	4179477.08	317.06
577054.56	4179476.52	317.07
577054.48	4179475.97	316.94
577054.4	4179475.42	316.99
577054.31	4179474.88	317.03
577054.23	4179474.33	316.96
577054.16	4179473.78	316.82
577054.84	4179473.73	316.83
577054.89	4179474.28	317.25
577055	4179474.84	316.86
577055.06	4179475.38	317.21
577055.14	4179475.93	317.21
577055.22	4179476.48	317.27
577055.31	4179477.05	317.29
577055.4	4179477.6	317.15
577055.48	4179478.14	317.22
577055.5799	4179478.7	317.03
577055.67	4179479.26	317.03
577055.76	4179479.8	316.94
577055.8299	4179480.34	317.09
577055.92	4179480.91	317.03
577056.02	4179481.46	316.88
577056.1	4179482.01	316.92
577056.17	4179482.57	317.07
577056.26	4179483.12	317.06
577056.34	4179483.67	317.05
577056.43	4179484.21	317.01
577056.55	4179484.76	316.66
577056.62	4179485.33	316.75
577056.6999	4179485.88	316.86
577056.78	4179486.43	316.86
577056.87	4179486.98	316.81
577056.97	4179487.54	316.72
577057.05	4179488.09	316.78
577057.13	4179488.64	316.79
577057.1999	4179489.2	316.92
577057.3	4179489.74	316.81
577057.38	4179490.29	316.88
577057.49	4179490.85	316.57
577057.56	4179491.41	316.76
577057.64	4179491.96	316.74
577057.73	4179492.51	316.71
577057.8299	4179493.06	316.52
577057.91	4179493.62	316.64
577057.97	4179494.16	316.82
577058.09	4179494.72	316.48
577058.17	4179495.28	316.51
577058.25	4179495.83	316.55
577058.35	4179496.38	316.45
577058.43	4179496.94	316.47
577058.51	4179497.49	316.49
577058.61	4179498.04	316.35
577058.6901	4179498.59	316.42
577058.76	4179499.15	316.62
577058.84	4179499.7	316.64
577058.9499	4179500.25	316.29
577059.02	4179500.8	316.56
577059.1	4179501.35	316.54
577059.1901	4179501.91	316.53
577059.27	4179502.46	316.58
577059.36	4179503.02	316.48
577059.46	4179503.58	316.34
577059.53	4179504.12	316.56
577059.63	4179504.68	316.3
577059.72	4179505.24	316.33
577059.8	4179505.79	316.35
577059.9	4179506.34	316.21
577059.96	4179506.89	316.44
577060.06	4179507.45	316.32
577060.14	4179508	316.29
577060.24	4179508.55	316.11
577060.3201	4179509.11	316.28
577060.41	4179509.67	316.13
577060.49	4179510.22	316.24
577061.12	4179510.32	316.18
577061.02	4179509.76	316.29
577060.93	4179509.2	316.45
577060.85	4179508.65	316.37
577060.76	4179508.09	316.42
577060.6901	4179507.54	316.25
577060.5799	4179506.98	316.56
577060.51	4179506.42	316.38
577060.42	4179505.87	316.47
577060.3299	4179505.32	316.57
577060.24	4179504.76	316.63
577060.16	4179504.2	316.58
577060.09	4179503.65	316.36
577060	4179503.09	316.52
577059.9	4179502.54	316.71
577059.8201	4179501.98	316.56
577059.75	4179501.43	316.46
577059.67	4179500.88	316.42
577059.6	4179500.33	316.29
577059.51	4179499.78	316.31
577059.41	4179499.22	316.53
577059.34	4179498.67	316.35
577059.25	4179498.12	316.47
577059.15	4179497.56	316.57
577059.05	4179496.99	316.72
577058.99	4179496.45	316.53
577058.91	4179495.9	316.45
577058.8299	4179495.34	316.47
577058.74	4179494.78	316.52
577058.65	4179494.24	316.58
577058.56	4179493.68	316.62
577058.5	4179493.13	316.4
577058.4	4179492.58	316.56
577058.3201	4179492.02	316.55
577058.22	4179491.46	316.63
577058.14	4179490.91	316.67
577058.04	4179490.37	316.83
577057.98	4179489.81	316.6
577057.88	4179489.24	316.71
577057.78	4179488.69	316.91
577057.6999	4179488.15	316.92
577057.61	4179487.59	316.91
577057.55	4179487.04	316.72
577057.46	4179486.49	316.72
577057.37	4179485.95	316.82
577057.3	4179485.39	316.74
577057.1901	4179484.83	316.99
577057.12	4179484.28	316.89
577057.03	4179483.72	316.91
577056.9401	4179483.16	316.97
577056.86	4179482.62	316.96
577056.78	4179482.07	316.89
577056.6999	4179481.52	316.9
577056.6	4179480.97	317.08
577056.52	4179480.42	316.99
577056.43	4179479.87	317.07
577056.36	4179479.3	316.95
577056.26	4179478.76	317.06
577056.18	4179478.2	317.01
577056.1	4179477.64	317.02
577056.02	4179477.09	316.94
577055.92	4179476.54	317.22
577055.84	4179475.99	317.14
577055.75	4179475.44	317.21
577055.66	4179474.89	317.26
577055.59	4179474.34	317.08
577055.52	4179473.78	316.89
577056.1901	4179473.7	317.04
577056.28	4179474.25	316.96
577056.36	4179474.81	316.94
577056.4401	4179475.36	317.04
577056.52	4179475.91	317.06
577056.62	4179476.46	316.97
577056.68	4179477.02	317.18
577056.77	4179477.57	317.21
577056.86	4179478.12	317.06
577056.93	4179478.68	317.35
577057.01	4179479.23	317.3
577057.11	4179479.78	317.16
577057.22	4179480.32	316.84
577057.29	4179480.88	317.09
577057.38	4179481.44	316.95
577057.46	4179481.99	317.06
577057.55	4179482.54	316.94
577057.66	4179483.1	316.75
577057.74	4179483.65	316.81
577057.8299	4179484.2	316.75
577057.91	4179484.75	316.79
577057.99	4179485.31	316.82
577058.0799	4179485.85	316.8
577058.15	4179486.4	316.88
577058.24	4179486.96	316.93
577058.3299	4179487.51	316.86
577058.42	4179488.06	316.78
577058.51	4179488.61	316.71
577058.6	4179489.17	316.65
577058.67	4179489.72	316.82
577058.77	4179490.27	316.66
577058.85	4179490.82	316.66
577058.9401	4179491.37	316.6
577059.02	4179491.93	316.66
577059.1	4179492.49	316.73
577059.1999	4179493.04	316.63
577059.28	4179493.6	316.64
577059.36	4179494.15	316.76
577059.47	4179494.7	316.48
577059.56	4179495.26	316.43
577059.61	4179495.81	316.75
577059.6999	4179496.36	316.74
577059.8	4179496.91	316.58
577059.89	4179497.46	316.54
577059.97	4179498.01	316.56
577060.03	4179498.56	316.79
577060.15	4179499.11	316.45
577060.23	4179499.67	316.56
577060.3201	4179500.24	316.47
577060.41	4179500.78	316.43
577060.48	4179501.32	316.56
577060.56	4179501.88	316.62
577060.65	4179502.44	316.58
577060.75	4179502.99	316.41
577060.8299	4179503.55	316.49
577060.93	4179504.11	316.32
577061.01	4179504.66	316.31
577061.06	4179505.19	316.74
577061.18	4179505.76	316.3
577061.27	4179506.32	316.28
577061.35	4179506.87	316.35
577061.43	4179507.42	316.4
577061.53	4179507.98	316.2
577061.6	4179508.52	316.46
577061.6901	4179509.08	316.4
577061.78	4179509.63	316.34
577061.88	4179510.2	316.19
577062.51	4179510.45	316.23
577062.43	4179509.9	316.24
577062.34	4179509.35	316.31
577062.26	4179508.79	316.27
577062.17	4179508.23	316.35
577062.0799	4179507.68	316.41
577061.99	4179507.13	316.48
577061.91	4179506.57	316.35
577061.84	4179506.01	316.26
577061.76	4179505.46	316.2
577061.64	4179504.9	316.58
577061.5701	4179504.35	316.42
577061.49	4179503.8	316.38
577061.4	4179503.24	316.47
577061.3	4179502.67	316.61
577061.24	4179502.13	316.31
577061.16	4179501.58	316.32
577061.06	4179501.02	316.45
577060.98	4179500.46	316.47
577060.9	4179499.92	316.37
577060.8	4179499.35	316.59
577060.72	4179498.8	316.5
577060.64	4179498.25	316.45
577060.5701	4179497.7	316.34
577060.47	4179497.14	316.48
577060.37	4179496.59	316.62
577060.29	4179496.04	316.63
577060.21	4179495.48	316.59
577060.15	4179494.94	316.33
577060.03	4179494.37	316.74
577059.9401	4179493.81	316.72
577059.86	4179493.26	316.68
577059.78	4179492.72	316.65
577059.6999	4179492.17	316.66
577059.6	4179491.61	316.84
577059.51	4179491.05	316.85
577059.4401	4179490.5	316.76
577059.36	4179489.94	316.68
577059.27	4179489.4	316.74
577059.1999	4179488.85	316.58
577059.09	4179488.28	316.83
577059.01	4179487.73	316.82
577058.9401	4179487.19	316.68
577058.85	4179486.63	316.73
577058.76	4179486.07	316.8
577058.66	4179485.52	317.02
577058.5799	4179484.97	317.02
577058.5	4179484.42	316.9
577058.41	4179483.87	317.01
577058.3201	4179483.31	317.05
577058.25	4179482.76	316.91
577058.18	4179482.2	316.78
577058.0799	4179481.65	316.89
577058	4179481.1	316.83
577057.91	4179480.55	316.97
577057.81	4179479.99	317.1
577057.73	4179479.45	317.07
577057.64	4179478.9	317.14
577057.5701	4179478.34	317.05
577057.49	4179477.78	316.95
577057.41	4179477.23	316.93
577057.31	4179476.68	317.03
577057.21	4179476.13	317.27
577057.13	4179475.58	317.24
577057.04	4179475.03	317.27
577056.97	4179474.48	317.15
577056.89	4179473.92	317.14
577057.63	4179474.22	317.06
577057.72	4179474.77	317.06
577057.81	4179475.33	317.03
577057.88	4179475.88	317.18
577057.97	4179476.43	317.12
577058.06	4179476.99	317.04
577058.15	4179477.53	317.04
577058.23	4179478.08	317.03
577058.3201	4179478.64	317.03
577058.4	4179479.2	317.1
577058.48	4179479.75	317.11
577058.5799	4179480.29	316.96
577058.64	4179480.85	317.31
577058.74	4179481.4	317.11
577058.84	4179481.95	316.86
577058.9	4179482.5	317.19
577058.99	4179483.05	317.17
577059.09	4179483.62	316.94
577059.16	4179484.17	317.13
577059.26	4179484.72	316.95
577059.36	4179485.28	316.82
577059.43	4179485.82	316.99
577059.52	4179486.37	316.98
577059.59	4179486.93	317.07
577059.6999	4179487.48	316.88
577059.78	4179488.03	316.93
577059.9	4179488.58	316.52
577059.97	4179489.14	316.63
577060.06	4179489.7	316.65
577060.15	4179490.24	316.55
577060.1999	4179490.78	316.9
577060.31	4179491.35	316.63
577060.39	4179491.9	316.72
577060.48	4179492.45	316.71
577060.56	4179493	316.76
577060.64	4179493.55	316.74
577060.76	4179494.11	316.44
577060.81	4179494.65	316.81
577060.91	4179495.21	316.59
577060.98	4179495.77	316.79
577061.06	4179496.32	316.91
577061.16	4179496.87	316.74
577061.23	4179497.42	316.88
577061.35	4179497.99	316.55
577061.4401	4179498.53	316.47
577061.5	4179499.08	316.71
577061.62	4179499.64	316.39
577061.6999	4179500.2	316.36
577061.78	4179500.74	316.39
577061.85	4179501.29	316.56
577061.93	4179501.85	316.68
577062.05	4179502.41	316.32
577062.12	4179502.95	316.47
577062.1999	4179503.51	316.55
577062.29	4179504.07	316.5
577062.37	4179504.61	316.55
577062.4499	4179505.16	316.59
577062.56	4179505.73	316.34
577062.64	4179506.27	316.35
577062.72	4179506.81	316.43
577062.8	4179507.37	316.5
577062.89	4179507.94	316.43
577062.97	4179508.48	316.53
577063.0701	4179509.03	316.36
577063.17	4179509.6	316.13
577063.25	4179510.16	316.28
577063.34	4179510.71	316.23
577063.92	4179510.6	316.28
577063.8299	4179510.04	316.31
577063.74	4179509.48	316.4
577063.67	4179508.93	316.26
577063.56	4179508.37	316.51
577063.5	4179507.82	316.29
577063.42	4179507.27	316.24
577063.3299	4179506.73	316.24
577063.24	4179506.16	316.37
577063.15	4179505.6	316.36
577063.0799	4179505.05	316.25
577062.98	4179504.5	316.42
577062.9	4179503.94	316.34
577062.8	4179503.38	316.5
577062.73	4179502.83	316.35
577062.64	4179502.28	316.46
577062.56	4179501.72	316.42
577062.48	4179501.18	316.28
577062.39	4179500.62	316.37
577062.3	4179500.06	316.43
577062.21	4179499.5	316.5
577062.11	4179498.95	316.64
577062.05	4179498.4	316.46
577061.9401	4179497.84	316.66
577061.85	4179497.29	316.74
577061.77	4179496.74	316.79
577061.6999	4179496.19	316.54
577061.62	4179495.63	316.48
577061.54	4179495.07	316.5
577061.46	4179494.52	316.4
577061.38	4179493.97	316.41
577061.28	4179493.42	316.5
577061.1999	4179492.86	316.46
577061.1	4179492.3	316.6
577061.01	4179491.74	316.73
577060.9401	4179491.2	316.63
577060.86	4179490.66	316.56
577060.77	4179490.09	316.6
577060.68	4179489.54	316.7
577060.61	4179489	316.46
577060.51	4179488.44	316.72
577060.4	4179487.88	317.02
577060.3201	4179487.33	316.92
577060.26	4179486.77	316.64
577060.17	4179486.21	316.65
577060.0701	4179485.68	316.87
577059.99	4179485.12	316.81
577059.91	4179484.56	316.82
577059.8201	4179484.01	316.89
577059.72	4179483.47	317.05
577059.64	4179482.91	316.98
577059.56	4179482.35	316.93
577059.4401	4179481.8	317.4
577059.36	4179481.26	317.3
577059.31	4179480.7	316.94
577059.23	4179480.14	316.9
577059.13	4179479.6	317.04
577059.06	4179479.05	316.97
577058.96	4179478.5	317.05
577058.87	4179477.94	317.2
577058.79	4179477.39	317.09
577058.72	4179476.84	316.96
577058.62	4179476.28	317.15
577058.54	4179475.73	317.05
577058.46	4179475.17	317.06
577058.37	4179474.62	317.08
577058.29	4179474.07	316.99
577058.98	4179474.08	316.89
577059.06	4179474.63	317.04
577059.13	4179475.19	317.17
577059.1999	4179475.75	317.36
577059.3	4179476.3	317.17
577059.4	4179476.84	317.08
577059.47	4179477.39	317.22
577059.56	4179477.94	317.2
577059.63	4179478.49	317.31
577059.74	4179479.05	317.06
577059.8201	4179479.6	317.16
577059.93	4179480.15	316.85
577060	4179480.71	317
577060.0799	4179481.26	317.1
577060.17	4179481.81	316.98
577060.26	4179482.36	317.02
577060.35	4179482.92	316.89
577060.4401	4179483.47	316.92
577060.52	4179484.02	316.97
577060.5799	4179484.56	317.19
577060.6999	4179485.12	316.84
577060.79	4179485.68	316.76
577060.89	4179486.24	316.64
577060.98	4179486.78	316.54
577061.05	4179487.33	316.8
577061.13	4179487.88	316.79
577061.24	4179488.43	316.57
577061.3201	4179488.99	316.64
577061.4	4179489.54	316.72
577061.48	4179490.1	316.71
577061.5701	4179490.65	316.63
577061.66	4179491.21	316.64
577061.74	4179491.77	316.76
577061.84	4179492.31	316.52
577061.93	4179492.86	316.48
577062.02	4179493.42	316.45
577062.09	4179493.98	316.66
577062.18	4179494.53	316.53
577062.28	4179495.08	316.45
577062.36	4179495.63	316.41
577062.43	4179496.18	316.69
577062.52	4179496.72	316.63
577062.61	4179497.28	316.55
577062.71	4179497.84	316.42
577062.8	4179498.39	316.27
577062.88	4179498.94	316.43
577062.9499	4179499.5	316.54
577063.03	4179500.05	316.59
577063.12	4179500.59	316.61
577063.21	4179501.15	316.5
577063.31	4179501.71	316.39
577063.37	4179502.25	316.7
577063.47	4179502.81	316.45
577063.56	4179503.36	316.43
577063.65	4179503.92	316.33
577063.73	4179504.46	316.46
577063.81	4179505.02	316.54
577063.91	4179505.58	316.36
577064	4179506.13	316.27
577064.09	4179506.69	316.26
577064.18	4179507.24	316.18
577064.26	4179507.79	316.22
577064.35	4179508.35	316.2
577064.4499	4179508.91	316.09
577064.52	4179509.46	316.25
577064.61	4179510.01	316.24
577064.6999	4179510.56	316.19
577065.28	4179510.63	316.36
577065.1999	4179510.09	316.34
577065.1	4179509.53	316.52
577065.01	4179508.97	316.51
577064.9499	4179508.43	316.26
577064.87	4179507.88	316.19
577064.78	4179507.32	316.28
577064.6901	4179506.76	316.37
577064.6	4179506.21	316.41
577064.53	4179505.65	316.23
577064.4401	4179505.1	316.28
577064.3299	4179504.54	316.62
577064.25	4179503.98	316.44
577064.16	4179503.42	316.53
577064.06	4179502.87	316.74
577063.96	4179502.31	316.87
577063.93	4179501.77	316.32
577063.81	4179501.21	316.71
577063.74	4179500.66	316.49
577063.66	4179500.1	316.45
577063.5701	4179499.55	316.59
577063.48	4179499	316.63
577063.39	4179498.44	316.59
577063.3201	4179497.89	316.53
577063.24	4179497.34	316.46
577063.14	4179496.77	316.65
577063.06	4179496.23	316.54
577062.98	4179495.69	316.54
577062.88	4179495.12	316.65
577062.8	4179494.56	316.62
577062.74	4179494.02	316.4
577062.63	4179493.46	316.64
577062.54	4179492.89	316.68
577062.4499	4179492.35	316.75
577062.38	4179491.81	316.61
577062.3	4179491.25	316.53
577062.1999	4179490.69	316.69
577062.13	4179490.14	316.52
577062.03	4179489.59	316.7
577061.93	4179489.03	316.85
577061.8299	4179488.48	317.08
577061.78	4179487.93	316.66
577061.6901	4179487.38	316.72
577061.59	4179486.82	316.98
577061.5	4179486.27	316.96
577061.4499	4179485.72	316.66
577061.34	4179485.17	316.9
577061.26	4179484.61	316.88
577061.17	4179484.06	316.89
577061.1	4179483.51	316.78
577060.97	4179482.96	317.3
577060.9	4179482.4	317.1
577060.8299	4179481.84	316.89
577060.75	4179481.3	316.9
577060.64	4179480.75	317.14
577060.5799	4179480.19	316.92
577060.49	4179479.65	317.01
577060.38	4179479.09	317.27
577060.28	4179478.55	317.46
577060.21	4179477.99	317.29
