# .PCD v.7 - Point Cloud Data file format
VERSION .7
FIELDS x y z
SIZE 4 4 4
TYPE F F F
COUNT 1 1 1
WIDTH 926
HEIGHT 1
VIEWPOINT 0 0 0 1 0 0 0
POINTS 926
DATA ascii
577060.3125 4179509 316.279998779
577060.5 4179510.25 316.239990234
577061.125 4179510.25 316.179992676
577061 4179509.75 316.290008545
577060.9375 4179509.25 316.450012207
577060.875 4179508.75 316.369995117
577060.75 4179508 316.420013428
577060.6875 4179507.5 316.25
577060.5625 4179507 316.559997559
577060.5 4179506.5 316.380004883
577060.4375 4179505.75 316.470001221
577060.3125 4179505.25 316.570007324
577060.25 4179504.75 316.630004883
577060.1875 4179504.25 316.579986572
577060.5 4179501.25 316.559997559
577060.5625 4179502 316.619995117
577060.625 4179502.5 316.579986572
577060.75 4179503 316.410003662
577060.8125 4179503.5 316.489990234
577060.9375 4179504 316.320007324
577061 4179504.75 316.309997559
577061.0625 4179505.25 316.739990234
577061.1875 4179505.75 316.299987793
577061.25 4179506.25 316.279998779
577061.375 4179506.75 316.350006104
577061.4375 4179507.5 316.399993896
577061.5 4179508 316.200012207
577061.625 4179508.5 316.459991455
577061.6875 4179509 316.399993896
577061.75 4179509.75 316.339996338
577061.875 4179510.25 316.190002441
577062.5 4179510.5 316.230010986
577062.4375 4179510 316.239990234
577062.3125 4179509.25 316.309997559
577062.25 4179508.75 316.269989014
577062.1875 4179508.25 316.350006104
577062.0625 4179507.75 316.410003662
577062 4179507.25 316.480010986
577061.9375 4179506.5 316.350006104
577061.8125 4179506 316.260009766
577061.75 4179505.5 316.200012207
577061.625 4179505 316.579986572
577061.5625 4179504.25 316.420013428
577061.5 4179503.75 316.380004883
577061.375 4179503.25 316.470001221
577061.3125 4179502.75 316.609985352
577061.25 4179502.25 316.309997559
577061.1875 4179501.5 316.320007324
577061.0625 4179501 316.450012207
577061 4179500.5 316.470001221
577060.8125 4179499.25 316.589996338
577060.8125 4179494.75 316.809997559
577061 4179495.75 316.790008545
577061.0625 4179496.25 316.910003662
577061.1875 4179496.75 316.739990234
577061.25 4179497.5 316.880004883
577061.375 4179498 316.549987793
577061.4375 4179498.5 316.470001221
577061.5 4179499 316.709991455
577061.625 4179499.75 316.390014648
577061.6875 4179500.25 316.359985352
577061.75 4179500.75 316.390014648
577061.875 4179501.25 316.559997559
577061.9375 4179501.75 316.679992676
577062.0625 4179502.5 316.320007324
577062.125 4179503 316.470001221
577062.1875 4179503.5 316.549987793
577062.3125 4179504 316.5
577062.375 4179504.5 316.549987793
577062.4375 4179505.25 316.589996338
577062.5625 4179505.75 316.339996338
577062.625 4179506.25 316.350006104
577062.75 4179506.75 316.429992676
577062.8125 4179507.25 316.5
577062.875 4179508 316.429992676
577063 4179508.5 316.529998779
577063.0625 4179509 316.359985352
577063.1875 4179509.5 316.130004883
577063.25 4179510.25 316.279998779
577063.3125 4179510.75 316.230010986
577063.9375 4179510.5 316.279998779
577063.8125 4179510 316.309997559
577063.75 4179509.5 316.399993896
577063.6875 4179509 316.260009766
577063.5625 4179508.25 316.510009766
577063.5 4179507.75 316.290008545
577063.4375 4179507.25 316.239990234
577063.3125 4179506.75 316.239990234
577063.25 4179506.25 316.369995117
577063.125 4179505.5 316.359985352
577063.0625 4179505 316.25
577063 4179504.5 316.420013428
577062.875 4179504 316.339996338
577062.8125 4179503.5 316.5
577062.75 4179502.75 316.350006104
577062.625 4179502.25 316.459991455
577062.5625 4179501.75 316.420013428
577062.5 4179501.25 316.279998779
577062.375 4179500.5 316.369995117
577062.3125 4179500 316.429992676
577062.1875 4179499.5 316.5
577062.125 4179499 316.640014648
577062.0625 4179498.5 316.459991455
577061.9375 4179497.75 316.660003662
577061.875 4179497.25 316.739990234
577061.75 4179496.75 316.790008545
577061.6875 4179496.25 316.540008545
577061.625 4179495.75 316.480010986
577061.5625 4179495 316.5
577061.375 4179489.5 316.720001221
577061.5 4179490 316.709991455
577061.5625 4179490.75 316.630004883
577061.6875 4179491.25 316.640014648
577061.75 4179491.75 316.760009766
577061.8125 4179492.25 316.519989014
577061.9375 4179492.75 316.480010986
577062 4179493.5 316.450012207
577062.0625 4179494 316.660003662
577062.1875 4179494.5 316.529998779
577062.25 4179495 316.450012207
577062.375 4179495.75 316.410003662
577062.4375 4179496.25 316.690002441
577062.5 4179496.75 316.630004883
577062.625 4179497.25 316.549987793
577062.6875 4179497.75 316.420013428
577062.8125 4179498.5 316.269989014
577062.875 4179499 316.429992676
577062.9375 4179499.5 316.540008545
577063 4179500 316.589996338
577063.125 4179500.5 316.609985352
577063.1875 4179501.25 316.5
577063.3125 4179501.75 316.390014648
577063.375 4179502.25 316.700012207
577063.5 4179502.75 316.450012207
577063.5625 4179503.25 316.429992676
577063.625 4179504 316.329986572
577063.75 4179504.5 316.459991455
577063.8125 4179505 316.540008545
577063.9375 4179505.5 316.359985352
577064 4179506.25 316.269989014
577064.0625 4179506.75 316.260009766
577064.1875 4179507.25 316.179992676
577064.25 4179507.75 316.220001221
577064.375 4179508.25 316.200012207
577064.4375 4179509 316.089996338
577064.5 4179509.5 316.25
577064.625 4179510 316.239990234
577064.6875 4179510.5 316.190002441
577065.25 4179510.75 316.359985352
577065.1875 4179510 316.339996338
577065.125 4179509.5 316.519989014
577065 4179509 316.510009766
577064.9375 4179508.5 316.260009766
577064.875 4179508 316.190002441
577064.75 4179507.25 316.279998779
577064.6875 4179506.75 316.369995117
577064.625 4179506.25 316.410003662
577064.5 4179505.75 316.230010986
577064.4375 4179505 316.279998779
577064.3125 4179504.5 316.619995117
577064.25 4179504 316.440002441
577064.1875 4179503.5 316.529998779
577064.0625 4179502.75 316.739990234
577063.9375 4179502.25 316.869995117
577063.9375 4179501.75 316.320007324
577063.8125 4179501.25 316.709991455
577063.75 4179500.75 316.489990234
577063.6875 4179500 316.450012207
577063.5625 4179499.5 316.589996338
577063.5 4179499 316.630004883
577063.375 4179498.5 316.589996338
577063.3125 4179498 316.529998779
577063.25 4179497.25 316.459991455
577063.125 4179496.75 316.649993896
577063.0625 4179496.25 316.540008545
577063 4179495.75 316.540008545
577062.875 4179495 316.649993896
577062.8125 4179494.5 316.619995117
577062.75 4179494 316.399993896
577062.625 4179493.5 316.640014648
577062.5625 4179493 316.679992676
577062.4375 4179492.25 316.75
577062.375 4179491.75 316.609985352
577062.3125 4179491.25 316.529998779
577062.1875 4179490.75 316.690002441
577062.125 4179490.25 316.519989014
577062 4179489.5 316.700012207
577061.9375 4179489 316.850006104
577061.8125 4179488.5 317.079986572
577061.75 4179488 316.660003662
577061.6875 4179487.5 316.720001221
577061.5625 4179486.75 316.980010986
577061.5 4179486.25 316.959991455
577061.3125 4179485.25 316.899993896
577061 4179483 317.299987793
577061.25 4179480.25 317.230010986
577061.625 4179482.5 316.899993896
577061.6875 4179483 316.929992676
577061.75 4179483.5 317.089996338
577061.875 4179484 316.829986572
577062 4179484.75 316.760009766
577062.0625 4179485.25 316.779998779
577062.125 4179485.75 316.790008545
577062.25 4179486.25 316.890014648
577062.3125 4179486.75 316.660003662
577062.375 4179487.5 316.799987793
577062.5 4179488 316.709991455
577062.5625 4179488.5 316.75
577062.6875 4179489 316.760009766
577062.75 4179489.5 316.720001221
577062.8125 4179490.25 316.799987793
577062.9375 4179490.75 316.760009766
577063 4179491.25 316.619995117
577063.125 4179491.75 316.489990234
577063.1875 4179492.5 316.510009766
577063.25 4179493 316.570007324
577063.375 4179493.5 316.510009766
577063.4375 4179494 316.450012207
577063.5 4179494.5 316.679992676
577063.625 4179495.25 316.570007324
577063.75 4179495.75 316.329986572
577063.8125 4179496.25 316.570007324
577063.875 4179496.75 316.630004883
577064 4179497.25 316.5
577064.0625 4179498 316.549987793
577064.125 4179498.5 316.480010986
577064.25 4179499 316.339996338
577064.3125 4179499.5 316.540008545
577064.375 4179500 316.640014648
577064.5 4179500.75 316.429992676
577064.5625 4179501.25 316.309997559
577064.6875 4179501.75 316.380004883
577064.75 4179502.25 316.510009766
577064.875 4179503 316.350006104
577064.9375 4179503.5 316.510009766
577065 4179504 316.420013428
577065.125 4179504.5 316.350006104
577065.1875 4179505 316.420013428
577065.25 4179505.75 316.459991455
577065.375 4179506.25 316.420013428
577065.4375 4179506.75 316.510009766
577065.5625 4179507.25 316.290008545
577065.625 4179507.75 316.290008545
577065.6875 4179508.5 316.309997559
577065.75 4179509 316.450012207
577065.875 4179509.5 316.410003662
577066 4179510 316.25
577066.0625 4179510.75 316.339996338
577066.5625 4179510.25 316.380004883
577066.5 4179509.75 316.380004883
577066.4375 4179509.25 316.309997559
577066.375 4179508.75 316.160003662
577066.25 4179508.25 316.339996338
577066.1875 4179507.5 316.239990234
577066.0625 4179507 316.239990234
577066 4179506.5 316.369995117
577065.9375 4179506 316.239990234
577065.8125 4179505.25 316.390014648
577065.75 4179504.75 316.380004883
577065.6875 4179504.25 316.299987793
577065.5625 4179503.75 316.380004883
577065.5 4179503.25 316.410003662
577065.375 4179502.5 316.450012207
577065.3125 4179502 316.420013428
577065.25 4179501.5 316.329986572
577065.125 4179501 316.489990234
577065.0625 4179500.5 316.420013428
577064.9375 4179499.75 316.779998779
577064.875 4179499.25 316.359985352
577064.8125 4179498.75 316.489990234
577064.6875 4179498.25 316.459991455
577064.625 4179497.75 316.609985352
577064.5 4179497 316.609985352
577064.4375 4179496.5 316.559997559
577064.375 4179496 316.630004883
577064.25 4179495.5 316.570007324
577064.1875 4179494.75 316.5
577064.125 4179494.25 316.600006104
577064 4179493.75 316.5
577063.9375 4179493.25 316.399993896
577063.8125 4179492.75 316.700012207
577063.75 4179492 316.859985352
577063.6875 4179491.5 316.709991455
577063.5625 4179491 316.760009766
577063.5 4179490.5 316.489990234
577063.4375 4179490 316.519989014
577063.3125 4179489.25 316.730010986
577063.25 4179488.75 316.600006104
577063.1875 4179488.25 316.640014648
577063.0625 4179487.75 316.850006104
577063 4179487 316.709991455
577062.9375 4179486.5 316.739990234
577062.8125 4179486 316.709991455
577062.75 4179485.5 316.839996338
577062.625 4179485 316.839996338
577062.5625 4179484.25 317.029998779
577062.5 4179483.75 316.839996338
577062.375 4179483.25 316.869995117
577062.3125 4179482.75 317.029998779
577062.25 4179482.25 316.910003662
577062.125 4179481.5 316.790008545
577062.0625 4179481 316.869995117
577061.9375 4179480.5 317.029998779
577061.875 4179480 317.029998779
577061.75 4179479.5 317.059997559
577062.1875 4179477.5 316.910003662
577062.25 4179478 317.269989014
577062.3125 4179478.5 317.320007324
577062.4375 4179479 317.059997559
577062.5 4179479.75 316.959991455
577062.625 4179480.25 316.890014648
577062.6875 4179480.75 316.809997559
577062.8125 4179481.25 316.940002441
577062.875 4179481.75 316.899993896
577062.9375 4179482.5 316.970001221
577063.0625 4179483 316.809997559
577063.125 4179483.5 316.769989014
577063.25 4179484 316.869995117
577063.3125 4179484.5 316.989990234
577063.375 4179485.25 316.799987793
577063.5 4179485.75 316.799987793
577063.5625 4179486.25 316.910003662
577063.6875 4179486.75 316.630004883
577063.75 4179487.5 316.720001221
577063.875 4179488 316.630004883
577063.9375 4179488.5 316.640014648
577064 4179489 316.540008545
577064.0625 4179489.5 316.809997559
577064.125 4179490.25 317.049987793
577064.25 4179490.75 316.630004883
577064.375 4179491.25 316.440002441
577064.4375 4179491.75 316.630004883
577064.5625 4179492.25 316.570007324
577064.625 4179493 316.489990234
577064.75 4179493.5 316.380004883
577064.8125 4179494 316.670013428
577064.875 4179494.5 316.429992676
577065 4179495 316.470001221
577065.0625 4179495.75 316.470001221
577065.1875 4179496.25 316.390014648
577065.25 4179496.75 316.450012207
577065.3125 4179497.25 316.779998779
577065.4375 4179498 316.510009766
577065.5 4179498.5 316.540008545
577065.5625 4179499 316.440002441
577065.6875 4179499.5 316.420013428
577065.75 4179500 316.529998779
577065.8125 4179500.75 316.459991455
577065.9375 4179501.25 316.309997559
577066 4179501.75 316.380004883
577066.125 4179502.25 316.429992676
577066.1875 4179502.75 316.649993896
577066.25 4179503.5 316.929992676
577066.3125 4179504 316.589996338
577066.4375 4179504.5 316.279998779
577066.5 4179505 316.390014648
577066.625 4179505.75 316.299987793
577066.75 4179506.25 316.179992676
577066.75 4179506.75 316.529998779
577066.875 4179507.25 316.429992676
577067 4179507.75 316.299987793
577067.0625 4179508.5 316.179992676
577067.125 4179509 316.25
577067.25 4179509.5 316.279998779
577067.3125 4179510 316.200012207
577067.4375 4179510.5 316.040008545
577067.9375 4179510.5 316.440002441
577067.875 4179510 316.420013428
577067.8125 4179509.5 316.399993896
577067.75 4179508.75 316.320007324
577067.625 4179508.25 316.179992676
577067.5625 4179507.75 316.109985352
577067.5 4179507.25 316.279998779
577067.375 4179506.5 316.410003662
577067.25 4179506 316.540008545
577067.1875 4179505.5 316.320007324
577067.125 4179505 316.290008545
577067 4179504.5 316.420013428
577066.9375 4179503.75 316.380004883
577066.875 4179503.25 316.470001221
577066.75 4179502.75 316.510009766
577066.6875 4179502.25 316.480010986
577066.625 4179501.75 316.339996338
577066.5 4179501 316.279998779
577066.4375 4179500.5 316.299987793
577066.3125 4179500 316.489990234
577066.25 4179499.5 316.700012207
577066.1875 4179498.75 316.549987793
577066.125 4179498.25 316.380004883
577066 4179497.75 316.410003662
577065.9375 4179497.25 316.450012207
577065.8125 4179496.75 316.440002441
577065.75 4179496 316.690002441
577065.6875 4179495.5 316.470001221
577065.5625 4179495 316.619995117
577065.5 4179494.5 316.679992676
577065.375 4179494 316.619995117
577065.3125 4179493.25 316.670013428
577065.25 4179492.75 316.619995117
577065.125 4179492.25 316.709991455
577065.0625 4179491.75 316.649993896
577064.9375 4179491 316.799987793
577064.875 4179490.5 316.589996338
577064.8125 4179490 316.540008545
577064.75 4179489.5 316.600006104
577064.625 4179489 316.869995117
577064.5625 4179488.25 316.570007324
577064.4375 4179487.75 316.769989014
577064.375 4179487.25 316.779998779
577064.25 4179486.75 316.829986572
577064.1875 4179486.25 316.869995117
577064.125 4179485.5 316.809997559
577064 4179485 316.820007324
577063.9375 4179484.5 316.839996338
577063.875 4179484 316.690002441
577063.75 4179483.5 316.820007324
577063.6875 4179482.75 316.929992676
577063.5625 4179482.25 317.209991455
577063.5 4179481.75 317.040008545
577063.4375 4179481.25 316.850006104
577063.3125 4179480.5 316.859985352
577063.25 4179480 317.160003662
577063.125 4179479.5 317.230010986
577063.0625 4179479 317.049987793
577063 4179478.5 316.899993896
577062.9375 4179477.75 316.910003662
577062.8125 4179477.25 316.890014648
577062.75 4179476.75 317.010009766
577062.6875 4179476.25 316.709991455
577063.125 4179474.75 316.609985352
577063.1875 4179475.25 316.829986572
577063.3125 4179475.75 316.690002441
577063.375 4179476.25 316.649993896
577063.5 4179477 316.670013428
577063.5625 4179477.5 316.760009766
577063.625 4179478 316.959991455
577063.6875 4179478.5 317.010009766
577063.8125 4179479 317.079986572
577063.875 4179479.75 317.160003662
577063.9375 4179480.25 317.049987793
577064.0625 4179480.75 316.989990234
577064.125 4179481.25 317.019989014
577064.25 4179481.75 316.940002441
577064.3125 4179482.5 316.980010986
577064.4375 4179483 316.779998779
577064.5 4179483.5 316.910003662
577064.5625 4179484 317.019989014
577064.6875 4179484.75 316.829986572
577064.75 4179485.25 316.989990234
577064.8125 4179485.75 316.880004883
577064.9375 4179486.25 316.820007324
577065 4179486.75 316.839996338
577065.125 4179487.5 316.709991455
577065.1875 4179488 316.670013428
577065.25 4179488.5 316.739990234
577065.375 4179489 316.779998779
577065.4375 4179489.5 316.739990234
577065.5625 4179490.25 316.459991455
577065.625 4179490.75 316.820007324
577065.6875 4179491.25 316.890014648
577065.8125 4179491.75 316.510009766
577065.875 4179492.25 316.630004883
577066 4179493 316.589996338
577066.0625 4179493.5 316.820007324
577066.125 4179494 316.959991455
577066.1875 4179494.5 317.070007324
577066.3125 4179495.25 317.070007324
577066.375 4179495.75 316.829986572
577066.5 4179496.25 317
577066.5625 4179496.75 316.649993896
577066.6875 4179497.25 316.679992676
577066.8125 4179498 316.320007324
577066.875 4179498.5 316.489990234
577066.9375 4179499 316.519989014
577067 4179499.5 316.619995117
577067.125 4179500 316.579986572
577067.25 4179500.75 316.350006104
577067.3125 4179501.25 316.329986572
577067.375 4179501.75 316.399993896
577067.5 4179502.25 316.410003662
577067.5625 4179503 316.429992676
577067.625 4179503.5 316.440002441
577067.75 4179504 316.410003662
577067.8125 4179504.5 316.549987793
577067.875 4179505 316.510009766
577068 4179505.75 316.350006104
577068.0625 4179506.25 316.329986572
577068.1875 4179506.75 316.380004883
577068.25 4179507.25 316.399993896
577068.3125 4179507.75 316.399993896
577068.4375 4179508.5 316.410003662
577068.5 4179509 316.399993896
577068.5625 4179509.5 316.5
577068.6875 4179510 316.399993896
577068.75 4179510.5 316.510009766
577069.375 4179510.75 316.410003662
577069.3125 4179510.25 316.390014648
577069.1875 4179509.5 316.299987793
577069.125 4179509 316.260009766
577069.0625 4179508.5 316.179992676
577068.9375 4179508 316.25
577068.875 4179507.25 316.299987793
577068.75 4179506.75 316.440002441
577068.6875 4179506.25 316.450012207
577068.5625 4179505.75 316.540008545
577068.5 4179505.25 316.459991455
577068.4375 4179504.5 316.470001221
577068.3125 4179504 316.420013428
577068.25 4179503.5 316.510009766
577068.1875 4179503 316.410003662
577068.0625 4179502.25 316.470001221
577068 4179501.75 316.589996338
577067.9375 4179501.25 316.440002441
577067.8125 4179500.75 316.390014648
577067.75 4179500.25 316.359985352
577067.625 4179499.5 316.480010986
577067.5625 4179499 316.390014648
577067.5 4179498.5 316.559997559
577067.375 4179498 316.619995117
577067.3125 4179497.5 316.529998779
577067.25 4179496.75 316.470001221
577067.125 4179496.25 316.899993896
577067 4179495.75 316.940002441
577066.9375 4179495.25 316.970001221
577066.875 4179494.5 316.660003662
577066.8125 4179494 316.630004883
577066.75 4179493.5 316.459991455
577066.625 4179493 316.540008545
577066.5625 4179492.5 316.570007324
577066.4375 4179491.75 316.559997559
577066.375 4179491.25 316.720001221
577066.3125 4179490.75 316.519989014
577066.1875 4179490.25 316.790008545
577066.125 4179489.75 316.489990234
577066 4179489 316.970001221
577065.9375 4179488.5 316.579986572
577065.8125 4179488 316.850006104
577065.75 4179487.5 316.869995117
577065.6875 4179486.75 316.549987793
577065.5625 4179486.25 316.700012207
577065.5 4179485.75 317.109985352
577065.375 4179485.25 317.040008545
577065.3125 4179484.75 316.929992676
577065.25 4179484 316.829986572
577065.125 4179483.5 316.880004883
577065.0625 4179483 316.809997559
577064.9375 4179482.5 317.040008545
577064.875 4179482 316.980010986
577064.8125 4179481.25 317.010009766
577064.75 4179480.75 316.910003662
577064.625 4179480.25 317
577064.5625 4179479.75 316.869995117
577064.5 4179479.25 316.899993896
577064.375 4179478.5 316.920013428
577064.3125 4179478 316.980010986
577064.1875 4179477.5 316.859985352
577064.125 4179477 316.820007324
577064.0625 4179476.25 316.630004883
577064 4179475.75 316.570007324
577063.875 4179475.25 316.679992676
577063.8125 4179474.75 316.760009766
577063.6875 4179474.25 316.799987793
577064.4375 4179474.25 316.649993896
577064.5 4179474.75 316.779998779
577064.5625 4179475.25 316.559997559
577064.6875 4179475.75 316.649993896
577064.75 4179476.25 316.700012207
577064.8125 4179477 316.690002441
577064.9375 4179477.5 316.809997559
577065 4179478 316.869995117
577065.0625 4179478.5 316.799987793
577065.1875 4179479.25 316.820007324
577065.25 4179479.75 316.850006104
577065.3125 4179480.25 317.070007324
577065.4375 4179480.75 316.920013428
577065.5 4179481.25 316.799987793
577065.5625 4179482 317.130004883
577065.6875 4179482.5 317.070007324
577065.75 4179483 316.989990234
577065.875 4179483.5 317.029998779
577065.9375 4179484 317.019989014
577066 4179484.75 316.970001221
577066.125 4179485.25 316.950012207
577066.1875 4179485.75 317.059997559
577066.3125 4179486.25 316.600006104
577066.375 4179486.75 316.739990234
577066.4375 4179487.5 317.010009766
577066.5625 4179488 316.950012207
577066.625 4179488.5 316.769989014
577066.75 4179489 316.579986572
577066.8125 4179489.5 316.679992676
577066.9375 4179490.25 316.720001221
577067 4179490.75 316.700012207
577067.0625 4179491.25 316.809997559
577067.1875 4179491.75 316.769989014
577067.25 4179492.5 316.799987793
577067.375 4179493 316.720001221
577067.4375 4179493.5 316.510009766
577067.5625 4179494 316.489990234
577067.625 4179494.5 316.730010986
577067.6875 4179495.25 316.579986572
577067.8125 4179495.75 316.579986572
577067.875 4179496.25 316.619995117
577068 4179496.75 316.540008545
577068.0625 4179497.25 316.549987793
577068.125 4179498 316.410003662
577068.25 4179498.5 316.440002441
577068.3125 4179499 316.369995117
577068.375 4179499.5 316.630004883
577068.5 4179500 316.769989014
577068.5625 4179500.75 316.559997559
577068.6875 4179501.25 316.510009766
577068.75 4179501.75 316.359985352
577068.8125 4179502.25 316.420013428
577068.9375 4179503 316.350006104
577069.0625 4179503.5 316.200012207
577069.125 4179504 316.260009766
577069.1875 4179504.5 316.339996338
577069.3125 4179505 316.230010986
577069.375 4179505.75 316.260009766
577069.5 4179506.25 316.179992676
577069.5625 4179506.75 316.220001221
577069.625 4179507.25 316.239990234
577069.6875 4179507.75 316.440002441
577069.8125 4179508.5 316.239990234
577069.875 4179509 316.25
577070 4179509.5 316.260009766
577070.0625 4179510 316.25
577070.1875 4179510.75 316.260009766
577070.6875 4179510.25 316.320007324
577070.5625 4179509.5 316.359985352
577070.5 4179509 316.239990234
577070.4375 4179508.5 316.239990234
577070.375 4179508 316.149993896
577070.25 4179507.5 316.230010986
577070.1875 4179506.75 316.190002441
577070.0625 4179506.25 316.350006104
577070 4179505.75 316.230010986
577069.9375 4179505.25 316.179992676
577069.8125 4179504.5 316.260009766
577069.75 4179504 316.329986572
577069.625 4179503.5 316.450012207
577069.5625 4179503 316.519989014
577069.4375 4179502.5 316.470001221
577069.375 4179501.75 316.549987793
577069.3125 4179501.25 316.470001221
577069.1875 4179500.75 316.420013428
577069.125 4179500.25 316.540008545
577069 4179499.5 316.489990234
577068.9375 4179499 316.429992676
577068.875 4179498.5 316.440002441
577068.75 4179498 316.700012207
577068.6875 4179497.5 316.559997559
577068.5625 4179496.75 316.640014648
577068.5 4179496.25 316.700012207
577068.4375 4179495.75 316.75
577068.3125 4179495.25 316.630004883
577068.25 4179494.75 316.570007324
577068.1875 4179494 316.709991455
577068.0625 4179493.5 316.660003662
577068 4179493 316.630004883
577067.9375 4179492.5 316.480010986
577067.8125 4179491.75 316.390014648
577067.75 4179491.25 316.769989014
577067.625 4179490.75 316.720001221
577067.5625 4179490.25 316.700012207
577067.5 4179489.75 316.75
577067.375 4179489 316.660003662
577067.3125 4179488.5 316.739990234
577067.25 4179488 316.690002441
577067.125 4179487.5 316.790008545
577067 4179487 316.880004883
577066.9375 4179486.25 316.829986572
577066.875 4179485.75 316.839996338
577066.75 4179485.25 316.959991455
577066.6875 4179484.75 316.790008545
577066.625 4179484.25 316.980010986
577066.5 4179483.5 317.130004883
577066.4375 4179483 317.010009766
577066.3125 4179482.5 316.970001221
577066.25 4179482 316.910003662
577066.1875 4179481.5 316.799987793
577066.125 4179480.75 316.850006104
577066 4179480.25 316.799987793
577065.9375 4179479.75 316.779998779
577065.8125 4179479.25 316.820007324
577065.75 4179478.5 316.700012207
577065.6875 4179478 316.679992676
577065.5625 4179477.5 316.950012207
577065.5 4179477 316.890014648
577065.4375 4179476.5 316.619995117
577065.375 4179475.75 316.529998779
577065.25 4179475.25 316.489990234
577065.1875 4179474.75 316.700012207
577065.0625 4179474.25 316.730010986
577065.8125 4179474 316.239990234
577065.875 4179474.75 316.619995117
577065.9375 4179475.25 316.579986572
577066.0625 4179475.75 316.339996338
577066.125 4179476.25 316.429992676
577066.1875 4179476.75 316.609985352
577066.3125 4179477.5 316.609985352
577066.375 4179478 316.760009766
577066.4375 4179478.5 316.920013428
577066.5 4179479 316.989990234
577066.625 4179479.5 316.660003662
577066.6875 4179480.25 316.829986572
577066.8125 4179480.75 316.760009766
577066.875 4179481.25 316.929992676
577066.9375 4179481.75 316.970001221
577067.0625 4179482.25 316.779998779
577067.125 4179483 316.859985352
577067.25 4179483.5 316.720001221
577067.3125 4179484 316.739990234
577067.4375 4179484.5 316.779998779
577067.5 4179485.25 316.559997559
577067.5625 4179485.75 316.779998779
577067.6875 4179486.25 316.679992676
577067.75 4179486.75 316.779998779
577067.875 4179487.25 316.529998779
577067.9375 4179488 316.570007324
577068 4179488.5 316.820007324
577068.125 4179489 316.700012207
577068.1875 4179489.5 316.649993896
577068.25 4179490 316.790008545
577068.375 4179490.75 316.600006104
577068.5 4179491.25 316.589996338
577068.5625 4179491.75 316.75
577068.625 4179492.25 316.679992676
577068.75 4179492.75 316.640014648
577068.8125 4179493.5 316.630004883
577068.875 4179494 316.559997559
577069 4179494.5 316.549987793
577069.0625 4179495 316.559997559
577069.1875 4179495.75 316.549987793
577069.25 4179496.25 316.429992676
577069.3125 4179496.75 316.600006104
577069.4375 4179497.25 316.570007324
577069.5 4179497.75 316.609985352
577069.625 4179498.5 316.529998779
577069.6875 4179499 316.359985352
577069.8125 4179499.5 316.429992676
577069.875 4179500 316.640014648
577069.9375 4179500.5 316.510009766
577070.0625 4179501.25 316.230010986
577070.125 4179501.75 316.429992676
577070.1875 4179502.25 316.529998779
577070.3125 4179502.75 316.5
577070.375 4179503.25 316.320007324
577070.5 4179504 316.380004883
577070.5625 4179504.5 316.299987793
577070.6875 4179505 316.260009766
577070.625 4179501 316.470001221
577070.5625 4179500.25 316.420013428
577070.5 4179499.75 316.239990234
577070.375 4179499.25 316.380004883
577070.3125 4179498.75 316.429992676
577070.25 4179498 316.309997559
577070.1875 4179497.5 316.25
577070.0625 4179497 316.279998779
577070 4179496.5 316.399993896
577069.875 4179496 316.549987793
577069.8125 4179495.25 316.5
577069.6875 4179494.75 316.519989014
577069.625 4179494.25 316.559997559
577069.5 4179493.75 316.489990234
577069.4375 4179493.25 316.769989014
577069.3125 4179492.5 316.760009766
577069.25 4179492 316.559997559
577069.1875 4179491.5 316.739990234
577069.0625 4179491 316.640014648
577069 4179490.5 316.540008545
577068.9375 4179489.75 316.609985352
577068.8125 4179489.25 316.660003662
577068.75 4179488.75 316.820007324
577068.6875 4179488.25 316.730010986
577068.5625 4179487.5 316.700012207
577068.5 4179487 316.730010986
577068.375 4179486.5 316.75
577068.3125 4179486 316.540008545
577068.25 4179485.5 316.720001221
577068.125 4179484.75 316.690002441
577068.0625 4179484.25 316.679992676
577068 4179483.75 316.75
577067.875 4179483.25 316.760009766
577067.75 4179482.75 316.899993896
577067.6875 4179482 316.769989014
577067.625 4179481.5 316.829986572
577067.5625 4179481 316.630004883
577067.4375 4179480.5 317.119995117
577067.375 4179480 316.970001221
577067.25 4179479.25 316.950012207
577067.25 4179478.75 316.559997559
577067.125 4179478.25 316.820007324
577067.0625 4179477.75 316.480010986
577066.9375 4179477 316.600006104
577066.875 4179476.5 316.429992676
577066.8125 4179476 316.369995117
577066.6875 4179475.5 316.440002441
577066.625 4179475 316.320007324
577066.5625 4179474.25 316.220001221
577066.4375 4179473.75 316.519989014
577067.25 4179474.25 316.209991455
577067.3125 4179474.75 316.25
577067.4375 4179475.25 316.279998779
577067.5 4179475.75 316.299987793
577067.5625 4179476.25 316.660003662
577067.625 4179477 316.549987793
577067.75 4179477.5 316.600006104
577067.8125 4179478 316.700012207
577067.875 4179478.5 316.720001221
577068 4179479.25 316.649993896
577068.0625 4179479.75 316.660003662
577068.1875 4179480.25 316.579986572
577068.25 4179480.75 316.649993896
577068.3125 4179481.25 316.779998779
577068.375 4179482 317.059997559
577068.5 4179482.5 316.880004883
577068.5625 4179483 316.859985352
577068.625 4179483.5 317.320007324
577068.75 4179484 316.929992676
577068.875 4179484.75 316.519989014
577068.9375 4179485.25 316.700012207
577069 4179485.75 316.660003662
577069.125 4179486.25 316.799987793
577069.1875 4179486.75 316.850006104
577069.25 4179487.5 316.760009766
577069.375 4179488 316.839996338
577069.5 4179488.5 316.579986572
577069.5625 4179489 316.790008545
577069.625 4179489.75 316.899993896
577069.75 4179490.25 316.709991455
577069.8125 4179490.75 316.630004883
577069.875 4179491.25 316.769989014
577070 4179491.75 316.559997559
577070.0625 4179492.5 316.489990234
577070.1875 4179493 316.690002441
577070.25 4179493.5 316.679992676
577070.3125 4179494 316.549987793
577070.4375 4179494.5 316.679992676
577070.5 4179495.25 316.440002441
577070.625 4179495.75 316.399993896
577070.6875 4179496.25 316.429992676
577070.6875 4179491.75 316.549987793
577070.5625 4179491.25 316.519989014
577070.5 4179490.75 316.679992676
577070.4375 4179490.25 316.619995117
577070.3125 4179489.5 316.619995117
577070.25 4179489 316.700012207
577070.125 4179488.5 316.910003662
577070.0625 4179488 316.709991455
577069.9375 4179487.5 316.869995117
577069.875 4179486.75 316.739990234
577069.8125 4179486.25 316.809997559
577069.75 4179485.75 316.619995117
577069.625 4179485.25 316.730010986
577069.5625 4179484.75 316.739990234
577069.4375 4179484 316.700012207
577069.375 4179483.5 316.739990234
577069.25 4179483 316.790008545
577069.1875 4179482.5 316.929992676
577069.125 4179481.75 316.820007324
577069 4179481.25 316.929992676
577068.9375 4179480.75 316.720001221
577068.875 4179480.25 316.760009766
577068.75 4179479.75 316.809997559
577068.6875 4179479 316.549987793
577068.625 4179478.5 316.589996338
577068.5 4179478 316.619995117
577068.4375 4179477.5 316.700012207
577068.375 4179477 316.549987793
577068.3125 4179476.25 316.320007324
577068.1875 4179475.75 316.339996338
577068.125 4179475.25 316.390014648
577068.0625 4179474.75 316.239990234
577067.9375 4179474.25 316.190002441
577068.625 4179473.75 316.380004883
577068.6875 4179474.5 316.359985352
577068.8125 4179475 316.200012207
577068.875 4179475.5 316.179992676
577069 4179476 316.25
577069.0625 4179476.5 316.190002441
577069.125 4179477.25 316.420013428
577069.25 4179477.75 316.269989014
577069.3125 4179478.25 316.540008545
577069.375 4179478.75 316.440002441
577069.4375 4179479.25 316.730010986
577069.5625 4179480 316.850006104
577069.625 4179480.5 316.720001221
577069.6875 4179481 316.829986572
577069.8125 4179481.5 316.609985352
577069.875 4179482.25 316.799987793
577070 4179482.75 316.760009766
577070.0625 4179483.25 316.890014648
577070.125 4179483.75 316.899993896
577070.25 4179484.25 316.839996338
577070.3125 4179485 316.880004883
577070.4375 4179485.5 316.779998779
577070.5 4179486 316.730010986
577070.5625 4179486.5 316.720001221
577070.6875 4179487 316.850006104
577070.6875 4179482.75 316.730010986
577070.625 4179482.25 316.649993896
577070.5 4179481.75 316.660003662
577070.4375 4179481 316.579986572
577070.375 4179480.5 316.609985352
577070.25 4179480 316.519989014
577070.1875 4179479.5 316.559997559
577070.125 4179479 316.390014648
577070 4179478.25 316.339996338
577069.9375 4179477.75 316.320007324
577069.875 4179477.25 316.209991455
577069.8125 4179476.75 316.119995117
577069.6875 4179476.25 316.380004883
577069.5625 4179475.5 316.410003662
577069.5 4179475 316.380004883
577069.4375 4179474.5 316.100006104
577069.375 4179474 316.040008545
577070.0625 4179474 316.179992676
577070.1875 4179474.5 316.109985352
577070.25 4179475 315.910003662
577070.3125 4179475.75 316.119995117
577070.4375 4179476.25 316.019989014
577070.5 4179476.75 316.109985352
577070.5625 4179477.25 316.279998779
577070.6875 4179477.75 316.450012207
