# .PCD v.7 - Point Cloud Data file format
VERSION .7
FIELDS x y z
SIZE 4 4 4
TYPE F F F
COUNT 1 1 1
WIDTH 641
HEIGHT 1
VIEWPOINT 0 0 0 1 0 0 0
POINTS 641
DATA ascii
577037.1875 4179495 351.019989014
577037.125 4179494.5 350.670013428
577037.0625 4179494 350.709991455
577037 4179493.25 350.589996338
577036.875 4179492.75 350.820007324
577036.8125 4179492.25 351.119995117
577036.75 4179491.75 350.899993896
577036.625 4179491.25 350.980010986
577036.5625 4179490.75 350.980010986
577036.5 4179490.25 350.850006104
577036.9375 4179488.5 350.779998779
577037 4179489 350.649993896
577037.0625 4179489.75 350.809997559
577037.1875 4179490.25 350.690002441
577037.1875 4179490.75 351.119995117
577037.25 4179491.25 351.149993896
577037.375 4179491.75 351.029998779
577037.4375 4179492.25 351.010009766
577037.5 4179492.75 351.049987793
577037.625 4179493.25 351.079986572
577037.6875 4179494 351.089996338
577037.75 4179494.5 351.029998779
577037.8125 4179495 351.100006104
577037.9375 4179495.5 350.739990234
577038 4179496 350.829986572
577038.125 4179496.5 350.549987793
577038.75 4179497 350.850006104
577038.625 4179496.5 350.869995117
577038.5625 4179496 350.920013428
577038.5 4179495.5 351.070007324
577038.375 4179494.75 351.200012207
577038.3125 4179494.25 351.260009766
577038.25 4179493.75 351.260009766
577038.125 4179493.25 351.260009766
577038.0625 4179492.75 351.440002441
577038 4179492.25 351.359985352
577037.875 4179491.75 351.540008545
577037.8125 4179491.25 351.320007324
577037.75 4179490.5 351.489990234
577037.6875 4179490 351.109985352
577037.5625 4179489.5 351.290008545
577037.5625 4179489 350.929992676
577037.4375 4179488.5 351.019989014
577037.375 4179488 350.850006104
577037.875 4179486.75 350.799987793
577037.9375 4179487.25 351.019989014
577038 4179487.75 351.019989014
577038.0625 4179488.25 351.140014648
577038.1875 4179488.75 351.200012207
577038.1875 4179489.5 351.529998779
577038.3125 4179490 351.410003662
577038.375 4179490.5 351.649993896
577038.4375 4179491 351.609985352
577038.5 4179491.5 351.570007324
577038.5625 4179492 351.920013428
577038.6875 4179492.5 351.769989014
577038.75 4179493 351.570007324
577038.8125 4179493.75 351.529998779
577038.9375 4179494.25 351.559997559
577039 4179494.75 351.399993896
577039.0625 4179495.25 351.290008545
577039.1875 4179495.75 351.320007324
577039.25 4179496.25 351.230010986
577039.375 4179496.75 351.059997559
577039.4375 4179497.25 351.049987793
577039.5 4179498 350.779998779
577040.125 4179498.25 350.779998779
577040.0625 4179497.75 351
577039.9375 4179497 351.179992676
577039.875 4179496.5 351.290008545
577039.75 4179496 351.380004883
577039.6875 4179495.5 351.519989014
577039.5625 4179495 351.899993896
577039.5 4179494.5 351.920013428
577039.4375 4179494 352.019989014
577039.3125 4179493.25 352.119995117
577039.25 4179492.75 352
577039.1875 4179492.25 351.899993896
577039.125 4179491.75 351.880004883
577039 4179491.25 352.200012207
577038.9375 4179490.75 351.890014648
577038.875 4179490.25 351.760009766
577038.8125 4179489.75 351.619995117
577038.75 4179489 351.510009766
577038.6875 4179488.5 351.459991455
577038.625 4179488 351.440002441
577038.5625 4179487.5 351.170013428
577038.5 4179487 350.929992676
577038.375 4179486.5 351.079986572
577038.9375 4179485.5 350.519989014
577039 4179486 350.850006104
577039.0625 4179486.5 351.220001221
577039.125 4179487.25 351.350006104
577039.1875 4179487.75 351.600006104
577039.25 4179488.25 351.769989014
577039.3125 4179488.75 351.859985352
577039.375 4179489.25 351.829986572
577039.5 4179489.75 351.970001221
577039.5625 4179490.25 352.070007324
577039.5625 4179490.75 352.369995117
577039.6875 4179491.5 352.429992676
577039.75 4179492 352.390014648
577039.8125 4179492.5 352.220001221
577039.9375 4179493 352.130004883
577040 4179493.5 352.079986572
577040.0625 4179494 352.220001221
577040.1875 4179494.5 352.179992676
577040.25 4179495 351.970001221
577040.375 4179495.75 351.779998779
577040.4375 4179496.25 351.799987793
577040.5 4179496.75 351.839996338
577040.5625 4179497.25 351.779998779
577040.6875 4179497.75 351.489990234
577040.8125 4179498.25 350.899993896
577040.9375 4179498.75 350.649993896
577041.5 4179499 350.690002441
577041.375 4179498.5 351.119995117
577041.3125 4179498 351.220001221
577041.1875 4179497.25 351.390014648
577041.125 4179496.75 351.540008545
577041 4179496.25 351.679992676
577040.9375 4179495.75 351.929992676
577040.8125 4179495.25 352.309997559
577040.75 4179494.75 352.350006104
577040.625 4179494.25 352.609985352
577040.5625 4179493.75 352.480010986
577040.5 4179493 352.369995117
577040.4375 4179492.5 352.470001221
577040.3125 4179492 352.609985352
577040.25 4179491.5 352.700012207
577040.1875 4179491 352.609985352
577040.125 4179490.5 352.309997559
577040 4179490 352.480010986
577040 4179489.5 352.25
577039.9375 4179488.75 351.890014648
577039.875 4179488.25 351.899993896
577039.8125 4179487.75 351.649993896
577039.75 4179487.25 351.410003662
577039.6875 4179486.75 351.209991455
577039.625 4179486.25 351.140014648
577039.5 4179485.75 351.010009766
577039.5 4179485.25 350.809997559
577040.0625 4179484.75 350.730010986
577040.125 4179485.25 350.899993896
577040.1875 4179485.75 351.149993896
577040.25 4179486.25 351.459991455
577040.3125 4179486.75 351.559997559
577040.375 4179487.25 351.779998779
577040.4375 4179488 351.989990234
577040.5 4179488.5 352.260009766
577040.5625 4179489 352.420013428
577040.625 4179489.5 352.700012207
577040.6875 4179490 352.730010986
577040.75 4179490.5 352.739990234
577040.8125 4179491 352.829986572
577040.9375 4179491.5 352.779998779
577041 4179492.25 353.149993896
577041.0625 4179492.75 352.739990234
577041.125 4179493.25 352.929992676
577041.25 4179493.75 352.899993896
577041.3125 4179494.25 352.880004883
577041.4375 4179494.75 352.559997559
577041.5 4179495.25 352.369995117
577041.625 4179495.75 352.160003662
577041.6875 4179496.5 351.920013428
577041.8125 4179497 351.570007324
577041.9375 4179497.5 351.440002441
577042 4179498 351.230010986
577042.125 4179498.5 351.079986572
577042.1875 4179499 351.029998779
577042.8125 4179499.25 350.839996338
577042.6875 4179498.75 350.989990234
577042.625 4179498.25 351.089996338
577042.5 4179497.75 351.5
577042.4375 4179497.25 351.649993896
577042.3125 4179496.75 352.040008545
577042.25 4179496.25 352.160003662
577042.125 4179495.5 352.290008545
577042.0625 4179495 352.410003662
577041.9375 4179494.5 352.589996338
577041.875 4179494 352.809997559
577041.75 4179493.5 353.029998779
577041.6875 4179493 353.149993896
577041.5625 4179492.5 353.089996338
577041.5 4179491.75 353.079986572
577041.4375 4179491.25 353.179992676
577041.375 4179490.75 353.100006104
577041.3125 4179490.25 352.869995117
577041.25 4179489.75 352.709991455
577041.1875 4179489.25 352.679992676
577041.0625 4179488.75 352.660003662
577041.0625 4179488.25 352.279998779
577041 4179487.75 352.010009766
577040.9375 4179487 351.820007324
577040.8125 4179486.5 351.910003662
577040.75 4179486 351.720001221
577040.75 4179485.5 351.440002441
577040.6875 4179485 351
577040.625 4179484.5 350.809997559
577041.1875 4179484 350.910003662
577041.25 4179484.5 351.149993896
577041.3125 4179485 351.010009766
577041.375 4179485.5 351.420013428
577041.4375 4179486 351.660003662
577041.5 4179486.5 352.100006104
577041.5625 4179487.25 351.940002441
577041.625 4179487.75 352.359985352
577041.6875 4179488.25 352.640014648
577041.75 4179488.75 352.75
577041.8125 4179489.25 352.779998779
577041.875 4179489.75 353.170013428
577041.9375 4179490.25 353.649993896
577042 4179490.75 353.760009766
577042.0625 4179491.25 353.649993896
577042.1875 4179492 353.579986572
577042.25 4179492.5 353.420013428
577042.3125 4179493 353.489990234
577042.4375 4179493.5 353.359985352
577042.5 4179494 353.119995117
577042.625 4179494.5 352.880004883
577042.6875 4179495 352.869995117
577042.8125 4179495.5 352.609985352
577042.875 4179496.25 352.299987793
577043 4179496.75 352.190002441
577043.0625 4179497.25 351.989990234
577043.1875 4179497.75 351.489990234
577043.3125 4179498.25 351.359985352
577043.4375 4179498.75 351
577043.5 4179499.5 350.760009766
577044.125 4179499.75 350.850006104
577044.0625 4179499.25 350.720001221
577043.9375 4179498.75 351.260009766
577043.875 4179498.25 351.399993896
577043.75 4179497.5 351.869995117
577043.6875 4179497 351.910003662
577043.5625 4179496.5 352.079986572
577043.4375 4179496 352.589996338
577043.375 4179495.5 352.869995117
577043.25 4179495 352.959991455
577043.1875 4179494.5 353.230010986
577043.0625 4179493.75 353.339996338
577043 4179493.25 353.350006104
577042.875 4179492.75 353.640014648
577042.8125 4179492.25 353.790008545
577042.75 4179491.75 353.660003662
577042.625 4179491.25 353.739990234
577042.5625 4179490.75 353.589996338
577042.5 4179490.25 353.489990234
577042.4375 4179489.5 353.25
577042.375 4179489 353.339996338
577042.3125 4179488.5 353.049987793
577042.25 4179488 352.549987793
577042.1875 4179487.5 352.440002441
577042.125 4179487 352.260009766
577042.125 4179486.5 351.959991455
577042.0625 4179486 351.690002441
577041.9375 4179485.5 351.679992676
577041.9375 4179484.75 351.410003662
577041.8125 4179484.25 351.279998779
577041.8125 4179483.75 350.739990234
577042.4375 4179483.75 350.920013428
577042.5 4179484.25 351.070007324
577042.5625 4179484.75 351.429992676
577042.625 4179485.25 351.649993896
577042.6875 4179485.75 351.799987793
577042.75 4179486.25 352
577042.8125 4179486.75 352.160003662
577042.875 4179487.25 352.529998779
577042.9375 4179488 352.790008545
577043 4179488.5 353.140014648
577043.0625 4179489 353.279998779
577043.125 4179489.5 353.489990234
577043.1875 4179490 353.829986572
577043.25 4179490.5 354.049987793
577043.3125 4179491 353.890014648
577043.375 4179491.5 354.059997559
577043.5 4179492 353.980010986
577043.5625 4179492.75 354
577043.6875 4179493.25 353.600006104
577043.75 4179493.75 353.920013428
577043.8125 4179494.25 353.399993896
577043.9375 4179494.75 353.510009766
577044 4179495.25 353.359985352
577044.125 4179495.75 353.049987793
577044.1875 4179496.25 352.799987793
577044.3125 4179497 352.190002441
577044.4375 4179497.5 351.859985352
577044.5625 4179498 351.600006104
577044.6875 4179498.5 351.299987793
577044.75 4179499 351.089996338
577044.875 4179499.5 350.950012207
577045.4375 4179499.5 350.850006104
577045.3125 4179499 351.329986572
577045.25 4179498.5 351.380004883
577045.1875 4179498 351.600006104
577045.0625 4179497.5 351.829986572
577045 4179496.75 351.989990234
577044.875 4179496.25 352.489990234
577044.75 4179495.75 352.670013428
577044.6875 4179495.25 352.829986572
577044.5625 4179494.75 353.25
577044.4375 4179494.25 353.630004883
577044.375 4179493.75 353.679992676
577044.25 4179493.25 353.959991455
577044.125 4179492.5 354.260009766
577044.0625 4179492 354.279998779
577044 4179491.5 354.230010986
577043.9375 4179491 354.260009766
577043.875 4179490.5 353.929992676
577043.8125 4179490 353.829986572
577043.75 4179489.5 353.589996338
577043.6875 4179489 353.380004883
577043.625 4179488.25 353.100006104
577043.5625 4179487.75 352.660003662
577043.5 4179487.25 352.820007324
577043.4375 4179486.75 352.279998779
577043.375 4179486.25 352.059997559
577043.3125 4179485.75 351.820007324
577043.25 4179485.25 351.630004883
577043.25 4179484.75 351.299987793
577043.1875 4179484.25 350.980010986
577043.125 4179483.5 350.720001221
577043.75 4179483.5 350.959991455
577043.8125 4179484 351.260009766
577043.875 4179484.5 351.440002441
577043.9375 4179485 351.700012207
577044 4179485.5 351.859985352
577044.0625 4179486 352.329986572
577044.125 4179486.75 352.459991455
577044.1875 4179487.25 352.700012207
577044.25 4179487.75 353.079986572
577044.3125 4179488.25 353.320007324
577044.375 4179488.75 353.390014648
577044.4375 4179489.25 353.5
577044.5 4179489.75 353.839996338
577044.5625 4179490.25 354.029998779
577044.625 4179490.75 354.390014648
577044.625 4179491.5 354.700012207
577044.75 4179492 354.470001221
577044.8125 4179492.5 354.369995117
577044.9375 4179493 354.100006104
577045.0625 4179493.5 353.769989014
577045.1875 4179494 353.420013428
577045.25 4179494.5 353.369995117
577045.3125 4179495 353.239990234
577045.5 4179495.75 352.579986572
577045.5625 4179496.25 352.420013428
577045.625 4179496.75 352.410003662
577045.75 4179497.25 351.980010986
577045.875 4179497.75 351.649993896
577046 4179498.25 351.380004883
577046.0625 4179498.75 351.019989014
577046.1875 4179499.5 350.890014648
577046.8125 4179499.5 350.640014648
577046.75 4179499 350.959991455
577046.625 4179498.5 351.390014648
577046.5 4179498 351.480010986
577046.4375 4179497.25 351.589996338
577046.3125 4179496.75 352.149993896
577046.1875 4179496.25 352.339996338
577046.125 4179495.75 352.579986572
577046 4179495.25 352.899993896
577045.875 4179494.75 353.399993896
577045.8125 4179494.25 353.230010986
577045.6875 4179493.5 353.690002441
577045.5625 4179493 354.019989014
577045.5 4179492.5 354.079986572
577045.4375 4179492 354.170013428
577045.3125 4179491.5 354.690002441
577045.25 4179491 354.649993896
577045.1875 4179490.5 354.230010986
577045.125 4179490 354.149993896
577045.0625 4179489.5 353.679992676
577045 4179488.75 353.529998779
577044.9375 4179488.25 353.220001221
577044.875 4179487.75 352.869995117
577044.8125 4179487.25 352.820007324
577044.75 4179486.75 352.670013428
577044.6875 4179486.25 352.290008545
577044.6875 4179485.75 351.890014648
577044.625 4179485.25 351.790008545
577044.5625 4179484.5 351.559997559
577044.5 4179484 351.260009766
577044.4375 4179483.5 350.880004883
577044.375 4179483 350.510009766
577045.125 4179483.25 350.679992676
577045.1875 4179483.75 350.920013428
577045.1875 4179484.25 351.369995117
577045.25 4179484.75 351.649993896
577045.3125 4179485.25 351.700012207
577045.375 4179486 351.959991455
577045.4375 4179486.5 352.190002441
577045.5 4179487 352.670013428
577045.5625 4179487.5 352.940002441
577045.625 4179488 353.170013428
577045.6875 4179488.5 353.260009766
577045.75 4179489 353.5
577045.8125 4179489.5 353.670013428
577045.875 4179490 354.029998779
577045.9375 4179490.75 354.239990234
577046 4179491.25 354.320007324
577046.0625 4179491.75 354.239990234
577046.1875 4179492.25 353.950012207
577046.25 4179492.75 353.989990234
577046.375 4179493.25 353.589996338
577046.5 4179493.75 353.260009766
577046.5625 4179494.25 352.980010986
577046.625 4179495 353.160003662
577046.75 4179495.5 353.119995117
577046.8125 4179496 352.859985352
577046.9375 4179496.5 352.529998779
577047.0625 4179497 352.279998779
577047.125 4179497.5 352.029998779
577047.25 4179498 351.790008545
577047.375 4179498.75 351.510009766
577047.4375 4179499.25 351.269989014
577048.0625 4179499 350.790008545
577047.9375 4179498.25 351.359985352
577047.875 4179497.75 351.380004883
577047.75 4179497.25 351.950012207
577047.625 4179496.75 352.079986572
577047.5625 4179496.25 352.119995117
577047.5 4179495.75 352.239990234
577047.375 4179495.25 352.559997559
577047.25 4179494.5 352.760009766
577047.1875 4179494 352.869995117
577047.0625 4179493.5 353.399993896
577047 4179493 353.559997559
577046.875 4179492.5 353.670013428
577046.75 4179492 354.100006104
577046.6875 4179491.5 354.119995117
577046.625 4179491 353.989990234
577046.5625 4179490.25 353.739990234
577046.5 4179489.75 353.779998779
577046.375 4179489.25 353.799987793
577046.375 4179488.75 353.390014648
577046.3125 4179488.25 352.959991455
577046.25 4179487.75 352.829986572
577046.1875 4179487.25 352.579986572
577046.125 4179486.75 352.350006104
577046.0625 4179486.25 351.959991455
577046 4179485.5 351.799987793
577045.9375 4179485 351.679992676
577045.875 4179484.5 351.339996338
577045.8125 4179484 351.089996338
577045.75 4179483.5 351.059997559
577046.5 4179483.75 351.089996338
577046.5625 4179484.25 351.109985352
577046.625 4179484.75 351.279998779
577046.6875 4179485.25 351.540008545
577046.75 4179485.75 351.880004883
577046.8125 4179486.25 352.160003662
577046.8125 4179486.75 352.570007324
577046.875 4179487.25 352.75
577047 4179487.75 352.820007324
577047.0625 4179488.5 352.910003662
577047.125 4179489 352.959991455
577047.1875 4179489.5 353.209991455
577047.25 4179490 353.380004883
577047.3125 4179490.5 353.549987793
577047.375 4179491 353.480010986
577047.5 4179491.5 353.529998779
577047.5625 4179492 353.299987793
577047.6875 4179492.75 353.200012207
577047.75 4179493.25 353.200012207
577047.8125 4179493.75 352.980010986
577047.9375 4179494.25 352.690002441
577048.0625 4179494.75 352.529998779
577048.125 4179495.25 352.510009766
577048.25 4179495.75 352.119995117
577048.3125 4179496.25 351.910003662
577048.4375 4179497 351.559997559
577048.5625 4179497.5 351.260009766
577048.625 4179498 351.149993896
577048.75 4179498.5 350.739990234
577049.375 4179498.25 350.799987793
577049.25 4179497.75 350.910003662
577049.1875 4179497.25 351.260009766
577049.0625 4179496.5 351.690002441
577048.9375 4179496 351.700012207
577048.875 4179495.5 352.100006104
577048.75 4179495 352.299987793
577048.6875 4179494.5 352.279998779
577048.5625 4179494 352.529998779
577048.5 4179493.5 352.589996338
577048.375 4179492.75 352.700012207
577048.3125 4179492.25 352.989990234
577048.1875 4179491.75 353.480010986
577048.0625 4179491.25 353.600006104
577048 4179490.75 353.410003662
577048 4179490.25 353.109985352
577047.875 4179489.75 353.070007324
577047.8125 4179489.25 353
577047.75 4179488.5 352.600006104
577047.6875 4179488 352.679992676
577047.625 4179487.5 352.519989014
577047.5625 4179487 352.179992676
577047.5 4179486.5 352.220001221
577047.4375 4179486 352.049987793
577047.375 4179485.5 351.799987793
577047.3125 4179485 351.260009766
577047.25 4179484.5 351.059997559
577047.1875 4179483.75 350.950012207
577047.125 4179483.25 350.910003662
577047.9375 4179483.75 350.790008545
577048 4179484.5 351.070007324
577048.0625 4179485 351.269989014
577048.125 4179485.5 351.390014648
577048.1875 4179486 351.730010986
577048.25 4179486.5 351.890014648
577048.3125 4179487 351.910003662
577048.3125 4179487.5 352.450012207
577048.4375 4179488 352.570007324
577048.5 4179488.5 352.589996338
577048.5625 4179489.25 352.720001221
577048.625 4179489.75 352.700012207
577048.6875 4179490.25 352.959991455
577048.8125 4179490.75 352.75
577048.875 4179491.25 352.980010986
577048.9375 4179491.75 352.739990234
577049 4179492.25 352.899993896
577049.125 4179492.75 352.5
577049.25 4179493.5 352.179992676
577049.3125 4179494 352.160003662
577049.4375 4179494.5 352.149993896
577049.5 4179495 352.200012207
577049.625 4179495.5 351.850006104
577049.6875 4179496 351.640014648
577049.8125 4179496.5 351.209991455
577049.9375 4179497 351.029998779
577050 4179497.75 351.070007324
577050.6875 4179497.75 350.880004883
577050.625 4179497 350.75
577050.5 4179496.5 350.929992676
577050.375 4179496 351.190002441
577050.3125 4179495.5 351.429992676
577050.1875 4179495 351.660003662
577050.0625 4179494.5 352.029998779
577050 4179494 352.450012207
577049.9375 4179493.25 352.290008545
577049.875 4179492.75 352.089996338
577049.75 4179492.25 352.410003662
577049.625 4179491.75 352.559997559
577049.5625 4179491.25 352.779998779
577049.5 4179490.75 352.809997559
577049.4375 4179490.25 352.559997559
577049.3125 4179489.75 352.480010986
577049.25 4179489.25 352.329986572
577049.1875 4179488.5 352.480010986
577049.125 4179488 352.109985352
577049.0625 4179487.5 351.820007324
577049 4179487 351.890014648
577048.9375 4179486.5 351.839996338
577048.875 4179486 351.570007324
577048.8125 4179485.5 351.239990234
577048.75 4179485 351.179992676
577048.6875 4179484.25 350.730010986
577049.4375 4179484.75 350.760009766
577049.5 4179485.25 350.880004883
577049.5625 4179485.75 351.179992676
577049.625 4179486.25 351.600006104
577049.6875 4179486.75 351.809997559
577049.75 4179487.25 351.859985352
577049.875 4179487.75 351.769989014
577049.9375 4179488.5 351.959991455
577050 4179489 351.880004883
577050.0625 4179489.5 352.070007324
577050.125 4179490 352.049987793
577050.25 4179490.5 352.170013428
577050.3125 4179491 352.230010986
577050.375 4179491.5 351.929992676
577050.5 4179492 351.910003662
577050.5625 4179492.75 351.950012207
577050.625 4179493.25 351.970001221
577050.75 4179493.75 351.760009766
577050.875 4179494.25 351.459991455
577050.9375 4179494.75 351.470001221
577051 4179495.25 351.429992676
577051.125 4179495.75 351.130004883
577051.25 4179496.5 350.899993896
577051.3125 4179497 350.600006104
577051.8125 4179496 350.619995117
577051.75 4179495.5 351.010009766
577051.625 4179495 351.170013428
577051.5625 4179494.5 351.220001221
577051.4375 4179493.75 351.470001221
577051.375 4179493.25 351.630004883
577051.25 4179492.75 351.619995117
577051.1875 4179492.25 351.600006104
577051.0625 4179491.75 351.899993896
577051 4179491.25 352.019989014
577050.9375 4179490.75 351.75
577050.875 4179490 351.630004883
577050.8125 4179489.5 351.640014648
577050.6875 4179489 351.660003662
577050.625 4179488.5 351.690002441
577050.5625 4179488 351.480010986
577050.5 4179487.5 351.339996338
577050.4375 4179487 351.390014648
577050.3125 4179486.5 351.390014648
577050.25 4179485.75 351.059997559
577050.25 4179485.25 350.720001221
577050.1875 4179484.75 350.489990234
577051.0625 4179486 350.720001221
577051.125 4179486.5 350.700012207
577051.1875 4179487 351.040008545
577051.25 4179487.75 351.130004883
577051.375 4179488.25 351.299987793
577051.4375 4179488.75 351.350006104
577051.5 4179489.25 351.440002441
577051.5625 4179489.75 351.540008545
577051.6875 4179490.25 351.399993896
577051.75 4179490.75 351.540008545
577051.8125 4179491.25 351.489990234
577051.875 4179492 351.450012207
577052 4179492.5 351.279998779
577052.0625 4179493 351.070007324
577052.1875 4179493.5 350.989990234
577052.25 4179494 350.899993896
577052.375 4179494.5 350.790008545
577052.4375 4179495 350.529998779
577052.9375 4179493.75 350.700012207
577052.8125 4179493.25 350.790008545
577052.75 4179492.75 350.970001221
577052.625 4179492.25 351.149993896
577052.5625 4179491.5 351.109985352
577052.5 4179491 351.170013428
577052.375 4179490.5 351.130004883
577052.3125 4179490 351.140014648
577052.25 4179489.5 351.209991455
577052.125 4179489 351.269989014
577052.0625 4179488.5 350.970001221
577052 4179488 350.970001221
577051.9375 4179487.25 350.820007324
577051.875 4179486.75 350.820007324
577052.9375 4179489 350.519989014
577053 4179489.5 350.899993896
577053.0625 4179490 350.75
577053.1875 4179490.5 350.640014648
577053.25 4179491.25 350.970001221
577053.25 4179491.75 351.350006104
