# .PCD v.7 - Point Cloud Data file format
VERSION .7
FIELDS x y z
SIZE 4 4 4
TYPE F F F
COUNT 1 1 1
WIDTH 513
HEIGHT 1
VIEWPOINT 0 0 0 1 0 0 0
POINTS 513
DATA ascii
577037.25 4179509.5 325.720001221
577037.75 4179510.25 327.269989014
577037.75 4179509.75 326.510009766
577038.3125 4179509.5 327.149993896
577038.4375 4179510 326.609985352
577038.625 4179510.75 325.570007324
577039 4179510.5 326.609985352
577038.9375 4179510 326.869995117
577039.6875 4179510.25 326.390014648
577040.375 4179510.5 325.540008545
577040.25 4179510 325.679992676
577041.5 4179509 324.029998779
577041.75 4179506.25 324.309997559
577041.8125 4179507.25 325.029998779
577042 4179508 323.910003662
577042.0625 4179508.5 324.600006104
577042.125 4179509 324.350006104
577042.3125 4179509.5 323.390014648
577043 4179510.75 323.359985352
577043 4179510 322.720001221
577042.625 4179509 325.059997559
577042.5625 4179508.5 324.540008545
577042.5 4179508 324.200012207
577042.25 4179506.75 325.230010986
577042.25 4179506.25 324.600006104
577042.5625 4179503.75 325.029998779
577042.75 4179505 324.850006104
577043 4179506.5 324.470001221
577043.0625 4179507 324.989990234
577043.5 4179510 324.549987793
577043.625 4179506.5 323.239990234
577043.625 4179505.75 322.829986572
577043.3125 4179505.25 324.850006104
577043.25 4179504.75 324.709991455
577043.1875 4179504.25 324.619995117
577043.1875 4179503.5 324
577043.125 4179503 323.869995117
577044 4179503.75 322.970001221
577043.9375 4179504.25 324.549987793
577044 4179504.75 324.480010986
577044.25 4179505.5 322.920013428
577044.25 4179506 323.450012207
577044.9375 4179510.25 323.220001221
577045.4375 4179509.5 321.959991455
577044.75 4179505.5 323.070007324
577044.6875 4179505 323.059997559
577044.625 4179504.5 323.320007324
577044.5625 4179503.5 322.190002441
577044.3125 4179502.75 323.820007324
577045 4179503 324.140014648
577045.25 4179504.5 323.929992676
577046.0625 4179509.5 323.239990234
577046.25 4179507 323.040008545
577046 4179505.25 323.480010986
577046.3125 4179502.75 323.299987793
577046.5 4179503.75 322.519989014
577046.9375 4179502.5 322.700012207
577047.6875 4179502.25 322.220001221
577047.75 4179503 322.320007324
577047.8125 4179503.5 322.679992676
577047.9375 4179504 322.269989014
577048.5625 4179504 321.899993896
577048.375 4179502.25 321.239990234
577049.0625 4179502.25 321.130004883
577049.125 4179502.75 321.579986572
577049.25 4179503.25 321.290008545
577049.75 4179502.25 320.679992676
577051.4375 4179504 319.75
577051.3125 4179503.25 320.130004883
577052.0625 4179503 319.640014648
577054.875 4179510.5 316.410003662
577055.5 4179510.5 316.260009766
577055.4375 4179510 316.320007324
577055.3125 4179509.25 316.309997559
577055.25 4179508.75 316.369995117
577055.0625 4179507.75 316.410003662
577054.875 4179506.5 316.579986572
577054.8125 4179506 316.709991455
577054.75 4179505.5 316.649993896
577055.125 4179503 316.559997559
577055.1875 4179503.5 316.549987793
577055.375 4179504.75 316.359985352
577055.5 4179505.25 316.339996338
577055.5625 4179505.75 316.470001221
577055.625 4179506.25 316.470001221
577055.75 4179506.75 316.5
577055.8125 4179507.5 316.380004883
577055.875 4179508 316.390014648
577056 4179508.5 316.339996338
577056.0625 4179509 316.269989014
577056.125 4179509.75 316.410003662
577056.25 4179510.25 316.160003662
577056.9375 4179510.25 316.130004883
577056.8125 4179509.75 316.100006104
577056.75 4179509.25 316.359985352
577056.625 4179508.75 316.260009766
577056.5625 4179508.25 316.170013428
577056.5 4179507.5 316.179992676
577056.375 4179507 316.239990234
577056.25 4179506.5 316.640014648
577056.1875 4179506 316.850006104
577056.125 4179505.25 316.619995117
577056 4179504.75 316.630004883
577055.9375 4179504.25 316.660003662
577055.875 4179503.75 316.429992676
577055.8125 4179503.25 316.470001221
577055.6875 4179502.5 316.489990234
577055.5 4179501.5 316.940002441
577055.4375 4179501 316.769989014
577055.375 4179500.25 316.899993896
577055.25 4179499.75 316.820007324
577055.5625 4179496.75 316.739990234
577055.625 4179497.25 316.760009766
577055.75 4179497.75 316.589996338
577055.8125 4179498.25 316.450012207
577055.9375 4179499 316.559997559
577056 4179499.5 316.480010986
577056.125 4179500 316.380004883
577056.1875 4179500.5 316.390014648
577056.25 4179501 316.470001221
577056.3125 4179501.75 316.510009766
577056.4375 4179502.25 316.350006104
577056.5 4179502.75 316.470001221
577056.625 4179503.25 316.320007324
577056.6875 4179503.75 316.239990234
577056.75 4179504.5 316.570007324
577056.8125 4179505 316.670013428
577056.9375 4179505.5 316.420013428
577057 4179506 316.410003662
577057.125 4179506.75 316.540008545
577057.1875 4179507.25 316.630004883
577057.3125 4179507.75 316.100006104
577057.375 4179508.25 316.489990234
577057.5 4179508.75 316.190002441
577057.5 4179509.5 316.450012207
577057.625 4179510 316.079986572
577057.6875 4179510.5 316.429992676
577058.3125 4179510.25 316.380004883
577058.25 4179509.75 316.140014648
577058.125 4179509.25 316.329986572
577058.0625 4179508.5 316.079986572
577058 4179508 316.279998779
577057.875 4179507.5 316.130004883
577057.8125 4179507 316.440002441
577057.6875 4179506.25 316.369995117
577057.625 4179505.75 316.420013428
577057.5625 4179505.25 316.190002441
577057.4375 4179504.75 316.359985352
577057.375 4179504.25 316.380004883
577057.25 4179503.5 316.720001221
577057.1875 4179503 316.75
577057.0625 4179502.5 316.760009766
577057.0625 4179502 316.410003662
577056.9375 4179501.5 316.390014648
577056.875 4179500.75 316.359985352
577056.75 4179500.25 316.670013428
577056.6875 4179499.75 316.399993896
577056.625 4179499.25 316.529998779
577056.5 4179498.5 316.510009766
577056.4375 4179498 316.459991455
577056.3125 4179497.5 316.779998779
577056.25 4179497 316.959991455
577056.1875 4179496.5 316.579986572
577056.125 4179495.75 316.690002441
577056 4179495.25 316.75
577055.9375 4179494.75 316.720001221
577055.75 4179488.75 316.959991455
577056.3125 4179492.5 317
577056.375 4179493 317.239990234
577056.5 4179493.75 317.119995117
577056.625 4179494.25 316.649993896
577056.6875 4179494.75 316.869995117
577056.75 4179495.25 316.609985352
577056.875 4179496 316.440002441
577056.9375 4179496.5 316.820007324
577057 4179497 317.040008545
577057.125 4179497.5 316.380004883
577057.1875 4179498 316.470001221
577057.25 4179498.75 316.579986572
577057.375 4179499.25 316.450012207
577057.4375 4179499.75 316.519989014
577057.5625 4179500.25 316.510009766
577057.625 4179500.75 316.549987793
577057.75 4179501.5 316.380004883
577057.8125 4179502 316.359985352
577057.9375 4179502.5 316.190002441
577058 4179503 316.279998779
577058.0625 4179503.75 316.450012207
577058.1875 4179504.25 316.220001221
577058.25 4179504.75 316.339996338
577058.3125 4179505.25 316.359985352
577058.375 4179505.75 316.5
577058.5 4179506.5 316.200012207
577058.5625 4179507 316.239990234
577058.625 4179507.5 316.420013428
577058.75 4179508 316.359985352
577058.8125 4179508.5 316.399993896
577058.875 4179509.25 316.450012207
577059 4179509.75 316.290008545
577059.0625 4179510.25 316.329986572
577059.375 4179508 316.170013428
577059.3125 4179507.5 316.290008545
577059.1875 4179507 316.410003662
577059.125 4179506.5 316.369995117
577059.0625 4179505.75 316.299987793
577059 4179505.25 316.239990234
577058.875 4179504.75 316.470001221
577058.8125 4179504.25 316.369995117
577058.6875 4179503.75 316.549987793
577058.625 4179503 316.290008545
577058.5625 4179502.5 316.380004883
577058.5 4179502 316.309997559
577058.375 4179501.5 316.320007324
577058.25 4179500.75 316.559997559
577058.25 4179500.25 316.239990234
577058.125 4179499.75 316.510009766
577058 4179499.25 316.579986572
577057.9375 4179498.75 316.429992676
577057.875 4179498 316.440002441
577057.8125 4179497.5 316.429992676
577057.6875 4179497 316.459991455
577057.625 4179496.5 316.410003662
577057.5 4179495.75 316.459991455
577057.4375 4179495.25 316.809997559
577057.3125 4179494.75 316.850006104
577057.25 4179494.25 316.75
577057.1875 4179493.75 316.769989014
577057.0625 4179493 317.029998779
577057 4179492.5 316.880004883
577056.9375 4179492 316.799987793
577056.8125 4179491.5 316.790008545
577056.75 4179491 316.559997559
577056.6875 4179490.25 316.609985352
577056.5625 4179489.75 316.720001221
577056.5 4179489.25 316.720001221
577056.4375 4179488.75 316.739990234
577056.3125 4179488.25 316.910003662
577056.25 4179487.5 317.089996338
577056.125 4179487 316.950012207
577056.1875 4179482.5 317.070007324
577056.25 4179483 317.059997559
577056.3125 4179483.75 317.049987793
577056.4375 4179484.25 317.010009766
577056.5625 4179484.75 316.660003662
577056.625 4179485.25 316.75
577056.6875 4179486 316.859985352
577056.75 4179486.5 316.859985352
577056.875 4179487 316.809997559
577057 4179487.5 316.720001221
577057.0625 4179488 316.779998779
577057.125 4179488.75 316.790008545
577057.1875 4179489.25 316.920013428
577057.3125 4179489.75 316.809997559
577057.375 4179490.25 316.880004883
577057.5 4179490.75 316.570007324
577057.5625 4179491.5 316.760009766
577057.625 4179492 316.739990234
577057.75 4179492.5 316.709991455
577057.8125 4179493 316.519989014
577057.9375 4179493.5 316.640014648
577058 4179494.25 316.820007324
577058.0625 4179494.75 316.480010986
577058.1875 4179495.25 316.510009766
577058.25 4179495.75 316.549987793
577058.375 4179496.5 316.450012207
577058.4375 4179497 316.470001221
577058.5 4179497.5 316.489990234
577058.625 4179498 316.350006104
577058.6875 4179498.5 316.420013428
577058.75 4179499.25 316.619995117
577058.8125 4179499.75 316.640014648
577058.9375 4179500.25 316.290008545
577059 4179500.75 316.559997559
577059.125 4179501.25 316.540008545
577059.1875 4179502 316.529998779
577059.25 4179502.5 316.579986572
577059.375 4179503 316.480010986
577059.4375 4179503.5 316.339996338
577059.5 4179504 316.559997559
577059.625 4179504.75 316.299987793
577059.75 4179505.25 316.329986572
577059.8125 4179505.75 316.350006104
577059.875 4179506.25 316.209991455
577059.75 4179501.5 316.459991455
577059.6875 4179501 316.420013428
577059.625 4179500.25 316.290008545
577059.5 4179499.75 316.309997559
577059.4375 4179499.25 316.529998779
577059.3125 4179498.75 316.350006104
577059.25 4179498 316.470001221
577059.125 4179497.5 316.570007324
577059.0625 4179497 316.720001221
577059 4179496.5 316.529998779
577058.9375 4179496 316.450012207
577058.8125 4179495.25 316.470001221
577058.75 4179494.75 316.519989014
577058.625 4179494.25 316.579986572
577058.5625 4179493.75 316.619995117
577058.5 4179493.25 316.399993896
577058.375 4179492.5 316.559997559
577058.3125 4179492 316.549987793
577058.25 4179491.5 316.630004883
577058.125 4179491 316.670013428
577058.0625 4179490.25 316.829986572
577058 4179489.75 316.600006104
577057.875 4179489.25 316.709991455
577057.75 4179488.75 316.910003662
577057.6875 4179488.25 316.920013428
577057.625 4179487.5 316.910003662
577057.5625 4179487 316.720001221
577057.4375 4179486.5 316.720001221
577057.375 4179486 316.820007324
577057.3125 4179485.5 316.739990234
577057.1875 4179484.75 316.989990234
577057.125 4179484.25 316.890014648
577057 4179483.75 316.910003662
577056.9375 4179483.25 316.970001221
577056.875 4179482.5 316.959991455
577056.75 4179482 316.890014648
577056.6875 4179481.5 316.899993896
577056.625 4179481 317.079986572
577056.5 4179480.5 316.989990234
577056.4375 4179479.75 317.070007324
577056.6875 4179477 317.179992676
577056.75 4179477.5 317.209991455
577056.875 4179478 317.059997559
577056.9375 4179478.75 317.350006104
577057 4179479.25 317.299987793
577057.125 4179479.75 317.160003662
577057.25 4179480.25 316.839996338
577057.3125 4179481 317.089996338
577057.375 4179481.5 316.950012207
577057.4375 4179482 317.059997559
577057.5625 4179482.5 316.940002441
577057.6875 4179483 316.75
577057.75 4179483.75 316.809997559
577057.8125 4179484.25 316.75
577057.9375 4179484.75 316.790008545
577058 4179485.25 316.820007324
577058.0625 4179485.75 316.799987793
577058.125 4179486.5 316.880004883
577058.25 4179487 316.929992676
577058.3125 4179487.5 316.859985352
577058.4375 4179488 316.779998779
577058.5 4179488.5 316.709991455
577058.625 4179489.25 316.649993896
577058.6875 4179489.75 316.820007324
577058.75 4179490.25 316.660003662
577058.875 4179490.75 316.660003662
577058.9375 4179491.25 316.600006104
577059 4179492 316.660003662
577059.125 4179492.5 316.730010986
577059.1875 4179493 316.630004883
577059.25 4179493.5 316.640014648
577059.375 4179494.25 316.760009766
577059.5 4179494.75 316.480010986
577059.5625 4179495.25 316.429992676
577059.625 4179495.75 316.75
577059.6875 4179496.25 316.739990234
577059.8125 4179497 316.579986572
577059.875 4179497.5 316.540008545
577060 4179498 316.559997559
577060.125 4179499 316.450012207
577060.1875 4179495.5 316.589996338
577060.125 4179495 316.329986572
577060 4179494.25 316.739990234
577059.9375 4179493.75 316.720001221
577059.875 4179493.25 316.679992676
577059.75 4179492.75 316.649993896
577059.6875 4179492.25 316.660003662
577059.625 4179491.5 316.839996338
577059.5 4179491 316.850006104
577059.4375 4179490.5 316.760009766
577059.375 4179490 316.679992676
577059.25 4179489.5 316.739990234
577059.1875 4179488.75 316.579986572
577059.0625 4179488.25 316.829986572
577059 4179487.75 316.820007324
577058.9375 4179487.25 316.679992676
577058.875 4179486.75 316.730010986
577058.75 4179486 316.799987793
577058.6875 4179485.5 317.019989014
577058.5625 4179485 317.019989014
577058.5 4179484.5 316.899993896
577058.4375 4179483.75 317.010009766
577058.3125 4179483.25 317.049987793
577058.25 4179482.75 316.910003662
577058.1875 4179482.25 316.779998779
577058.0625 4179481.75 316.890014648
577058 4179481 316.829986572
577057.9375 4179480.5 316.970001221
577057.8125 4179480 317.100006104
577057.75 4179479.5 317.070007324
577057.625 4179479 317.140014648
577057.5625 4179478.25 317.049987793
577057.5 4179477.75 316.950012207
577057.4375 4179477.25 316.929992676
577057.3125 4179476.75 317.029998779
577057.1875 4179476.25 317.269989014
577057.125 4179475.5 317.239990234
577057.0625 4179475 317.269989014
577057 4179474.5 317.149993896
577056.875 4179474 317.140014648
577057.625 4179474.25 317.059997559
577057.75 4179474.75 317.059997559
577057.8125 4179475.25 317.029998779
577057.875 4179476 317.179992676
577058 4179476.5 317.119995117
577058.0625 4179477 317.040008545
577058.125 4179477.5 317.040008545
577058.25 4179478 317.029998779
577058.3125 4179478.75 317.029998779
577058.375 4179479.25 317.100006104
577058.5 4179479.75 317.109985352
577058.5625 4179480.25 316.959991455
577058.625 4179480.75 317.309997559
577058.75 4179481.5 317.109985352
577058.8125 4179482 316.859985352
577058.875 4179482.5 317.190002441
577059 4179483 317.170013428
577059.0625 4179483.5 316.940002441
577059.1875 4179484.25 317.130004883
577059.25 4179484.75 316.950012207
577059.375 4179485.25 316.820007324
577059.4375 4179485.75 316.989990234
577059.5 4179486.25 316.980010986
577059.5625 4179487 317.070007324
577059.6875 4179487.5 316.880004883
577059.75 4179488 316.929992676
577059.875 4179488.5 316.519989014
577060 4179489.25 316.630004883
577060.0625 4179489.75 316.649993896
577060.125 4179490.25 316.549987793
577060.3125 4179491.25 316.630004883
577060.625 4179489 316.459991455
577060.5 4179488.5 316.720001221
577060.3125 4179487.25 316.920013428
577060.25 4179486.75 316.640014648
577060.1875 4179486.25 316.649993896
577060.0625 4179485.75 316.869995117
577060 4179485 316.809997559
577059.9375 4179484.5 316.820007324
577059.8125 4179484 316.890014648
577059.75 4179483.5 317.049987793
577059.625 4179483 316.980010986
577059.5625 4179482.25 316.929992676
577059.4375 4179481.75 317.399993896
577059.375 4179481.25 317.299987793
577059.3125 4179480.75 316.940002441
577059.25 4179480.25 316.899993896
577059.125 4179479.5 317.040008545
577059.0625 4179479 316.970001221
577058.9375 4179478.5 317.049987793
577058.875 4179478 317.200012207
577058.8125 4179477.5 317.089996338
577058.75 4179476.75 316.959991455
577058.625 4179476.25 317.149993896
577058.5625 4179475.75 317.049987793
577058.4375 4179475.25 317.059997559
577058.375 4179474.5 317.079986572
577058.3125 4179474 316.989990234
577059 4179474 316.890014648
577059.0625 4179474.75 317.040008545
577059.125 4179475.25 317.170013428
577059.1875 4179475.75 317.359985352
577059.3125 4179476.25 317.170013428
577059.375 4179476.75 317.079986572
577059.5 4179477.5 317.220001221
577059.5625 4179478 317.200012207
577059.625 4179478.5 317.309997559
577059.75 4179479 317.059997559
577059.8125 4179479.5 317.160003662
577059.9375 4179480.25 316.850006104
577060 4179480.75 317
577060.0625 4179481.25 317.100006104
577060.1875 4179481.75 316.980010986
577060.25 4179482.25 317.019989014
577060.375 4179483 316.890014648
577060.4375 4179483.5 316.920013428
577060.5 4179484 316.970001221
577060.6875 4179485 316.839996338
577060.8125 4179485.75 316.760009766
577060.875 4179486.25 316.640014648
577061 4179486.75 316.540008545
577060.8125 4179481.75 316.890014648
577060.75 4179481.25 316.899993896
577060.5625 4179480.25 316.920013428
577060.5 4179479.75 317.010009766
577060.375 4179479 317.269989014
577060.1875 4179478 317.290008545
577060.1875 4179477.5 316.869995117
577060.0625 4179476.75 317.059997559
577060 4179476.25 316.869995117
577059.875 4179475.75 317.239990234
577059.75 4179475.25 317.350006104
577059.75 4179474.75 317.010009766
577059.6875 4179474 316.619995117
577060.3125 4179474.25 316.859985352
577060.4375 4179474.75 316.839996338
577060.5 4179475.25 316.839996338
577060.5625 4179475.75 317.089996338
577060.6875 4179476.25 316.880004883
577060.75 4179477 316.880004883
577060.8125 4179477.5 316.970001221
577061 4179478.5 316.940002441
577061.3125 4179476 316.809997559
577061.1875 4179475.5 316.720001221
577061.125 4179475 316.670013428
577061.0625 4179474.5 316.510009766
577060.9375 4179473.75 316.679992676
577061.6875 4179474.25 316.549987793
577061.75 4179474.75 316.739990234
577061.875 4179475.25 316.640014648
