# .PCD v.7 - Point Cloud Data file format
VERSION .7
FIELDS x y z
SIZE 4 4 4
TYPE F F F
COUNT 1 1 1
WIDTH 1383
HEIGHT 1
VIEWPOINT 0 0 0 1 0 0 0
POINTS 1383
DATA ascii
577027.1875 4179503.75 316.390014648
577027.25 4179504.25 316.350006104
577027.3125 4179504.75 316.440002441
577027.4375 4179505.25 316.299987793
577027.5 4179505.75 316.140014648
577027.625 4179506.5 316.149993896
577027.6875 4179507 316.399993896
577027.75 4179507.5 316.390014648
577027.8125 4179508 316.220001221
577027.9375 4179508.5 316.239990234
577028 4179509.25 316.410003662
577028.0625 4179509.75 316.320007324
577028.1875 4179510.25 316.130004883
577028.75 4179510.5 316.350006104
577028.6875 4179510 316.429992676
577028.5625 4179509.5 316.329986572
577028.5 4179509 316.470001221
577028.4375 4179508.5 316.350006104
577028.375 4179507.75 316.440002441
577028.25 4179507.25 316.390014648
577028.1875 4179506.75 316.170013428
577028.125 4179506.25 316.399993896
577028.0625 4179505.5 316.369995117
577028 4179505 316.290008545
577027.875 4179504.5 316.660003662
577027.8125 4179504 316.260009766
577027.75 4179503.5 316.399993896
577027.625 4179502.75 316.350006104
577027.5625 4179502.25 316.380004883
577027.5 4179501.75 316.339996338
577027.375 4179501.25 316.459991455
577027.3125 4179500.5 316.5
577027.25 4179500 316.510009766
577027.125 4179499.5 316.630004883
577027.0625 4179499 316.510009766
577027 4179498.5 316.589996338
577026.9375 4179497.75 316.619995117
577026.8125 4179497.25 316.709991455
577026.75 4179496.75 316.529998779
577026.6875 4179496.25 316.510009766
577026.625 4179495.75 316.679992676
577026.5 4179495 316.970001221
577026.4375 4179494.5 316.709991455
577026.375 4179494 316.730010986
577026.3125 4179493.5 316.619995117
577026.1875 4179492.75 316.670013428
577026.125 4179492.25 316.630004883
577026.0625 4179491.75 316.799987793
577026 4179491.25 316.660003662
577025.875 4179490.75 316.600006104
577025.8125 4179490 316.570007324
577025.75 4179489.5 316.619995117
577025.6875 4179489 316.579986572
577025.5625 4179488.5 316.850006104
577025.5 4179488 316.630004883
577025.4375 4179487.25 316.799987793
577025.375 4179482.5 316.730010986
577025.4375 4179483 316.760009766
577025.5625 4179483.5 316.720001221
577025.625 4179484 316.679992676
577025.6875 4179484.75 316.739990234
577025.8125 4179485.25 316.640014648
577025.875 4179485.75 316.679992676
577025.9375 4179486.25 316.660003662
577026 4179486.75 316.690002441
577026.125 4179487.5 316.700012207
577026.1875 4179488 316.720001221
577026.25 4179488.5 316.899993896
577026.3125 4179489 316.850006104
577026.375 4179489.75 316.929992676
577026.5 4179490.25 316.790008545
577026.5625 4179490.75 316.720001221
577026.625 4179491.25 316.760009766
577026.75 4179491.75 316.779998779
577026.8125 4179492.5 316.890014648
577026.875 4179493 316.880004883
577027 4179493.5 316.640014648
577027.0625 4179494 316.859985352
577027.125 4179494.5 316.720001221
577027.25 4179495.25 316.579986572
577027.3125 4179495.75 316.739990234
577027.375 4179496.25 316.709991455
577027.4375 4179496.75 316.690002441
577027.5625 4179497.25 316.510009766
577027.625 4179498 316.630004883
577027.6875 4179498.5 316.529998779
577027.75 4179499 316.640014648
577027.875 4179499.5 316.459991455
577027.9375 4179500.25 316.510009766
577028 4179500.75 316.410003662
577028.125 4179501.25 316.320007324
577028.1875 4179501.75 316.380004883
577028.25 4179502.25 316.570007324
577028.3125 4179503 316.529998779
577028.4375 4179503.5 316.489990234
577028.5 4179504 316.25
577028.5625 4179504.5 316.519989014
577028.6875 4179505 316.279998779
577028.75 4179505.75 316.350006104
577028.8125 4179506.25 316.220001221
577028.9375 4179506.75 316.369995117
577029 4179507.25 316.399993896
577029.0625 4179508 316.359985352
577029.1875 4179508.5 316.170013428
577029.25 4179509 316.269989014
577029.3125 4179509.5 316.559997559
577029.4375 4179510.25 316.109985352
577029.9375 4179510 316.350006104
577029.8125 4179509.5 316.559997559
577029.75 4179509 316.570007324
577029.6875 4179508.5 316.369995117
577029.625 4179507.75 316.369995117
577029.5625 4179507.25 316.299987793
577029.4375 4179506.75 316.420013428
577029.375 4179506.25 316.510009766
577029.25 4179505.75 316.700012207
577029.25 4179505 316.390014648
577029.1875 4179504.5 316.230010986
577029.0625 4179504 316.450012207
577029 4179503.5 316.290008545
577028.875 4179502.75 316.429992676
577028.8125 4179502.25 316.369995117
577028.75 4179501.75 316.329986572
577028.625 4179501.25 316.640014648
577028.5625 4179500.75 316.589996338
577028.5 4179500 316.489990234
577028.4375 4179499.5 316.399993896
577028.3125 4179499 316.640014648
577028.25 4179498.5 316.649993896
577028.1875 4179497.75 316.869995117
577028.125 4179497.25 316.649993896
577028 4179496.75 316.690002441
577027.9375 4179496.25 316.75
577027.875 4179495.75 316.709991455
577027.8125 4179495 316.579986572
577027.6875 4179494.5 316.850006104
577027.625 4179494 316.720001221
577027.5625 4179493.5 316.700012207
577027.4375 4179492.75 317.010009766
577027.375 4179492.25 317.010009766
577027.3125 4179491.75 316.850006104
577027.25 4179491.25 316.809997559
577027.1875 4179490.75 316.690002441
577027.0625 4179490 316.760009766
577027 4179489.5 317
577026.875 4179489 316.970001221
577026.8125 4179488.5 316.940002441
577026.75 4179488 316.820007324
577026.6875 4179487.25 316.790008545
577026.625 4179486.75 316.739990234
577026.5 4179486.25 316.790008545
577026.4375 4179485.75 316.730010986
577026.375 4179485 316.850006104
577026.3125 4179484.5 316.720001221
577026.1875 4179484 316.859985352
577026.125 4179483.5 316.799987793
577026.0625 4179483 316.890014648
577026 4179482.25 316.779998779
577025.875 4179481.75 316.829986572
577025.8125 4179481.25 316.739990234
577025.6875 4179480.75 317.119995117
577025.6875 4179480.25 316.829986572
577026.125 4179479 316.959991455
577026.1875 4179479.5 316.820007324
577026.25 4179480 316.790008545
577026.375 4179480.75 316.899993896
577026.4375 4179481.25 316.880004883
577026.5 4179481.75 316.839996338
577026.625 4179482.25 316.809997559
577026.625 4179482.75 317.25
577026.75 4179483.5 317.170013428
577026.8125 4179484 316.989990234
577026.9375 4179484.5 316.799987793
577027 4179485 316.720001221
577027.0625 4179485.5 316.700012207
577027.125 4179486.25 316.859985352
577027.25 4179486.75 316.820007324
577027.3125 4179487.25 316.910003662
577027.375 4179487.75 316.910003662
577027.4375 4179488.25 316.950012207
577027.5625 4179489 316.890014648
577027.625 4179489.5 316.579986572
577027.75 4179490 316.730010986
577027.8125 4179490.5 316.850006104
577027.875 4179491.25 316.690002441
577027.9375 4179491.75 316.700012207
577028 4179492.25 316.869995117
577028.125 4179492.75 316.760009766
577028.1875 4179493.25 316.880004883
577028.25 4179494 316.899993896
577028.375 4179494.5 316.570007324
577028.4375 4179495 316.640014648
577028.5 4179495.5 316.670013428
577028.5625 4179496.25 316.799987793
577028.6875 4179496.75 316.660003662
577028.75 4179497.25 316.700012207
577028.8125 4179497.75 316.970001221
577028.875 4179498.25 316.880004883
577029 4179499 316.410003662
577029.0625 4179499.5 316.779998779
577029.1875 4179500 316.5
577029.25 4179500.5 316.529998779
577029.3125 4179501 316.609985352
577029.375 4179501.75 316.660003662
577029.5 4179502.25 316.570007324
577029.5625 4179502.75 316.450012207
577029.625 4179503.25 316.690002441
577029.75 4179504 316.609985352
577029.8125 4179504.5 316.220001221
577029.875 4179505 316.309997559
577030 4179505.5 316.339996338
577030.0625 4179506 316.209991455
577030.125 4179506.75 316.410003662
577030.1875 4179507.25 316.440002441
577030.3125 4179507.75 316.260009766
577030.375 4179508.25 316.670013428
577030.4375 4179508.75 316.839996338
577030.5 4179509.5 316.799987793
577030.625 4179510 316.140014648
577031.125 4179509.75 316.450012207
577031 4179509 316.600006104
577030.9375 4179508.5 316.570007324
577030.875 4179508 316.489990234
577030.8125 4179507.5 316.309997559
577030.6875 4179506.75 316.420013428
577030.625 4179506.25 316.429992676
577030.5625 4179505.75 316.25
577030.5 4179505.25 316.329986572
577030.375 4179504.5 316.420013428
577030.3125 4179504 316.529998779
577030.25 4179503.5 316.470001221
577030.125 4179503 316.480010986
577030.0625 4179502.5 316.589996338
577030 4179501.75 316.720001221
577029.875 4179501.25 316.700012207
577029.8125 4179500.75 316.779998779
577029.75 4179500.25 316.619995117
577029.6875 4179499.5 316.739990234
577029.5625 4179499 317.029998779
577029.5 4179498.5 316.820007324
577029.4375 4179498 316.760009766
577029.375 4179497.5 316.720001221
577029.25 4179496.75 316.640014648
577029.1875 4179496.25 316.670013428
577029.0625 4179495.75 316.910003662
577029 4179495.25 316.730010986
577028.9375 4179494.75 316.75
577028.875 4179494 316.799987793
577028.75 4179493.5 317.239990234
577028.6875 4179493 317.25
577028.5625 4179492.5 317.279998779
577028.5 4179491.75 317.260009766
577028.4375 4179491.25 317.179992676
577028.375 4179490.75 316.75
577028.3125 4179490.25 316.779998779
577028.25 4179489.75 316.959991455
577028.1875 4179489 316.760009766
577028.0625 4179488.5 316.820007324
577028 4179488 317.079986572
577027.875 4179487.5 317.119995117
577027.8125 4179486.75 316.920013428
577027.75 4179486.25 316.75
577027.6875 4179485.75 316.769989014
577027.625 4179485.25 316.940002441
577027.5625 4179484.75 316.75
577027.4375 4179484 316.829986572
577027.375 4179483.5 316.940002441
577027.25 4179483 317.059997559
577027.1875 4179482.5 316.970001221
577027.125 4179481.75 316.970001221
577027.0625 4179481.25 317.079986572
577026.9375 4179480.75 317.079986572
577026.9375 4179480.25 316.790008545
577026.8125 4179479.75 316.869995117
577026.75 4179479 317.010009766
577026.6875 4179478.5 316.859985352
577027.25 4179478.25 316.920013428
577027.375 4179478.75 316.779998779
577027.4375 4179479.5 316.920013428
577027.5 4179480 316.839996338
577027.5625 4179480.5 316.760009766
577027.625 4179481 316.970001221
577027.75 4179481.75 316.850006104
577027.8125 4179482.25 316.839996338
577027.875 4179482.75 316.850006104
577027.9375 4179483.25 317.079986572
577028.0625 4179483.75 317.029998779
577028.125 4179484.5 316.880004883
577028.25 4179485 316.829986572
577028.3125 4179485.5 316.970001221
577028.375 4179486 317.040008545
577028.5 4179486.5 316.75
577028.5625 4179487.25 316.869995117
577028.625 4179487.75 317.059997559
577028.6875 4179488.25 317
577028.75 4179488.75 316.929992676
577028.875 4179489.25 316.929992676
577028.9375 4179490 316.829986572
577029 4179490.5 316.890014648
577029.0625 4179491 317
577029.1875 4179491.5 316.859985352
577029.25 4179492.25 316.769989014
577029.25 4179492.75 317.440002441
577029.375 4179493.25 317.079986572
577029.5 4179493.75 316.899993896
577029.5625 4179494.25 316.850006104
577029.625 4179495 317.019989014
577029.75 4179495.5 317
577029.8125 4179496 316.910003662
577029.875 4179496.5 316.859985352
577030 4179497 316.869995117
577030.0625 4179497.75 316.910003662
577030.125 4179498.25 316.839996338
577030.25 4179498.75 316.700012207
577030.3125 4179499.25 316.540008545
577030.375 4179500 316.690002441
577030.4375 4179500.5 316.779998779
577030.5625 4179501 316.609985352
577030.5625 4179501.5 317.140014648
577030.6875 4179502 316.899993896
577030.75 4179502.75 316.850006104
577030.875 4179503.25 316.510009766
577030.9375 4179503.75 317.019989014
577031.0625 4179504.25 316.339996338
577031.125 4179504.75 316.619995117
577031.1875 4179505.5 316.559997559
577031.25 4179506 316.589996338
577031.375 4179506.5 316.450012207
577031.4375 4179507 316.220001221
577031.5 4179507.75 316.459991455
577031.625 4179508.25 316.299987793
577031.6875 4179508.75 316.25
577031.75 4179509.25 316.260009766
577032.1875 4179508.25 316.489990234
577032.0625 4179507.75 316.410003662
577032 4179507.25 316.320007324
577031.875 4179506.5 316.820007324
577031.8125 4179506 316.630004883
577031.75 4179505.5 316.5
577031.6875 4179505 316.579986572
577031.5625 4179504.25 316.649993896
577031.5 4179503.75 316.519989014
577031.4375 4179503.25 316.459991455
577031.3125 4179502.75 316.799987793
577031.25 4179502 316.690002441
577031.1875 4179501.5 316.739990234
577031.125 4179501 316.529998779
577031.0625 4179500.5 316.670013428
577031 4179500 316.589996338
577030.875 4179499.25 316.980010986
577030.8125 4179498.75 316.820007324
577030.75 4179498.25 316.709991455
577030.625 4179497.75 316.760009766
577030.5625 4179497.25 316.850006104
577030.5 4179496.5 316.779998779
577030.375 4179496 316.859985352
577030.3125 4179495.5 317.049987793
577030.25 4179495 316.839996338
577030.125 4179494.25 316.940002441
577030.0625 4179493.75 316.989990234
577030 4179493.25 316.940002441
577029.9375 4179492.75 316.809997559
577029.8125 4179492.25 316.940002441
577029.75 4179491.5 317.010009766
577029.6875 4179491 316.880004883
577029.625 4179490.5 316.799987793
577029.5 4179490 316.760009766
577029.4375 4179489.25 316.820007324
577029.375 4179488.75 316.880004883
577029.25 4179488.25 317.220001221
577029.25 4179487.75 316.809997559
577029.125 4179487.25 317.130004883
577029.0625 4179486.5 316.950012207
577028.9375 4179486 317.040008545
577028.875 4179485.5 316.950012207
577028.8125 4179485 316.989990234
577028.75 4179484.5 316.940002441
577028.625 4179483.75 316.910003662
577028.5625 4179483.25 316.910003662
577028.5 4179482.75 316.809997559
577028.4375 4179482.25 316.970001221
577028.3125 4179481.75 316.899993896
577028.25 4179481 316.980010986
577028.1875 4179480.5 316.820007324
577028.125 4179480 316.809997559
577028 4179479.5 317.010009766
577027.9375 4179478.75 317.059997559
577027.875 4179478.25 317.160003662
577028.375 4179477.5 317.190002441
577028.5 4179478.25 317.149993896
577028.5625 4179478.75 317.059997559
577028.625 4179479.25 317.190002441
577028.6875 4179479.75 317.049987793
577028.8125 4179480.25 317.059997559
577028.875 4179481 317.179992676
577028.9375 4179481.5 317.190002441
577029 4179482 317.200012207
577029.125 4179482.5 317.059997559
577029.1875 4179483.25 317.109985352
577029.25 4179483.75 317.040008545
577029.375 4179484.25 317.049987793
577029.4375 4179484.75 317.239990234
577029.5 4179485.25 317.109985352
577029.5625 4179486 317.149993896
577029.6875 4179486.5 317.070007324
577029.75 4179487 317.089996338
577029.8125 4179487.5 316.989990234
577029.9375 4179488 316.950012207
577030 4179488.75 316.890014648
577030.0625 4179489.25 316.820007324
577030.1875 4179489.75 316.910003662
577030.25 4179490.25 316.910003662
577030.3125 4179491 316.880004883
577030.375 4179491.5 317
577030.5 4179492 316.760009766
577030.5625 4179492.5 316.739990234
577030.625 4179493 316.910003662
577030.6875 4179493.75 317.040008545
577030.8125 4179494.25 316.959991455
577030.875 4179494.75 316.959991455
577031 4179495.25 316.75
577031.0625 4179496 316.929992676
577031.125 4179496.5 316.709991455
577031.1875 4179497 316.820007324
577031.25 4179497.5 316.929992676
577031.375 4179498 316.850006104
577031.4375 4179498.75 316.760009766
577031.5 4179499.25 316.989990234
577031.625 4179499.75 316.839996338
577031.6875 4179500.25 316.920013428
577031.75 4179500.75 316.950012207
577031.875 4179501.5 316.679992676
577031.9375 4179502 316.630004883
577032 4179502.5 316.640014648
577032.125 4179503 316.700012207
577032.1875 4179503.75 316.630004883
577032.25 4179504.25 316.739990234
577032.3125 4179504.75 316.839996338
577032.4375 4179505.25 316.690002441
577032.5 4179505.75 316.579986572
577032.5625 4179506.5 316.600006104
577032.6875 4179507 316.519989014
577032.75 4179507.5 316.380004883
577032.8125 4179508 316.440002441
577033.375 4179507.75 316.579986572
577033.25 4179507.25 316.640014648
577033.1875 4179506.5 316.649993896
577033.125 4179506 316.640014648
577033 4179505.5 316.630004883
577032.9375 4179505 316.429992676
577032.875 4179504.25 316.510009766
577032.8125 4179503.75 316.470001221
577032.6875 4179503.25 316.630004883
577032.625 4179502.75 316.809997559
577032.5625 4179502.25 316.660003662
577032.5 4179501.5 316.609985352
577032.375 4179501 316.890014648
577032.3125 4179500.5 316.940002441
577032.1875 4179500 316.970001221
577032.125 4179499.5 316.970001221
577032.0625 4179498.75 316.769989014
577032 4179498.25 316.75
577031.9375 4179497.75 316.630004883
577031.8125 4179497.25 316.670013428
577031.75 4179496.5 316.75
577031.6875 4179496 316.649993896
577031.5625 4179495.5 316.929992676
577031.5 4179495 316.970001221
577031.4375 4179494.5 316.799987793
577031.375 4179493.75 316.790008545
577031.25 4179493.25 316.859985352
577031.1875 4179492.75 316.910003662
577031.125 4179492.25 316.970001221
577031 4179491.5 316.970001221
577030.9375 4179491 317.109985352
577030.875 4179490.5 317.100006104
577030.8125 4179490 316.950012207
577030.6875 4179489.5 316.959991455
577030.625 4179488.75 317.119995117
577030.5 4179488.25 317.25
577030.4375 4179487.75 317.130004883
577030.375 4179487.25 316.989990234
577030.3125 4179486.75 316.890014648
577030.25 4179486 316.820007324
577030.1875 4179485.5 316.859985352
577030.0625 4179485 316.829986572
577030 4179484.5 317.049987793
577029.9375 4179483.75 317.040008545
577029.8125 4179483.25 317.049987793
577029.75 4179482.75 316.790008545
577029.6875 4179482.25 317.029998779
577029.625 4179481.75 316.910003662
577029.5 4179481 317.040008545
577029.4375 4179480.5 317.149993896
577029.375 4179480 317.089996338
577029.25 4179479.5 317.049987793
577029.1875 4179479 316.910003662
577029.125 4179478.25 316.950012207
577029 4179477.75 317.179992676
577028.9375 4179477.25 317.320007324
577028.875 4179476.75 317.25
577029.4375 4179476.25 317.239990234
577029.5 4179477 317.290008545
577029.625 4179477.5 317.059997559
577029.6875 4179478 317.010009766
577029.8125 4179478.5 316.959991455
577029.8125 4179479.25 317.279998779
577029.9375 4179479.75 317.019989014
577030 4179480.25 317.089996338
577030.125 4179480.75 317.130004883
577030.1875 4179481.25 316.970001221
577030.25 4179482 316.940002441
577030.375 4179482.5 316.929992676
577030.4375 4179483 317.049987793
577030.5 4179483.5 316.989990234
577030.5625 4179484 316.920013428
577030.6875 4179484.75 316.940002441
577030.75 4179485.25 317.239990234
577030.8125 4179485.75 317.179992676
577030.9375 4179486.25 317.010009766
577031 4179486.75 317.019989014
577031.0625 4179487.5 316.989990234
577031.125 4179488 316.950012207
577031.25 4179488.5 316.950012207
577031.3125 4179489 316.859985352
577031.375 4179489.75 316.929992676
577031.5 4179490.25 316.899993896
577031.5625 4179490.75 316.950012207
577031.625 4179491.25 316.829986572
577031.75 4179491.75 316.869995117
577031.75 4179492.5 317.119995117
577031.875 4179493 316.779998779
577031.9375 4179493.5 317.019989014
577032 4179494 317.130004883
577032.125 4179494.5 316.980010986
577032.1875 4179495.25 317.029998779
577032.25 4179495.75 317.109985352
577032.375 4179496.25 316.859985352
577032.4375 4179496.75 316.880004883
577032.5 4179497.5 316.799987793
577032.625 4179498 316.880004883
577032.6875 4179498.5 316.779998779
577032.75 4179499 316.709991455
577032.875 4179499.5 316.799987793
577032.875 4179500.25 317.040008545
577033 4179500.75 316.959991455
577033.125 4179501.25 316.609985352
577033.1875 4179501.75 316.869995117
577033.25 4179502.5 316.709991455
577033.375 4179503 316.470001221
577033.4375 4179503.5 316.559997559
577033.5 4179504 316.910003662
577033.5625 4179504.5 316.570007324
577033.6875 4179505.25 316.510009766
577033.75 4179505.75 316.570007324
577033.8125 4179506.25 316.429992676
577033.875 4179506.75 316.649993896
577034.4375 4179506.75 316.519989014
577034.375 4179506 316.579986572
577034.25 4179505.5 316.739990234
577034.1875 4179505 316.579986572
577034.125 4179504.5 316.489990234
577034 4179503.75 316.709991455
577033.9375 4179503.25 316.779998779
577033.875 4179502.75 316.679992676
577033.8125 4179502.25 316.660003662
577033.75 4179501.5 316.649993896
577033.625 4179501 316.700012207
577033.5625 4179500.5 316.950012207
577033.4375 4179500 316.910003662
577033.375 4179499.5 316.950012207
577033.3125 4179498.75 316.799987793
577033.25 4179498.25 316.820007324
577033.1875 4179497.75 316.700012207
577033.0625 4179497.25 316.75
577033 4179496.75 316.769989014
577032.9375 4179496 316.940002441
577032.875 4179495.5 316.739990234
577032.75 4179495 316.850006104
577032.6875 4179494.5 316.859985352
577032.625 4179493.75 316.640014648
577032.5 4179493.25 317.179992676
577032.4375 4179492.75 316.950012207
577032.375 4179492.25 316.730010986
577032.25 4179491.75 316.899993896
577032.1875 4179491 317.059997559
577032.125 4179490.5 316.929992676
577032.0625 4179490 316.75
577032 4179489.5 316.799987793
577031.875 4179489 317.049987793
577031.8125 4179488.25 317.040008545
577031.75 4179487.75 316.959991455
577031.625 4179487.25 316.880004883
577031.5625 4179486.75 316.950012207
577031.5 4179486 317.040008545
577031.4375 4179485.5 316.910003662
577031.3125 4179485 316.760009766
577031.25 4179484.5 317.119995117
577031.1875 4179484 317.010009766
577031.125 4179483.25 316.829986572
577031 4179482.75 317.269989014
577030.875 4179482.25 317.420013428
577030.8125 4179481.75 317.369995117
577030.75 4179481.25 316.929992676
577030.6875 4179480.5 317.059997559
577030.625 4179480 316.940002441
577030.5 4179479.5 316.980010986
577030.4375 4179479 317.079986572
577030.375 4179478.25 316.989990234
577030.3125 4179477.75 317
577030.25 4179477.25 316.929992676
577030.125 4179476.75 317.070007324
577030 4179476.25 317.339996338
577029.9375 4179475.5 317.170013428
577030.5 4179475 317.079986572
577030.5625 4179475.75 317.230010986
577030.625 4179476.25 317.220001221
577030.75 4179476.75 317.089996338
577030.8125 4179477.25 317.100006104
577030.9375 4179477.75 316.940002441
577031 4179478.5 317.260009766
577031.0625 4179479 316.980010986
577031.125 4179479.5 317.130004883
577031.25 4179480 316.799987793
577031.3125 4179480.75 317
577031.375 4179481.25 316.940002441
577031.5 4179481.75 316.929992676
577031.5625 4179482.25 316.839996338
577031.625 4179482.75 316.959991455
577031.75 4179483.5 316.869995117
577031.75 4179484 317.350006104
577031.875 4179484.5 317.079986572
577032 4179485 316.720001221
577032.0625 4179485.5 316.929992676
577032.125 4179486.25 316.940002441
577032.1875 4179486.75 317.239990234
577032.25 4179487.25 316.950012207
577032.375 4179487.75 316.859985352
577032.4375 4179488.5 316.760009766
577032.5 4179489 316.799987793
577032.625 4179489.5 316.980010986
577032.6875 4179490 316.779998779
577032.75 4179490.5 316.869995117
577032.875 4179491.25 316.839996338
577032.9375 4179491.75 316.679992676
577033 4179492.25 316.75
577033.0625 4179492.75 316.940002441
577033.1875 4179493.25 316.709991455
577033.25 4179494 316.730010986
577033.3125 4179494.5 316.720001221
577033.375 4179495 317.140014648
577033.5 4179495.5 316.899993896
577033.5625 4179496.25 316.809997559
577033.625 4179496.75 317.029998779
577033.75 4179497.25 316.75
577033.8125 4179497.75 316.709991455
577033.875 4179498.25 316.709991455
577034 4179499 316.739990234
577034.0625 4179499.5 316.700012207
577034.125 4179500 316.779998779
577034.25 4179500.5 316.820007324
577034.3125 4179501 316.679992676
577034.375 4179501.75 316.809997559
577034.4375 4179502.25 316.75
577034.5625 4179502.75 316.769989014
577034.625 4179503.25 316.609985352
577034.75 4179504 316.410003662
577034.8125 4179504.5 316.579986572
577034.875 4179505 316.410003662
577034.9375 4179505.5 316.529998779
577035.0625 4179506 316.369995117
577035.125 4179506.75 316.510009766
577035.1875 4179507.25 316.5
577035.75 4179507.25 316.440002441
577035.6875 4179506.5 316.459991455
577035.625 4179506 316.510009766
577035.5 4179505.5 316.570007324
577035.4375 4179505 316.779998779
577035.3125 4179504.5 316.790008545
577035.25 4179503.75 316.619995117
577035.1875 4179503.25 316.730010986
577035.125 4179502.75 316.779998779
577035 4179502.25 317.040008545
577034.9375 4179501.75 316.640014648
577034.875 4179501 316.649993896
577034.8125 4179500.5 316.670013428
577034.6875 4179500 316.709991455
577034.625 4179499.5 316.75
577034.5625 4179498.75 316.790008545
577034.4375 4179498.25 316.890014648
577034.375 4179497.75 316.920013428
577034.3125 4179497.25 316.859985352
577034.25 4179496.75 316.869995117
577034.125 4179496 316.75
577034.0625 4179495.5 316.679992676
577034 4179495 316.760009766
577033.9375 4179494.5 316.769989014
577033.8125 4179493.75 316.760009766
577033.75 4179493.25 316.970001221
577033.6875 4179492.75 316.790008545
577033.5625 4179492.25 316.869995117
577033.5 4179491.75 316.869995117
577033.4375 4179491 316.709991455
577033.375 4179490.5 316.859985352
577033.25 4179490 316.910003662
577033.1875 4179489.5 316.880004883
577033.0625 4179489 317.299987793
577033 4179488.25 317.200012207
577032.9375 4179487.75 317.410003662
577032.8125 4179487.25 317.429992676
577032.75 4179486.75 317.429992676
577032.75 4179486 316.660003662
577032.625 4179485.5 317.010009766
577032.5625 4179485 317.109985352
577032.5 4179484.5 316.950012207
577032.375 4179484 317.089996338
577032.3125 4179483.25 317.109985352
577032.25 4179482.75 317.089996338
577032.125 4179482.25 317.089996338
577032.0625 4179481.75 317.170013428
577032 4179481.25 317.279998779
577031.9375 4179480.5 317.059997559
577031.8125 4179480 317.200012207
577031.75 4179479.5 317.179992676
577031.6875 4179479 317.100006104
577031.5625 4179478.25 317.130004883
577031.5 4179477.75 316.940002441
577031.4375 4179477.25 317.109985352
577031.375 4179476.75 317.109985352
577031.25 4179476.25 317.140014648
577031.1875 4179475.5 317.200012207
577031.125 4179475 317.029998779
577031 4179474.5 317.299987793
577031.625 4179474.5 317.190002441
577031.6875 4179475 317.350006104
577031.8125 4179475.5 317.040008545
577031.875 4179476 317.040008545
577031.9375 4179476.5 317.149993896
577032 4179477.25 317.079986572
577032.125 4179477.75 317.100006104
577032.1875 4179478.25 317.220001221
577032.25 4179478.75 317.029998779
577032.375 4179479.25 316.929992676
577032.4375 4179480 316.869995117
577032.5 4179480.5 316.959991455
577032.625 4179481 316.970001221
577032.6875 4179481.5 316.920013428
577032.75 4179482 316.850006104
577032.8125 4179482.75 317.179992676
577032.9375 4179483.25 316.890014648
577033 4179483.75 316.880004883
577033.0625 4179484.25 316.859985352
577033.1875 4179485 317.029998779
577033.25 4179485.5 316.820007324
577033.3125 4179486 316.850006104
577033.4375 4179486.5 316.839996338
577033.5 4179487 316.769989014
577033.5625 4179487.75 316.980010986
577033.625 4179488.25 317.019989014
577033.75 4179488.75 316.850006104
577033.8125 4179489.25 316.940002441
577033.875 4179489.75 317
577034 4179490.5 316.970001221
577034.0625 4179491 316.920013428
577034.125 4179491.5 316.929992676
577034.25 4179492 316.820007324
577034.25 4179492.75 317.109985352
577034.375 4179493.25 317.010009766
577034.4375 4179493.75 317.070007324
577034.5 4179494.25 317
577034.625 4179494.75 317.049987793
577034.6875 4179495.5 316.820007324
577034.8125 4179496 316.739990234
577034.875 4179496.5 316.799987793
577034.9375 4179497 316.809997559
577035 4179497.5 316.799987793
577035.125 4179498.25 316.790008545
577035.1875 4179498.75 316.739990234
577035.25 4179499.25 316.890014648
577035.375 4179499.75 316.820007324
577035.4375 4179500.5 316.720001221
577035.5 4179501 316.660003662
577035.625 4179501.5 316.709991455
577035.6875 4179502 316.790008545
577035.75 4179502.5 316.910003662
577035.8125 4179503.25 316.959991455
577035.875 4179503.75 316.959991455
577036 4179504.25 316.850006104
577036.0625 4179504.75 316.839996338
577036.1875 4179505.25 316.730010986
577036.25 4179506 316.570007324
577036.375 4179506.5 316.359985352
577036.4375 4179507 316.450012207
577036.5 4179507.5 316.649993896
577037 4179507.25 316.570007324
577036.875 4179506.5 316.640014648
577036.8125 4179506 316.850006104
577036.75 4179505.5 316.600006104
577036.6875 4179505 316.630004883
577036.5625 4179504.5 316.570007324
577036.5 4179503.75 316.600006104
577036.4375 4179503.25 316.640014648
577036.3125 4179502.75 317
577036.25 4179502.25 316.619995117
577036.1875 4179501.5 316.850006104
577036.125 4179501 316.510009766
577036 4179500.5 316.899993896
577035.9375 4179500 316.720001221
577035.875 4179499.5 316.700012207
577035.75 4179498.75 316.809997559
577035.6875 4179498.25 316.720001221
577035.625 4179497.75 316.720001221
577035.5625 4179497.25 316.589996338
577035.5 4179496.5 316.480010986
577035.375 4179496 316.760009766
577035.3125 4179495.5 316.829986572
577035.1875 4179495 316.820007324
577035.125 4179494.5 316.839996338
577035.0625 4179493.75 316.850006104
577035 4179493.25 316.700012207
577034.875 4179492.75 316.709991455
577034.8125 4179492.25 316.989990234
577034.75 4179491.75 316.850006104
577034.6875 4179491 316.809997559
577034.5625 4179490.5 317.109985352
577034.5 4179490 317.059997559
577034.375 4179489.5 317.089996338
577034.3125 4179488.75 316.899993896
577034.25 4179488.25 316.910003662
577034.1875 4179487.75 316.839996338
577034.0625 4179487.25 317.089996338
577034 4179486.75 317
577033.9375 4179486 316.769989014
577033.875 4179485.5 316.739990234
577033.75 4179485 316.850006104
577033.6875 4179484.5 317.049987793
577033.625 4179484 316.959991455
577033.5 4179483.25 317.070007324
577033.4375 4179482.75 317.260009766
577033.375 4179482.25 317.179992676
577033.3125 4179481.75 316.970001221
577033.1875 4179481.25 316.950012207
577033.125 4179480.5 316.929992676
577033.0625 4179480 316.950012207
577032.9375 4179479.5 317.170013428
577032.875 4179479 317.160003662
577032.8125 4179478.25 317.179992676
577032.75 4179477.75 317.089996338
577032.625 4179477.25 317.160003662
577032.5625 4179476.75 317.190002441
577032.5 4179476.25 317.209991455
577032.4375 4179475.5 317.019989014
577032.3125 4179475 317.130004883
577032.25 4179474.5 317.059997559
577032.1875 4179474 317.190002441
577032.8125 4179474.25 317.200012207
577032.9375 4179474.75 317.140014648
577033 4179475.5 317.269989014
577033.0625 4179476 317.149993896
577033.1875 4179476.5 317
577033.1875 4179477 317.429992676
577033.3125 4179477.5 317.390014648
577033.375 4179478.25 317.549987793
577033.4375 4179478.75 317.549987793
577033.5 4179479.25 317.519989014
577033.625 4179479.75 317.399993896
577033.75 4179480.25 317.049987793
577033.8125 4179481 317.049987793
577033.875 4179481.5 317.200012207
577034 4179482 316.959991455
577034.0625 4179482.5 316.829986572
577034.125 4179483.25 317.040008545
577034.25 4179483.75 316.940002441
577034.3125 4179484.25 316.760009766
577034.375 4179484.75 317.019989014
577034.4375 4179485.25 317.029998779
577034.5625 4179486 316.850006104
577034.625 4179486.5 316.880004883
577034.6875 4179487 316.799987793
577034.8125 4179487.5 316.829986572
577034.875 4179488 316.730010986
577034.9375 4179488.75 316.809997559
577035 4179489.25 316.829986572
577035.125 4179489.75 316.640014648
577035.1875 4179490.25 316.739990234
577035.25 4179490.75 317.160003662
577035.3125 4179491.5 317.160003662
577035.375 4179492 317.25
577035.5 4179492.5 316.75
577035.625 4179493 316.739990234
577035.6875 4179493.5 316.850006104
577035.75 4179494.25 317.059997559
577035.875 4179494.75 316.670013428
577035.9375 4179495.25 316.790008545
577036 4179495.75 316.660003662
577036.0625 4179496.5 317.010009766
577036.1875 4179497 316.679992676
577036.25 4179497.5 316.809997559
577036.3125 4179498 316.829986572
577036.375 4179498.5 317
577036.5 4179499.25 316.940002441
577036.5625 4179499.75 316.890014648
577036.625 4179500.25 316.880004883
577036.75 4179500.75 316.850006104
577036.8125 4179501.25 316.940002441
577036.875 4179502 316.820007324
577036.9375 4179502.5 316.850006104
577037.0625 4179503 316.839996338
577037.125 4179503.5 316.679992676
577037.1875 4179504.25 316.700012207
577037.3125 4179504.75 316.670013428
577037.375 4179505.25 316.790008545
577037.4375 4179505.75 316.720001221
577037.5 4179506.25 316.899993896
577037.625 4179507 316.720001221
577037.6875 4179507.5 316.709991455
577038.25 4179507.75 316.739990234
577038.1875 4179507.25 316.790008545
577038.0625 4179506.75 316.839996338
577038.0625 4179506 316.510009766
577037.9375 4179505.5 316.649993896
577037.875 4179505 316.660003662
577037.8125 4179504.5 316.589996338
577037.6875 4179504 316.739990234
577037.625 4179503.25 316.739990234
577037.5 4179502.75 317.029998779
577037.4375 4179502.25 316.899993896
577037.375 4179501.75 317.010009766
577037.25 4179501 316.970001221
577037.1875 4179500.5 316.950012207
577037.125 4179500 316.869995117
577037.0625 4179499.5 316.779998779
577037 4179499 316.660003662
577036.9375 4179498.25 316.670013428
577036.8125 4179497.75 316.649993896
577036.75 4179497.25 316.700012207
577036.625 4179496.75 317.130004883
577036.5625 4179496 317.029998779
577036.5 4179495.5 316.630004883
577036.4375 4179495 316.880004883
577036.3125 4179494.5 316.929992676
577036.25 4179494 316.929992676
577036.1875 4179493.25 316.890014648
577036.125 4179492.75 316.799987793
577036 4179492.25 316.869995117
577035.6875 4179490 316.959991455
577035.625 4179489.5 317.049987793
577035.5 4179489 317.040008545
577035.4375 4179488.5 317.019989014
577035.375 4179487.75 316.950012207
577035.25 4179487.25 317.059997559
577035.1875 4179486.75 317.070007324
577035.125 4179486.25 316.880004883
577035.0625 4179485.5 316.75
577035 4179485 317
577034.875 4179484.5 317.179992676
577034.8125 4179484 316.779998779
577034.75 4179483.5 316.940002441
577034.6875 4179482.75 316.920013428
577034.5625 4179482.25 317.119995117
577034.5 4179481.75 316.869995117
577034.375 4179481.25 317.109985352
577034.3125 4179480.75 317.029998779
577034.25 4179480 316.940002441
577034.1875 4179479.5 316.899993896
577034.125 4179479 316.980010986
577034 4179478.5 317.350006104
577033.9375 4179477.75 317.109985352
577033.8125 4179477.25 317.290008545
577033.75 4179476.75 317.070007324
577033.6875 4179476.25 317.190002441
577033.625 4179475.75 317.119995117
577033.5 4179475 317.230010986
577033.4375 4179474.5 317.140014648
577033.375 4179474 317.149993896
577033.9375 4179474 317.579986572
577034 4179474.5 317.179992676
577034.125 4179475 317.350006104
577034.1875 4179475.5 317.440002441
577034.25 4179476 317.040008545
577034.3125 4179476.75 317.380004883
577034.4375 4179477.25 317.119995117
577034.5 4179477.75 317.170013428
577034.625 4179478.25 317.040008545
577034.6875 4179478.75 317.119995117
577034.75 4179479.5 317.010009766
577034.875 4179480 316.929992676
577034.9375 4179480.5 316.839996338
577035 4179481 316.850006104
577035.125 4179481.75 316.890014648
577035.1875 4179482.25 316.950012207
577035.25 4179482.75 317.029998779
577035.3125 4179483.25 316.989990234
577035.4375 4179483.75 316.989990234
577035.5 4179484.5 317.079986572
577035.5625 4179485 317.070007324
577035.6875 4179485.5 316.920013428
577035.75 4179486 316.899993896
577035.8125 4179486.5 316.880004883
577035.9375 4179487.25 316.790008545
577036 4179487.75 317.179992676
577036.0625 4179488.25 316.950012207
577036.125 4179488.75 317.130004883
577036.25 4179489.5 316.950012207
577036.3125 4179490 316.920013428
577036.375 4179490.5 316.899993896
577036.625 4179492.25 316.890014648
577036.75 4179492.75 316.880004883
577036.8125 4179493.25 316.839996338
577036.875 4179493.75 316.779998779
577037 4179494.25 316.660003662
577037 4179495 317.380004883
577037.0625 4179495.5 317.429992676
577037.25 4179496 316.760009766
577037.25 4179496.5 317.660003662
577037.3125 4179497 317.390014648
577037.4375 4179497.75 316.929992676
577037.5625 4179498.25 316.809997559
577037.625 4179498.75 316.739990234
577037.6875 4179499.25 316.649993896
577037.8125 4179500 316.609985352
577037.875 4179500.5 316.679992676
577037.9375 4179501 317.029998779
577038 4179501.5 317.010009766
577038.125 4179502 316.589996338
577038.1875 4179502.75 316.75
577038.25 4179503.25 316.709991455
577038.3125 4179503.75 316.940002441
577038.4375 4179504.25 316.910003662
577038.5 4179505 316.790008545
577038.5625 4179505.5 316.890014648
577038.6875 4179506 316.809997559
577038.75 4179506.5 316.549987793
577038.875 4179507 316.540008545
577038.9375 4179507.75 316.589996338
577039.5 4179508 316.739990234
577039.4375 4179507.5 316.619995117
577039.3125 4179507 316.739990234
577039.25 4179506.25 316.640014648
577039.1875 4179505.75 316.760009766
577039.0625 4179505.25 316.839996338
577039 4179504.75 316.630004883
577038.9375 4179504.25 316.790008545
577038.8125 4179503.5 316.940002441
577038.75 4179503 316.730010986
577038.6875 4179502.5 316.570007324
577038.625 4179502 316.760009766
577038.5625 4179501.25 316.75
577038.5 4179500.75 316.619995117
577038.375 4179500.25 316.910003662
577038.3125 4179499.75 316.589996338
577038.1875 4179499.25 316.799987793
577038.125 4179498.5 316.779998779
577038.0625 4179498 316.769989014
577037.9375 4179497.5 317.100006104
577037.8125 4179497 317.709991455
577037.6875 4179495.75 317.149993896
577037.625 4179495.25 316.799987793
577037.5625 4179494.75 316.640014648
577037.4375 4179493.5 316.760009766
577037.3125 4179493 316.950012207
577037.25 4179492.5 316.769989014
577037.1875 4179492 316.730010986
577037 4179490.75 317
577036.9375 4179490.25 317.109985352
577036.8125 4179489.75 317.160003662
577036.75 4179489.25 316.940002441
577036.6875 4179488.5 317.089996338
577036.625 4179488 316.980010986
577036.5625 4179487.5 316.799987793
577036.4375 4179487 317.119995117
577036.375 4179486.5 316.700012207
577036.3125 4179485.75 316.920013428
577036.1875 4179485.25 316.859985352
577036.125 4179484.75 316.820007324
577036.0625 4179484.25 316.760009766
577036 4179483.75 316.829986572
577035.875 4179483 316.910003662
577035.8125 4179482.5 316.929992676
577035.6875 4179482 317.309997559
577035.625 4179481.5 316.899993896
577035.5625 4179480.75 316.989990234
577035.5 4179480.25 316.940002441
577035.4375 4179479.75 316.970001221
577035.3125 4179479.25 317.220001221
577035.25 4179478.75 316.970001221
577035.125 4179478 317.149993896
577035.0625 4179477.5 316.989990234
577035 4179477 317.119995117
577034.9375 4179476.5 317.059997559
577034.8125 4179476 317.200012207
577034.75 4179475.25 317.149993896
577034.6875 4179474.75 317.160003662
577034.5625 4179474.25 317.160003662
577035.125 4179474 317.290008545
577035.25 4179474.5 317.369995117
577035.3125 4179475.25 317.399993896
577035.375 4179475.75 317.170013428
577035.5 4179476.25 317.140014648
577035.5625 4179476.75 316.920013428
577035.6875 4179477.25 316.920013428
577035.75 4179478 317.019989014
577035.8125 4179478.5 317.179992676
577035.875 4179479 316.980010986
577036 4179479.5 317.089996338
577036.0625 4179480 316.950012207
577036.125 4179480.75 316.970001221
577036.25 4179481.25 316.839996338
577036.3125 4179481.75 316.989990234
577036.375 4179482.25 316.869995117
577036.5 4179482.75 316.970001221
577036.5625 4179483.5 316.869995117
577036.625 4179484 316.940002441
577036.75 4179484.5 316.839996338
577036.8125 4179485 316.869995117
577036.875 4179485.75 317.010009766
577036.9375 4179486.25 317.220001221
577037.0625 4179486.75 316.809997559
577037.125 4179487.25 316.970001221
577037.1875 4179487.75 316.980010986
577037.25 4179488.5 316.980010986
577038.4375 4179496.25 316.839996338
577038.5625 4179497.25 317.140014648
577038.6875 4179497.75 316.920013428
577038.75 4179498.25 316.630004883
577038.875 4179499 316.570007324
577038.9375 4179499.5 316.730010986
577039 4179500 316.720001221
577039.0625 4179500.5 316.880004883
577039.1875 4179501 316.769989014
577039.25 4179501.75 317.029998779
577039.25 4179502.25 317.260009766
577039.375 4179502.75 316.929992676
577039.5 4179503.25 316.760009766
577039.5625 4179504 316.910003662
577039.6875 4179504.5 316.660003662
577039.75 4179505 316.570007324
577039.8125 4179505.5 316.630004883
577039.875 4179506 316.75
577039.9375 4179506.75 316.950012207
577040.0625 4179507.25 316.579986572
577040.125 4179507.75 316.720001221
577040.25 4179508.25 316.589996338
577040.75 4179508 316.880004883
577040.625 4179507.5 316.880004883
577040.5625 4179507 316.709991455
577040.5 4179506.5 316.850006104
577040.4375 4179506 316.820007324
577040.3125 4179505.25 316.790008545
577040.25 4179504.75 316.929992676
577040.1875 4179504.25 316.880004883
577040.0625 4179503.75 316.890014648
577040 4179503 316.820007324
577039.9375 4179502.5 316.720001221
577039.875 4179502 316.690002441
577039.8125 4179501.5 316.529998779
577039.6875 4179501 316.640014648
577039.625 4179500.25 316.760009766
577039.5 4179499.75 316.950012207
577039.4375 4179499.25 316.920013428
577039.375 4179498.75 316.760009766
577039.3125 4179498.25 316.739990234
577039.1875 4179497.5 316.720001221
577039.125 4179497 316.880004883
577037.75 4179487.5 316.829986572
577037.6875 4179487 316.859985352
577037.5 4179486.5 317.679992676
577037.5 4179486 317.489990234
577037.4375 4179485.5 317.160003662
577037.375 4179484.75 316.589996338
577037.25 4179484.25 316.899993896
577037.1875 4179483.75 316.820007324
577037.125 4179483.25 316.920013428
577037 4179482.75 316.929992676
577036.9375 4179482 316.820007324
577036.875 4179481.5 316.75
577036.8125 4179481 316.970001221
577036.6875 4179480.5 317.079986572
577036.625 4179479.75 317.029998779
577036.5625 4179479.25 317.059997559
577036.4375 4179478.75 317.059997559
577036.375 4179478.25 317.029998779
577036.3125 4179477.75 317.100006104
577036.1875 4179477 317.209991455
577036.125 4179476.5 317.230010986
577036.0625 4179476 317.239990234
577036 4179475.5 317.230010986
577035.875 4179475 317.25
577035.8125 4179474.25 317.200012207
577036.3125 4179474 317.320007324
577036.4375 4179474.5 317.149993896
577036.5 4179475 317.209991455
577036.625 4179475.5 317.019989014
577036.6875 4179476.25 316.950012207
577036.75 4179476.75 317.230010986
577036.8125 4179477.25 317.290008545
577036.9375 4179477.75 317.230010986
577037 4179478.25 317.220001221
577037.125 4179479 317.019989014
577037.1875 4179479.5 317.269989014
577037.25 4179480 317.149993896
577037.3125 4179480.5 317.209991455
577037.4375 4179481.25 317.160003662
577037.5 4179481.75 316.869995117
577037.625 4179482.25 316.880004883
577037.6875 4179482.75 316.950012207
577037.75 4179483.25 316.940002441
577037.8125 4179484 317.029998779
577037.875 4179484.5 317.140014648
577038 4179485 317.070007324
577038.0625 4179485.5 317.119995117
577038.25 4179486.75 317.029998779
577038.3125 4179487.25 317.149993896
577039.9375 4179498.25 316.829986572
577040.0625 4179498.75 316.739990234
577040.125 4179499.5 316.760009766
577040.1875 4179500 316.829986572
577040.3125 4179500.5 316.809997559
577040.375 4179501 316.529998779
577040.4375 4179501.5 316.809997559
577040.5625 4179502.25 316.720001221
577040.625 4179502.75 316.630004883
577040.6875 4179503.25 316.760009766
577040.8125 4179503.75 316.579986572
577040.875 4179504.25 316.670013428
577040.9375 4179505 316.559997559
577041.0625 4179505.5 316.559997559
577041.1875 4179506.5 316.820007324
577041.25 4179507.25 316.589996338
577041.5625 4179505.5 316.559997559
577041.5 4179504.75 316.700012207
577041.375 4179504.25 316.859985352
577041.3125 4179503.75 316.670013428
577041.25 4179503.25 316.649993896
577041.1875 4179502.75 316.700012207
577041.0625 4179502 316.760009766
577041 4179501.5 316.690002441
577040.9375 4179501 316.769989014
577040.875 4179500.5 316.670013428
577040.75 4179499.75 316.809997559
577040.6875 4179499.25 316.799987793
577040.5625 4179498.75 316.929992676
577038.625 4179485.5 317.25
577038.5625 4179485 316.980010986
577038.5 4179484.25 316.869995117
577038.4375 4179483.75 316.959991455
577038.375 4179483.25 316.779998779
577038.25 4179482.75 316.980010986
577038.1875 4179482.25 317.25
577038.0625 4179481.5 317.130004883
577038 4179481 316.880004883
577037.9375 4179480.5 317.079986572
577037.875 4179480 317.059997559
577037.75 4179479.5 317.230010986
577037.6875 4179478.75 317.25
577037.625 4179478.25 316.920013428
577037.5 4179477.75 317.040008545
577037.4375 4179477.25 317.089996338
577037.375 4179476.5 317.140014648
577037.25 4179476 317.329986572
577037.1875 4179475.5 317.079986572
577037.125 4179475 317.190002441
577037.0625 4179474.5 317.059997559
577037.625 4179474.5 317.350006104
577037.75 4179475 317.140014648
577037.8125 4179475.5 317.100006104
577037.875 4179476 317.179992676
577038 4179476.5 317.200012207
577038.0625 4179477.25 317.029998779
577038.125 4179477.75 317.130004883
577038.25 4179478.25 316.959991455
577038.3125 4179478.75 317.179992676
577038.375 4179479.5 317.290008545
577038.4375 4179480 317.239990234
577038.5 4179480.5 317.299987793
577038.625 4179481 317.320007324
577038.6875 4179481.5 317.260009766
577038.8125 4179482.25 316.940002441
577038.875 4179482.75 317.109985352
577038.9375 4179483.25 317.040008545
577039.0625 4179483.75 316.890014648
577039.125 4179484.25 316.920013428
577039.1875 4179485 316.989990234
577041.375 4179499.25 316.730010986
577041.4375 4179499.75 317.019989014
577041.4375 4179500.5 317.350006104
577041.625 4179501 316.570007324
577041.6875 4179501.5 316.670013428
577041.75 4179502 316.540008545
577041.875 4179502.75 316.579986572
577041.9375 4179503.25 316.570007324
577042 4179503.75 316.739990234
577042.0625 4179504.25 316.869995117
577042.5625 4179503.75 316.589996338
577042.4375 4179503 316.730010986
577042.375 4179502.5 316.839996338
577042.3125 4179502 316.769989014
577042.1875 4179501.5 316.829986572
577042.125 4179500.75 316.760009766
577042 4179500.25 317.649993896
577039.75 4179484.75 317.179992676
577039.6875 4179484.25 316.929992676
577039.625 4179483.75 317.170013428
577039.5 4179483.25 317.059997559
577039.4375 4179482.5 316.970001221
577039.375 4179482 316.940002441
577039.3125 4179481.5 316.869995117
577039.25 4179481 316.950012207
577039.125 4179480.5 316.929992676
577039.0625 4179479.75 316.970001221
577039 4179479.25 316.980010986
577038.875 4179478.75 317
577038.8125 4179478.25 317.070007324
577038.75 4179477.75 317.200012207
577038.625 4179477 317.049987793
577038.5625 4179476.5 317.109985352
577038.5 4179476 317.209991455
577038.375 4179475.5 317.200012207
577038.3125 4179475 317.220001221
577038.25 4179474.25 317.119995117
577038.8125 4179474.25 317.170013428
577038.9375 4179474.75 317.119995117
577039 4179475.25 317.299987793
577039.0625 4179475.75 317.25
577039.1875 4179476.25 317.179992676
577039.25 4179477 317.190002441
577039.3125 4179477.5 317.079986572
577039.4375 4179478 317.100006104
577039.5 4179478.5 317.200012207
577039.625 4179479.25 316.839996338
577039.6875 4179479.75 317.059997559
577039.75 4179480.25 316.75
577039.8125 4179480.75 317.029998779
577039.9375 4179481.25 316.929992676
577040 4179482 317.010009766
577040.0625 4179482.5 317.119995117
577040.125 4179483 317.119995117
577040.25 4179483.5 317.070007324
577040.3125 4179484 317.079986572
577042.75 4179500.75 316.850006104
577042.875 4179501.25 316.700012207
577043 4179501.75 316.559997559
577043.0625 4179502.25 316.600006104
577043.5625 4179502.25 316.829986572
577043.5 4179501.5 316.769989014
577043.4375 4179501 316.559997559
577043.3125 4179500.5 316.529998779
577040.875 4179483.75 317.239990234
577040.75 4179483.25 317.239990234
577040.6875 4179482.75 317.149993896
577040.625 4179482.25 317.089996338
577040.5625 4179481.75 317.130004883
577040.4375 4179481 317.130004883
577040.375 4179480.5 317.040008545
577040.3125 4179480 316.899993896
577040.25 4179479.5 316.829986572
577040.125 4179478.75 317.010009766
577040.0625 4179478.25 316.970001221
577040 4179477.75 316.959991455
577039.875 4179477.25 317.019989014
577039.8125 4179476.75 317.100006104
577039.75 4179476 317.109985352
577039.625 4179475.5 317.109985352
577039.5625 4179475 317.209991455
577039.5 4179474.5 317.170013428
577039.375 4179474 317.179992676
577040 4179474 317.329986572
577040.125 4179474.5 317.029998779
577040.1875 4179475.25 317.170013428
577040.3125 4179475.75 317.170013428
577040.375 4179476.25 317.089996338
577040.5 4179476.75 317
577040.5625 4179477.25 317.149993896
577040.625 4179478 316.989990234
577040.6875 4179478.5 317.149993896
577040.75 4179479 317.220001221
577040.875 4179479.5 317.049987793
577041 4179480 316.910003662
577041.0625 4179480.75 317.040008545
577041.125 4179481.25 316.950012207
577041.25 4179481.75 316.929992676
577041.3125 4179482.25 316.920013428
577041.375 4179483 316.989990234
