# .PCD v.7 - Point Cloud Data file format
VERSION .7
FIELDS x y z
SIZE 4 4 4
TYPE F F F
COUNT 1 1 1
WIDTH 55
HEIGHT 1
VIEWPOINT 0 0 0 1 0 0 0
POINTS 55
DATA ascii
577041.9375 4179490.25 353.649993896
577042 4179490.75 353.760009766
577042.0625 4179491.25 353.649993896
577042.1875 4179492 353.579986572
577042.3125 4179493 353.489990234
577042.875 4179492.75 353.640014648
577042.8125 4179492.25 353.790008545
577042.75 4179491.75 353.660003662
577042.625 4179491.25 353.739990234
577042.5625 4179490.75 353.589996338
577043.1875 4179490 353.829986572
577043.25 4179490.5 354.049987793
577043.3125 4179491 353.890014648
577043.375 4179491.5 354.059997559
577043.5 4179492 353.980010986
577043.5625 4179492.75 354
577043.6875 4179493.25 353.600006104
577043.75 4179493.75 353.920013428
577044.4375 4179494.25 353.630004883
577044.375 4179493.75 353.679992676
577044.25 4179493.25 353.959991455
577044.125 4179492.5 354.260009766
577044.0625 4179492 354.279998779
577044 4179491.5 354.230010986
577043.9375 4179491 354.260009766
577043.875 4179490.5 353.929992676
577043.8125 4179490 353.829986572
577043.75 4179489.5 353.589996338
577044.5 4179489.75 353.839996338
577044.5625 4179490.25 354.029998779
577044.625 4179490.75 354.390014648
577044.625 4179491.5 354.700012207
577044.75 4179492 354.470001221
577044.8125 4179492.5 354.369995117
577044.9375 4179493 354.100006104
577045.0625 4179493.5 353.769989014
577045.5625 4179493 354.019989014
577045.5 4179492.5 354.079986572
577045.4375 4179492 354.170013428
577045.3125 4179491.5 354.690002441
577045.25 4179491 354.649993896
577045.1875 4179490.5 354.230010986
577045.125 4179490 354.149993896
577045.0625 4179489.5 353.679992676
577045.875 4179490 354.029998779
577045.9375 4179490.75 354.239990234
577046 4179491.25 354.320007324
577046.0625 4179491.75 354.239990234
577046.1875 4179492.25 353.950012207
577046.25 4179492.75 353.989990234
577046.75 4179492 354.100006104
577046.6875 4179491.5 354.119995117
577046.625 4179491 353.989990234
577046.5 4179489.75 353.779998779
577046.375 4179489.25 353.799987793
