# .PCD v.7 - Point Cloud Data file format
VERSION .7
FIELDS x y z
SIZE 4 4 4
TYPE F F F
COUNT 1 1 1
WIDTH 218
HEIGHT 1
VIEWPOINT 0 0 0 1 0 0 0
POINTS 218
DATA ascii
577032.6875 4179508 324.880004883
577033.4375 4179507.75 323.549987793
577033.375 4179508.25 325.239990234
577033.8125 4179510.5 323.970001221
577034.25 4179510.25 325.220001221
577034.1875 4179509.75 324.989990234
577034.0625 4179509.25 325.070007324
577034 4179508.5 325.359985352
577034.0625 4179508 323.619995117
577034 4179507.5 323.380004883
577034.625 4179508 324.690002441
577034.625 4179508.5 325.549987793
577034.75 4179509.25 325.359985352
577034.8125 4179509.75 325.269989014
577034.8125 4179510.25 326.079986572
577035.25 4179509 325.619995117
577035.1875 4179508.5 325.559997559
577035.125 4179508 325.200012207
577035.75 4179507.75 325.549987793
577035.875 4179508.5 325.670013428
577036 4179509.5 325.899993896
577036.125 4179510 325.410003662
577036.625 4179510.25 326.070007324
577036.625 4179509.75 325.25
577036.5625 4179509 325.25
577037.25 4179508.25 323.380004883
577037.3125 4179509 323.510009766
577037.25 4179509.5 325.720001221
577037.875 4179509.25 323.619995117
577037.8125 4179508.75 323.739990234
577038.375 4179508 323.799987793
577038.5 4179508.5 323.510009766
577038.5625 4179509 323.239990234
577038.625 4179510.75 325.570007324
577039.125 4179509.5 323.529998779
577039.0625 4179509 323.220001221
577039 4179508.25 323.320007324
577037.5625 4179495.5 325.679992676
577040.375 4179510.5 325.540008545
577040.25 4179510 325.679992676
577039.25 4179497.5 323.839996338
577041.5 4179509 324.029998779
577040.625 4179498.5 323.959991455
577041.75 4179506.25 324.309997559
577041.8125 4179507.25 325.029998779
577042 4179508 323.910003662
577042.0625 4179508.5 324.600006104
577042.125 4179509 324.350006104
577042.3125 4179509.5 323.390014648
577043 4179510.75 323.359985352
577042.625 4179509 325.059997559
577042.5625 4179508.5 324.540008545
577042.5 4179508 324.200012207
577042.3125 4179507.25 325.679992676
577042.25 4179506.75 325.230010986
577042.25 4179506.25 324.600006104
577042 4179499.5 324.390014648
577042.125 4179500 323.179992676
577042.5625 4179503.75 325.029998779
577042.625 4179504.25 325.549987793
577042.75 4179505 324.850006104
577043 4179506.5 324.470001221
577043.0625 4179507 324.989990234
577043.125 4179507.75 325.339996338
577043.1875 4179508.25 325.040008545
577043.1875 4179508.75 325.910003662
577043.3125 4179509.25 325.820007324
577043.5 4179510 324.549987793
577043.5 4179510.5 325.260009766
577044 4179510.25 325.700012207
577043.9375 4179509.5 325.510009766
577043.6875 4179508 325.429992676
577043.625 4179507.5 325.040008545
577043.5625 4179507 325.239990234
577043.625 4179506.5 323.239990234
577043.625 4179505.75 322.829986572
577043.3125 4179505.25 324.850006104
577043.25 4179504.75 324.709991455
577043.1875 4179504.25 324.619995117
577043.1875 4179503.5 324
577043.125 4179503 323.869995117
577044 4179503.75 322.970001221
577043.9375 4179504.25 324.549987793
577044 4179504.75 324.480010986
577044.25 4179505.5 322.920013428
577044.25 4179506 323.450012207
577044.3125 4179507.5 325.429992676
577044.9375 4179510.25 323.220001221
577044.9375 4179507.75 325.190002441
577044.875 4179507.25 324.739990234
577044.6875 4179506.5 325.730010986
577044.75 4179505.5 323.070007324
577044.6875 4179505 323.059997559
577044.625 4179504.5 323.320007324
577044.3125 4179502.75 323.820007324
577045 4179503 324.140014648
577045 4179503.5 325.149993896
577045.125 4179504 324.570007324
577045.25 4179504.5 323.929992676
577045.3125 4179505 324.200012207
577045.4375 4179505.5 324.070007324
577045.4375 4179506.75 325.609985352
577045.625 4179507.25 324.540008545
577045.625 4179507.75 325.089996338
577045.75 4179509 325.410003662
577046.0625 4179509.5 323.239990234
577046 4179510.5 325.350006104
577046.3125 4179508.75 325.019989014
577046.25 4179508 325.269989014
577046.125 4179507.5 325.339996338
577046.25 4179507 323.040008545
577046 4179506.5 325.329986572
577046.0625 4179506 323.559997559
577046 4179505.25 323.480010986
577045.875 4179504.75 323.929992676
577045.6875 4179504.25 324.640014648
577045.625 4179503.75 324.450012207
577045.5625 4179503.25 324.570007324
577045.5 4179502.5 324.059997559
577046.3125 4179502.75 323.299987793
577046.25 4179503.25 324.640014648
577046.5 4179503.75 322.519989014
577046.4375 4179504.25 324.200012207
577046.5 4179504.75 324.339996338
577046.5625 4179505.25 325.130004883
577046.625 4179506 324.940002441
577046.75 4179506.5 324.489990234
577046.8125 4179507 324.690002441
577046.8125 4179507.5 325.450012207
577047.625 4179509 325.429992676
577047.625 4179508.5 324.829986572
577047.5 4179508 325.170013428
577047.4375 4179507.5 325.190002441
577047.375 4179506.75 324.700012207
577047.375 4179506.25 323.75
577047.25 4179505.75 324.440002441
577047.1875 4179505.25 324.320007324
577047.0625 4179504.75 324.339996338
577047 4179504.25 324.380004883
577047 4179503.5 323.540008545
577046.875 4179503 324.029998779
577046.9375 4179502.5 322.700012207
577047.8125 4179503.5 322.679992676
577047.9375 4179504.5 323.260009766
577047.875 4179505 324.329986572
577048 4179506.25 325.059997559
577048.1875 4179506.75 323.910003662
577048.3125 4179507.25 323.299987793
577048.3125 4179508.25 325.170013428
577048.4375 4179509 324.429992676
577048.5 4179509.5 324.609985352
577049.125 4179509.5 324.609985352
577049.0625 4179508.75 323.940002441
577048.9375 4179508.25 324.75
577049 4179507.75 323.410003662
577048.875 4179507.25 323.600006104
577048.8125 4179506.75 323.549987793
577048.6875 4179506.25 323.709991455
577048.625 4179505.5 323.670013428
577048.625 4179505 322.540008545
577048.5625 4179504.5 322.559997559
577048.375 4179503.5 322.720001221
577048.3125 4179502.75 322.809997559
577049.0625 4179503.75 323.880004883
577049.1875 4179504.25 324.049987793
577049.375 4179505 322.850006104
577049.3125 4179505.5 323.940002441
577049.4375 4179506 323.920013428
577049.5 4179506.5 323.980010986
577049.5625 4179507 324.450012207
577049.5625 4179507.5 324.859985352
577049.8125 4179508.25 323.320007324
577049.8125 4179508.75 324.049987793
577049.875 4179509.25 324.519989014
577049.9375 4179509.75 324.410003662
577050.8125 4179510.5 322.519989014
577050.5 4179509.5 324.309997559
577050.5 4179508.75 322.989990234
577050.25 4179508.25 325.470001221
577050.0625 4179507.25 325.309997559
577050.0625 4179506.5 324.410003662
577049.8125 4179505 324.820007324
577049.8125 4179504.5 323.959991455
577049.6875 4179504 324.029998779
577049.75 4179503.25 322.579986572
577050.5 4179503.5 322.839996338
577050.5 4179504.5 324.489990234
577050.625 4179505.25 324.459991455
577050.875 4179506.75 324.510009766
577051.0625 4179508 323.589996338
577051.125 4179508.5 324.239990234
577051.25 4179509 323.959991455
577051.25 4179509.5 324.529998779
577051.4375 4179510 323.570007324
577051.5 4179510.75 323.630004883
577052 4179509.75 323.700012207
577051.8125 4179509.25 324.440002441
577051.75 4179508.75 324.859985352
577051.625 4179508.25 324.880004883
577051.625 4179507.75 324.339996338
577051.5 4179507 324.589996338
577051.4375 4179506.5 324.570007324
577051.125 4179505 324.869995117
577051.125 4179504.25 324.130004883
577051.8125 4179504 324.329986572
577051.875 4179504.5 324.269989014
577051.875 4179505 325.190002441
577052.25 4179506.75 324.070007324
577052.3125 4179507.25 324
577052.375 4179507.75 324.519989014
577052.5 4179508.25 324.100006104
577052.5625 4179509.5 324.829986572
577052.75 4179510 324.019989014
577053.25 4179508.5 322.890014648
577053.125 4179507.5 322.350006104
577052.9375 4179506.5 322.829986572
577052.4375 4179503.75 324.160003662
577053.75 4179507 323.170013428
