# .PCD v.7 - Point Cloud Data file format
VERSION .7
FIELDS x y z
SIZE 4 4 4
TYPE F F F
COUNT 1 1 1
WIDTH 149
HEIGHT 1
VIEWPOINT 0 0 0 1 0 0 0
POINTS 149
DATA ascii
-0.1161199 0.4812398 -0.2987722
0.07279155 0.4888526 -0.2933151
0.2495884 0.08754758 -0.2851296
0.2842337 0.3442088 -0.2769441
-0.1941108 -0.05927134 -0.26603
-0.2079932 0.005981512 -0.26603
0.1334338 0.1691137 -0.2633015
0.001715801 0.4083741 -0.2633015
0.1646649 0.5388798 -0.2633015
-0.3171632 0.5812942 -0.2687585
-0.1403664 0.6095704 -0.2633015
-0.1698643 -0.187602 -0.255116
-0.2027765 0.5029908 -0.2523874
-0.3847727 0.5290919 -0.2578445
-0.1819616 -0.1234367 -0.2469304
-0.2200905 0.07123437 -0.2442019
-0.04161251 0.09516041 -0.2469304
0.2981161 0.2800435 -0.2496589
0.1091873 0.2974443 -0.2469304
-0.3466438 0.336596 -0.2469304
0.01386506 0.3431213 -0.2414734
0.2010434 0.3463839 -0.2469304
-0.305014 0.5182164 -0.2414734
-0.126536 0.5454051 -0.2442019
0.1369001 -0.2985318 -0.2305593
-0.235706 -0.2419793 -0.2360164
0.2634188 0.02338227 -0.2387449
0.0502435 0.1506253 -0.2387449
-0.5008752 0.2028276 -0.2332879
0.03814624 0.2158782 -0.2360164
0.2252899 0.2169657 -0.2387449
-0.5130245 0.2669929 -0.2360164
0.09703808 0.3616096 -0.2360164
-0.2807674 0.3909734 -0.2360164
0.08494081 0.4257749 -0.2387449
-0.01038146 0.473627 -0.2387449
-0.2149257 0.5660685 -0.2305593
-0.09703808 -0.5704187 -0.2278308
-0.3639578 -0.5051659 -0.2223738
0.05719336 -0.4170745 -0.2251023
0.03121371 -0.2887439 -0.2251023
-0.2599872 -0.1147363 -0.2251023
0.1715974 -0.02229473 -0.2251023
0.1455831 0.1071234 -0.2251023
-0.05370977 0.1604133 -0.2251023
-0.07800829 0.2898314 -0.2278308
-0.2929167 0.4551387 -0.2278308
-0.1975771 -0.4333877 -0.2141883
-0.3206295 -0.2985318 -0.2141883
-0.3344945 -0.2343665 -0.2196453
-0.3466438 -0.1691137 -0.2141883
0.006915198 -0.1604133 -0.2141883
-0.528588 -0.1528004 -0.2141883
0.1958439 -0.1495378 -0.2169168
-0.4384651 -0.1190865 -0.2196453
-0.005182066 -0.09516041 -0.2141883
-0.4506144 -0.0538336 -0.2196453
0.0641259 0.08754758 -0.2196453
0.2391723 0.1528004 -0.2196453
-0.266885 0.326808 -0.2141883
-0.5251217 0.3311583 -0.2141883
-0.1767622 0.3746601 -0.2169168
-0.467963 0.4725394 -0.2114598
-0.03467998 0.5997825 -0.2196453
-0.3760897 -0.439913 -0.2032742
0.1629318 -0.4268624 -0.2032742
0.1507825 -0.3616096 -0.2087312
-0.1455831 -0.3137575 -0.2005457
0.126536 -0.2343665 -0.2087312
-0.2478379 -0.177814 -0.2060027
-0.358741 -0.1060359 -0.2032742
-0.3708903 -0.04187058 -0.2032742
0.08837242 -0.04187058 -0.2032742
-0.3223626 0.2082654 -0.2087312
-0.06585903 0.2256661 -0.2060027
0.2149257 0.2822186 -0.2060027
-0.4436645 0.3431213 -0.2005457
-0.4558138 0.4083741 -0.2087312
-0.358741 0.4007613 -0.2087312
-0.3708903 0.4649266 -0.2087312
0.1767622 0.4747145 -0.2032742
-0.1733306 -0.5628059 -0.1950887
-0.1854278 -0.497553 -0.1978172
0.175029 -0.4910277 -0.1950887
-0.3084802 -0.3626971 -0.1950887
0.2322397 -0.3431213 -0.1978172
-0.03987937 -0.3322458 -0.1978172
0.02079759 -0.223491 -0.1978172
0.1836947 -0.08646003 -0.1978172
-0.01559819 -0.03099511 -0.1923602
-0.4869928 0.1386623 -0.1978172
-0.2305066 0.1343121 -0.1923602
-0.3084802 0.1441001 -0.1923602
-0.2426385 0.1984774 -0.1950887
-0.3344945 0.2724307 -0.1950887
0.02599698 0.2800435 -0.1978172
0.1906445 0.4105492 -0.1950887
-0.388239 -0.3757477 -0.1869031
0.2200905 -0.2800435 -0.1841746
-0.4124855 -0.2463295 -0.1869031
-0.5147576 -0.2169657 -0.1841746
-0.0641259 -0.2028276 -0.1841746
-0.09010555 -0.07449701 -0.1896317
-0.3830396 0.02446982 -0.1896317
-0.02773012 0.03208265 -0.1896317
0.1594482 0.04404568 -0.1896317
-0.296383 0.07993475 -0.1814461
-0.1386333 0.1821642 -0.1869031
-0.2547878 0.2626427 -0.1814461
-0.1646649 0.3104948 -0.1869031
-0.1889114 0.4388255 -0.1896317
0.01038146 -0.588907 -0.1759891
-0.4904764 -0.3452964 -0.1705321
-0.4003362 -0.3115824 -0.1705321
-0.2218236 -0.3050571 -0.1787176
-0.5026084 -0.2822186 -0.1787176
-0.05197664 -0.2680805 -0.1732606
-0.1559819 -0.2495922 -0.1787176
0.1143867 -0.1691137 -0.1705321
-0.07627515 -0.1386623 -0.1705321
-0.2720844 -0.04730832 -0.1705321
0.2773012 -0.03969549 -0.1787176
0.07627515 0.02446982 -0.1759891
-0.419418 0.2158782 -0.1759891
-0.4315673 0.2800435 -0.1787176
0.06932529 -0.4801522 -0.1623465
-0.4662299 -0.4747145 -0.1623465
-0.02773012 -0.3964111 -0.1623465
0.2079932 -0.2137031 -0.165075
-0.4246348 -0.1832518 -0.1623465
-0.4627463 0.01141925 -0.1623465
-0.405553 0.1506253 -0.1623465
-0.1507825 0.2463295 -0.1678035
0.06239276 0.5551931 -0.1678035
-0.3500754 -0.5693312 -0.159618
-0.2842337 -0.4910277 -0.1568895
-0.01559819 -0.4594888 -0.1568895
-0.296383 -0.4257749 -0.1514325
-0.4783272 -0.4105492 -0.159618
-0.2097263 -0.3681349 -0.1514325
0.1022548 -0.1060359 -0.1568895
-0.4731624 0.07449701 -0.1514325
-0.3934037 0.08754758 -0.1568895
-0.02253072 0.5377923 -0.159618
-0.2703513 -0.5551931 -0.1459754
-0.2842337 0.01685699 -0.1432469
-0.001715801 -0.5236542 -0.1323329
0.04504411 -0.3518216 -0.1350614
0.08320768 -0.54323 -0.1296044
