# .PCD v.7 - Point Cloud Data file format
VERSION .7
FIELDS x y z
SIZE 4 4 4
TYPE F F F
COUNT 1 1 1
WIDTH 694
HEIGHT 1
VIEWPOINT 0 0 0 1 0 0 0
POINTS 694
DATA ascii	
1  0.809679173465  0.81173260573
0.980952876146  0.869494290356  0.487039563438
0.942841297085  0.917346383879  -0.972714870396
0.928958907439  0.982599238701  -1
0.840569160648  0.963023382289  -0.983628922237
0.852701086689  0.898858075023  -0.991814461119
0.894296261647  0.853181076663  0.598908594816
0.876947607418  0.770527460592  -0.969986357435
0.925492642856  0.729200652506  1
0.902979254419  0.642196846111  -0.909959072306
0.915076517792  0.578031538895  -0.915416098226
0.927225775147  0.513866231629  -0.893587994543
0.939357701188  0.449700924413  -0.882673942701
0.951506958523  0.386623164754  -0.882673942701
0.963604221917  0.322457857538  -0.882673942701
0.975753479272  0.25611745516  -0.896316507503
0.987902736626  0.191952147894  -0.896316507503
1  0.128874388234  -0.855388813097
0.996533735417  -0.258292550272  -0.852660300136
0.982686008438  -0.194127243056  -0.871759890859
0.970554082397  -0.129961935841  -0.866302864939
0.958404825042  -0.0657966286253  -0.87721691678
0.944574429377  -0.00163132135916  -0.931787175989
0.934158304314  0.0614464383005  -0.909959072306
0.922026378272  0.127786840678  -0.852660300136
0.908178651273  0.190864600338  -0.893587994543
0.897779857544  0.25611745516  -0.839017735334
0.883897467898  0.320282762376  -0.890859481583
0.871748210543  0.384448069591  -0.909959072306
0.859650947169  0.448613376857  -0.87448840382
0.847501689814  0.512778684073  -0.915416098226
0.833619300168  0.578031538895  -0.950886766712
0.821522036774  0.642196846111  -0.912687585266
0.80937277944  0.706362153326  -0.956343792633
0.797240853398  0.772702555755  -0.907230559345
0.812856375336  0.85426862427  0.645293315143
0.77299433267  0.89994562263  -0.918144611187
0.759111943024  0.964110929845  -0.953615279673
0.66725593165  0.970636215333  -0.93997271487
0.679387857691  0.906470908117  -0.923601637108
0.689803982734  0.841218053295  -0.986357435198
0.701901246128  0.775965198473  -0.986357435198
0.714050503482  0.710712343651  -0.986357435198
0.727932893129  0.646547036435  -0.959072305593
0.740030156502  0.584556824382  -0.896316507503
0.753912546149  0.520391517116  -0.860845839018
0.764311339898  0.455138662294  -0.87448840382
0.778193729525  0.390973355078  -0.869031377899
0.788557860627  0.326808047863  -0.904502046385
0.800707117982  0.262642740597  -0.893587994543
0.812856375336  0.197389885825  -0.879945429741
0.826686771002  0.135399673722  -0.819918144611
0.838836028356  0.0712343665061  -0.858117326057
0.849234822106  0.00489396412811  -0.904502046385
0.863117211732  -0.0592713431381  -0.87448840382
0.875214475126  -0.123436650354  -0.866302864939
0.887363732481  -0.186514410013  -0.809004092769
0.897779857544  -0.252854812391  -0.890859481583
0.911610253209  -0.315932572051  -0.841746248295
0.925492642856  -0.377922784104  -0.702592087312
0.935891436605  -0.444263186533  -0.825375170532
0.94804069396  -0.508428493748  -0.792633015007
0.961871089625  -0.571506253408  -0.740791268759
0.989635868918  -0.618270799324  0.222373806276
0.99136900121  -0.990212071794  0.459754433834
0.984436472043  -0.919521479041  0.817189631651
0.961871089625  -0.8684067428  0.145975443383
0.949773826231  -0.800978792815  0.219645293315
0.920275914667  -0.755301794455  -0.768076398363
0.908178651273  -0.690048939633  -0.800818553888
0.896029393939  -0.625883632418  -0.825375170532
0.883897467898  -0.560630777596  -0.803547066849
0.870015078251  -0.495377922774  -0.806275579809
0.857917814878  -0.431212615558  -0.81446111869
0.845768557523  -0.365959760736  -0.776261937244
0.833619300168  -0.30179445352  -0.828103683492
0.821522036774  -0.237629146254  -0.836289222374
0.807639647148  -0.172376291483  -0.869031377899
0.795507721107  -0.106035889054  -0.839017735334
0.783358463752  -0.0418705818387  -0.809004092769
0.769528068087  0.0222947253769  -0.87448840382
0.757378810732  0.0875475801989  -0.871759890859
0.745229553377  0.151712887414  -0.896316507503
0.734865422275  0.216965742237  -0.800818553888
0.720983032649  0.282218597059  -0.825375170532
0.708851106608  0.348558999437  -0.847203274216
0.694968716961  0.41054921154  -0.915416098226
0.682871453588  0.474714518756  -0.901773533424
0.670722196233  0.539967373578  -0.93997271487
0.658572938878  0.6052202284  -0.918144611187
0.646475675484  0.670473083171  -0.87448840382
0.63432641815  0.735725937993  -0.87721691678
0.620461359817  0.79989124526  -0.909959072306
0.608312102462  0.864056552475  -0.964529331514
0.596214839089  0.929309407297  -0.929058663029
0.582332449442  0.993474714513  -0.956343792633
0.500875231818  0.943447525828  -0.893587994543
0.511291356881  0.880369766168  -0.907230559345
0.523388620255  0.816204458952  -0.950886766712
0.535537877609  0.75095160413  -0.980900409277
0.547669803651  0.686786296915  -0.920873124147
0.561552193277  0.623708537255  -0.858117326057
0.571916324379  0.559543229989  -0.920873124147
0.585798714025  0.494290375218  -0.904502046385
0.59794797138  0.431212615558  -0.833560709413
0.610045234754  0.367047308342  -0.847203274216
0.622194492109  0.302882001076  -0.844474761255
0.63432641815  0.236541598698  -0.849931787176
0.646475675484  0.173463839039  -0.847203274216
0.66030607117  0.110386079379  -0.81446111869
0.670722196233  0.045133224557  -0.860845839018
0.682871453588  -0.0201196302144  -0.863574351978
0.694968716961  -0.0831973898741  -0.858117326057
0.708851106608  -0.146275149534  -0.803547066849
0.72271616494  -0.210440456749  -0.732605729877
0.733132289984  -0.276780859178  -0.795361527967
0.746962685669  -0.339858618787  -0.732605729877
0.757378810732  -0.405111473609  -0.822646657572
0.769528068087  -0.469276780875  -0.841746248295
0.78162533146  -0.533442088091  -0.792633015007
0.793774588815  -0.59651984775  -0.798090040928
0.805906514856  -0.662860250128  -0.825375170532
0.818055772211  -0.725938009788  -0.778990450205
0.830153035585  -0.79119086461  -0.817189631651
0.84230229294  -0.856443719381  -0.822646657572
0.854451550294  -0.919521479041  -0.819918144611
0.866548813668  -0.983686786307  -0.806275579809
0.783358463752  -0.948885263708  -0.825375170532
0.77299433267  -0.883632408886  -0.776261937244
0.759111943024  -0.820554649277  -0.822646657572
0.746962685669  -0.756389342011  -0.847203274216
0.733132289984  -0.69113648724  -0.855388813097
0.72271616494  -0.625883632418  -0.833560709413
0.708851106608  -0.561718325151  -0.825375170532
0.696701849253  -0.497553017936  -0.855388813097
0.684604585879  -0.43338771072  -0.822646657572
0.674188460816  -0.368134855898  -0.773533424284
0.66030607117  -0.303969548683  -0.847203274216
0.648208807776  -0.238716693861  -0.828103683492
0.636059550441  -0.175638934201  -0.841746248295
0.622194492109  -0.111473626986  -0.858117326057
0.611778367045  -0.045133224557  -0.809004092769
0.59794797138  0.017944535052  -0.87721691678
0.585798714025  0.0810222947117  -0.890859481583
0.573649456671  0.145187601978  -0.852660300136
0.561552193277  0.211528004356  -0.869031377899
0.549402935942  0.275693311571  -0.863574351978
0.535537877609  0.338771071231  -0.885402455662
0.523388620255  0.402936378446  -0.945429740791
0.511291356881  0.468189233269  -0.866302864939
0.499142099526  0.532354540484  -0.882673942701
0.48525970988  0.597607395306  -0.912687585266
0.473162446486  0.661772702572  -0.918144611187
0.462746321443  0.724850462181  -0.885402455662
0.44888126311  0.789015769447  -0.901773533424
0.436732005755  0.853181076663  -0.953615279673
0.42290161009  0.917346383879  -0.972714870396
0.410752352735  0.982599238701  -0.942701227831
0.318896341361  1  -0.879945429741
0.329295135111  0.934747145178  -0.994542974079
0.343177524737  0.870581837962  -0.956343792633
0.355274788131  0.807504078303  -0.890859481583
0.367424045486  0.743338771087  -0.882673942701
0.379573302841  0.678085916265  -0.926330150068
0.393403698506  0.613920608999  -0.841746248295
0.405552955861  0.55084284939  -0.833560709413
0.41595174961  0.484502446961  -0.907230559345
0.429834139236  0.41924959219  -0.890859481583
0.44193140263  0.35617183253  -0.879945429741
0.452347527693  0.292006525264  -0.918144611187
0.46622991734  0.227841218049  -0.855388813097
0.478327180713  0.163675910833  -0.841746248295
0.490476438068  0.098423056011  -0.901773533424
0.504341496401  0.0364328439579  -0.768076398363
0.516490753736  -0.0288200108641  -0.781718963165
0.526854884838  -0.0940728656862  -0.844474761255
0.539004142193  -0.158238172902  -0.890859481583
0.551153399547  -0.221315932561  -0.849931787176
0.563250662921  -0.287656334939  -0.899045020464
0.575399920276  -0.351821642205  -0.87448840382
0.589264978609  -0.414899401865  -0.833560709413
0.601414235963  -0.479064709081  -0.819918144611
0.613511499337  -0.544317563903  -0.830832196453
0.625660756692  -0.608482871118  -0.819918144611
0.637810014047  -0.670473083171  -0.773533424284
0.651640409712  -0.735725937993  -0.718963165075
0.662056534775  -0.802066340371  -0.822646657572
0.674188460816  -0.865144100031  -0.841746248295
0.686337718171  -0.929309407297  -0.830832196453
0.698434981544  -0.994562262069  -0.825375170532
0.61697776392  -0.973898858051  -0.866302864939
0.604880500526  -0.909733550835  -0.836289222374
0.592731243192  -0.844480696013  -0.828103683492
0.580599317151  -0.779227841191  -0.809004092769
0.568450059796  -0.715062533976  -0.839017735334
0.554619664131  -0.65089722676  -0.855388813097
0.544203539067  -0.584556824332  -0.781718963165
0.532071613026  -0.521479064723  -0.784447476126
0.518223886027  -0.456226209901  -0.795361527967
0.506074628693  -0.392060902685  -0.792633015007
0.493942702651  -0.327895595419  -0.844474761255
0.480060313005  -0.263730288203  -0.869031377899
0.467963049631  -0.199564980988  -0.888130968622
0.455813792277  -0.135399673722  -0.901773533424
0.443664534922  -0.0701468188995  -0.830832196453
0.431567271528  -0.00489396412811  -0.836289222374
0.419418014193  0.0592713431381  -0.828103683492
0.405552955861  0.121261555191  -0.896316507503
0.393403698506  0.186514410013  -0.931787175989
0.381306435132  0.250679717229  -0.929058663029
0.369157177777  0.314845024444  -0.918144611187
0.357007920423  0.380097879266  -0.860845839018
0.344910657029  0.445350734088  -0.844474761255
0.332761399694  0.508428493748  -0.852660300136
0.331028267403  0.580206634057  -0.287858117326
0.31716320907  0.644371941273  -0.306957708049
0.294649820633  0.702011963001  -0.912687585266
0.282500563278  0.767264817823  -0.87721691678
0.270351305923  0.831430125039  -0.885402455662
0.256520910238  0.894507884698  -0.93724420191
0.244371652903  0.958673191965  -0.948158253752
0.150782509238  0.978249048376  -0.980900409277
0.162931766593  0.915171288716  -0.945429740791
0.175029029966  0.851005981501  -0.964529331514
0.188911419613  0.785753126679  -0.901773533424
0.201043345654  0.721587819463  -0.93997271487
0.21492573528  0.658510059803  -0.844474761255
0.237439123737  0.601957585631  -0.25238744884
0.251321513383  0.537792278415  -0.154160982265
0.261685644465  0.472539423593  -0.260572987722
0.27383490182  0.41054921154  -0.173260572988
0.28423369557  0.344208809112  -0.276944065484
0.298116085216  0.280043501896  -0.24965893588
0.31021334859  0.215878194681  -0.257844474761
0.320629473653  0.151712887414  -0.31241473397
0.324095738236  0.0788471995492  -0.844474761255
0.336244995591  0.0146818923337  -0.882673942701
0.346609126673  -0.0494834148818  -0.909959072306
0.360491516319  -0.112561174541  -0.860845839018
0.372623442361  -0.178901576919  -0.890859481583
0.384772699715  -0.243066884186  -0.893587994543
0.396869963089  -0.306144643845  -0.87448840382
0.409019220444  -0.370309951061  -0.858117326057
0.421168477799  -0.434475258276  -0.817189631651
0.433265741172  -0.499728113098  -0.841746248295
0.445414998527  -0.562805872758  -0.852660300136
0.457546924568  -0.626971179974  -0.817189631651
0.469696181923  -0.692224034796  -0.866302864939
0.481793445297  -0.757476889618  -0.885402455662
0.493942702651  -0.820554649277  -0.866302864939
0.507825092298  -0.883632408886  -0.789904502046
0.519922355671  -0.948885263708  -0.81446111869
0.438465138047  -0.952147906477  -0.819918144611
0.426367874673  -0.887982599211  -0.852660300136
0.414218617319  -0.821642196833  -0.833560709413
0.402086691277  -0.757476889618  -0.787175989086
0.389937433923  -0.693311582351  -0.798090040928
0.377840170549  -0.629146275136  -0.817189631651
0.365690913194  -0.563893420314  -0.81446111869
0.350075391256  -0.500815660705  -0.912687585266
0.339711260174  -0.436650353439  -0.858117326057
0.325828870528  -0.373572593779  -0.926330150068
0.313679613173  -0.308319739008  -0.890859481583
0.299849217488  -0.168026101158  -0.25238744884
0.289433092445  -0.102773246336  -0.167803547067
0.277301166403  -0.0396954866762  -0.178717598909
0.263418776757  0.0233822729834  -0.238744884038
0.249588381092  0.0875475801989  -0.285129604366
0.239172256029  0.152800435021  -0.219645293315
0.225289866382  0.216965742237  -0.238744884038
0.21492573528  0.282218597059  -0.206002728513
0.201043345654  0.346383904274  -0.24693042292
0.190644551904  0.41054921154  -0.195088676671
0.176762162258  0.474714518756  -0.203274215553
0.164664898884  0.538879825971  -0.263301500682
0.150782509238  0.603045133238  -0.290586630287
0.136900119591  0.665035345291  -0.383356070941
0.114386731155  0.722675367019  -0.948158253752
0.103987937405  0.786840674285  -0.879945429741
0.0918386800502  0.852093529107  -0.901773533424
0.0780082843851  0.916258836323  -0.956343792633
0.0658590270303  0.980424143538  -0.961800818554
-0.0364131094069  0.995649809675  -0.942701227831
-0.0242638520521  0.93148450246  -0.915416098226
-0.0121145946973  0.8684067428  -0.901773533424
-1.73313237231e-05  0.80532898314  -0.890859481583
0.0121319260311  0.738988580762  -0.915416098226
0.0242638520723  0.67373572594  -0.959072305593
0.0502435050923  0.61935834693  -0.140518417462
0.0623927624471  0.555193039715  -0.167803547067
0.0727915561967  0.488852637286  -0.293315143247
0.0849408135313  0.425774877627  -0.238744884038
0.097038076925  0.361609570411  -0.236016371078
0.10918733428  0.297444263196  -0.24693042292
0.123069723926  0.235454051092  -0.118690313779
0.133433855008  0.169113648714  -0.263301500682
0.145583112363  0.107123436661  -0.225102319236
0.159448170696  0.0440456770011  -0.18963165075
0.17159742803  -0.0222947253769  -0.225102319236
0.183694691424  -0.086460032643  -0.197817189632
0.195843948779  -0.149537792252  -0.216916780355
0.207993206134  -0.213703099518  -0.165075034106
0.220090469507  -0.280043501896  -0.184174624829
0.232239726862  -0.343121261556  -0.197817189632
0.246104785195  -0.406199021215  -0.12687585266
0.256520910238  -0.470364328431  -0.151432469304
0.268618173632  -0.535617183253  -0.178717598909
0.280767430987  -0.599782490469  -0.219645293315
0.29118355605  -0.666122892847  -0.356070941337
0.294649820633  -0.741163675925  -0.901773533424
0.306747084007  -0.80532898314  -0.885402455662
0.31716320907  -0.870581837962  -0.953615279673
0.331028267403  -0.934747145178  -0.899045020464
0.343177524737  -0.998912452393  -0.890859481583
0.249588381092  -0.955410549196  -0.959072305593
0.237439123737  -0.889070146818  -0.890859481583
0.227022998674  -0.823817291996  -0.863574351978
0.213192602988  -0.75965198478  -0.858117326057
0.201043345654  -0.69657422512  -0.93724420191
0.199310213362  -0.620445894486  -0.206002728513
0.187178287321  -0.556280587271  -0.227830832196
0.175029029966  -0.491027732449  -0.195088676671
0.162931766593  -0.426862425233  -0.203274215553
0.150782509238  -0.361609570411  -0.208731241473
0.136900119591  -0.298531810751  -0.230559345157
0.126535988489  -0.234366503536  -0.208731241473
0.114386731155  -0.169113648714  -0.170532060027
0.102254805113  -0.106035889054  -0.156889495225
0.0883724154671  -0.0418705818387  -0.203274215553
0.0762751520935  0.0244698205393  -0.175989085948
0.0641258947387  0.0875475801989  -0.219645293315
0.0502435050923  0.150625339859  -0.238744884038
0.0381462417187  0.215878194681  -0.236016371078
0.0259969843639  0.280043501896  -0.197817189632
0.0138650583227  0.343121261556  -0.241473396999
0.00171580096787  0.408374116378  -0.263301500682
-0.0103814624057  0.4736269712  -0.238744884038
-0.0225307197605  0.537792278415  -0.159618008186
-0.0346799771153  0.599782490469  -0.219645293315
-0.0485103727805  0.665035345291  -0.244201909959
-0.0727915561765  0.720500271907  -0.931787175989
-0.0849408135313  0.784665579123  -0.920873124147
-0.0970380769049  0.849918433945  -0.869031377899
-0.10918733426  0.915171288716  -0.866302864939
-0.121336591614  0.978249048376  -0.929058663029
-0.22355673407  0.986949429025  -0.901773533424
-0.211459470697  0.92278412181  -0.901773533424
-0.199310213342  0.85970636215  -0.888130968622
-0.187178287301  0.794453507328  -0.858117326057
-0.175029029966  0.729200652506  -0.904502046385
-0.162931766572  0.666122892897  -0.920873124147
-0.140366384154  0.609570418725  -0.263301500682
-0.126535988489  0.545405111459  -0.244201909959
-0.116119863426  0.481239804243  -0.298772169168
-0.112653598843  0.411636759096  -0.822646657572
-0.102254805093  0.345296356718  -0.888130968622
-0.0780082843649  0.289831430102  -0.227830832196
-0.0658590270101  0.225666122886  -0.206002728513
-0.0537097696553  0.160413268064  -0.225102319236
-0.0416125062817  0.0951604132927  -0.24693042292
-0.0277301166353  0.0320826536331  -0.18963165075
-0.0155981905941  -0.0309951060266  -0.192360163711
-0.00518206553089  -0.0951604132421  -0.214188267394
0.00691519784267  -0.160413268064  -0.214188267394
0.0207975874891  -0.223491027724  -0.197817189632
0.0312137125523  -0.288743882546  -0.225102319236
0.0450441082175  -0.351821642205  -0.135061391542
0.0571933655723  -0.417074497028  -0.225102319236
0.0693252916135  -0.480152256637  -0.162346521146
0.0832076812397  -0.543230016296  -0.129604365621
0.0935718123418  -0.609570418725  -0.208731241473
0.0953049446334  -0.683523654146  -0.852660300136
0.107454201988  -0.748776508968  -0.858117326057
0.119603459343  -0.812941816184  -0.866302864939
0.131700722717  -0.878194671006  -0.860845839018
0.143849980071  -0.942359978221  -0.904502046385
0.0727915561967  -0.986949429025  -0.885402455662
0.0589264978639  -0.923871669366  -0.93997271487
0.0467772405091  -0.858618814544  -0.918144611187
0.0346799771355  -0.794453507328  -0.945429740791
0.0242638520723  -0.729200652506  -0.825375170532
0.0207975874891  -0.654159869479  -0.271487039563
0.0103814624259  -0.588907014656  -0.175989085948
-0.00171580096787  -0.523654159885  -0.132332878581
-0.0155981905941  -0.459488852619  -0.156889495225
-0.0277301166353  -0.396411092959  -0.162346521146
-0.0398793739901  -0.332245785744  -0.197817189632
-0.0519766373637  -0.268080478528  -0.173260572988
-0.0641258947185  -0.202827623706  -0.184174624829
-0.0762751520733  -0.138662316491  -0.170532060027
-0.0901055477586  -0.0744970092244  -0.18963165075
-0.112653598843  -0.0190320826585  -0.817189631651
-0.124802856198  0.045133224557  -0.828103683492
-0.136900119571  0.109298531823  -0.778990450205
-0.138633251863  0.182164219688  -0.18690313779
-0.150782509218  0.246329526904  -0.167803547067
-0.164664898864  0.31049483417  -0.18690313779
-0.176762162258  0.374660141386  -0.216916780355
-0.188911419592  0.438825448601  -0.18963165075
-0.202776477925  0.502990755867  -0.25238744884
-0.21492573528  0.566068515476  -0.230559345157
-0.227022998654  0.631321370298  -0.266030013643
-0.251321513363  0.686786296915  -0.918144611187
-0.263418776757  0.75095160413  -0.918144611187
-0.275568034092  0.816204458952  -0.885402455662
-0.287699960133  0.880369766168  -0.93451568895
-0.301582349779  0.943447525828  -0.975443383356
-0.402069359944  0.95976073952  -0.953615279673
-0.38997209657  0.894507884698  -0.942701227831
-0.377822839215  0.829255029927  -0.969986357435
-0.365690913174  0.767264817823  -0.931787175989
-0.353541655819  0.703099510608  -0.942701227831
-0.329295135091  0.646547036435  -0.225102319236
-0.31716320905  0.581294181613  -0.268758526603
-0.305013951715  0.518216421954  -0.241473396999
-0.292916688321  0.455138662294  -0.227830832196
-0.280767430966  0.390973355078  -0.236016371078
-0.26688504132  0.326808047863  -0.214188267394
-0.254787777946  0.262642740597  -0.181446111869
-0.242638520592  0.198477433381  -0.195088676671
-0.23050659455  0.134312126166  -0.192360163711
-0.220090469507  0.0712343665061  -0.244201909959
-0.207993206114  0.005981511684  -0.266030013643
-0.194110816467  -0.0592713431381  -0.266030013643
-0.181961559112  -0.123436650354  -0.24693042292
-0.169864295739  -0.187601957569  -0.255115961801
-0.155981906092  -0.249592169673  -0.178717598909
-0.145583112343  -0.313757476888  -0.200545702592
-0.142099516446  -0.388798259916  -0.817189631651
-0.131700722717  -0.454051114738  -0.87721691678
-0.117852995718  -0.516041326791  -0.817189631651
-0.0970380769049  -0.570418705801  -0.227830832196
-0.0832076812397  -0.634584013067  -0.192360163711
-0.0832076812397  -0.710712343651  -0.948158253752
-0.0710584238849  -0.774877650866  -0.920873124147
-0.0589264978437  -0.837955410526  -0.87721691678
-0.0450441082175  -0.902120717792  -0.822646657572
-0.0346799771153  -0.967373572564  -0.901773533424
-0.10918733426  -0.961935834683  -0.87721691678
-0.121336591614  -0.896682979861  -0.888130968622
-0.13516698728  -0.831430125039  -0.907230559345
-0.147316244634  -0.76835236543  -0.912687585266
-0.159448170676  -0.70527460577  -0.945429740791
-0.168131163447  -0.63675910823  -0.716234652115
-0.173330560322  -0.562805872758  -0.195088676671
-0.185427823696  -0.497553017936  -0.197817189632
-0.19757708105  -0.43338771072  -0.214188267394
-0.209726338405  -0.368134855898  -0.151432469304
-0.221823601779  -0.305057096239  -0.178717598909
-0.235705991425  -0.241979336579  -0.236016371078
-0.247837917466  -0.177814029364  -0.206002728513
-0.259987174821  -0.114736269704  -0.225102319236
-0.272084438195  -0.0473083197194  -0.170532060027
-0.28423369555  0.0168569874961  -0.143246930423
-0.296382952904  0.0799347471558  -0.181446111869
-0.308480216278  0.144100054371  -0.192360163711
-0.322362605924  0.208265361587  -0.208731241473
-0.334494531966  0.272430668853  -0.195088676671
-0.34664378932  0.336595976069  -0.24693042292
-0.358741052694  0.400761283284  -0.208731241473
-0.370890310049  0.46492659055  -0.208731241473
-0.384772699695  0.529091897766  -0.257844474761
-0.396869963069  0.593257204981  -0.268758526603
-0.409019220424  0.65959760741  -0.18690313779
-0.43330040382  0.715062533976  -0.863574351978
-0.445397667193  0.780315388798  -0.839017735334
-0.457546924548  0.84556824362  -0.871759890859
-0.471429314194  0.907558455673  -0.959072305593
-0.483526577568  0.970636215333  -0.964529331514
-0.578866184839  0.978249048376  -0.890859481583
-0.566716927504  0.91408374116  -0.920873124147
-0.55461966411  0.847743338782  -0.93724420191
-0.542470406756  0.783578031516  -0.969986357435
-0.528588017109  0.720500271907  -0.890859481583
-0.516490753736  0.656334964641  -0.830832196453
-0.49220957034  0.599782490469  -0.167803547067
-0.480060313005  0.535617183253  -0.214188267394
-0.467963049611  0.472539423593  -0.211459754434
-0.455813792256  0.408374116378  -0.208731241473
-0.443664534902  0.343121261556  -0.200545702592
-0.431567271528  0.280043501896  -0.178717598909
-0.419418014173  0.215878194681  -0.175989085948
-0.40555295584  0.150625339859  -0.162346521146
-0.393403698506  0.0875475801989  -0.156889495225
-0.383039567404  0.0244698205393  -0.18963165075
-0.370890310049  -0.0418705818387  -0.203274215553
-0.358741052694  -0.106035889054  -0.203274215553
-0.34664378932  -0.169113648714  -0.214188267394
-0.334494531966  -0.234366503536  -0.219645293315
-0.320629473633  -0.298531810751  -0.214188267394
-0.308480216278  -0.362697118018  -0.195088676671
-0.296382952904  -0.425774877627  -0.151432469304
-0.28423369555  -0.491027732449  -0.156889495225
-0.270351305903  -0.555193039715  -0.145975443383
-0.259987174821  -0.61935834693  -0.208731241473
-0.25825404253  -0.694399129958  -0.866302864939
-0.246104785175  -0.75965198478  -0.915416098226
-0.233972859134  -0.82272974444  -0.849931787176
-0.221823601779  -0.886895051655  -0.828103683492
-0.209726338405  -0.952147906477  -0.871759890859
-0.287699960133  -0.967373572564  -0.896316507503
-0.298116085196  -0.901033170186  -0.863574351978
-0.311946480861  -0.837955410526  -0.885402455662
-0.324095738216  -0.773790103311  -0.896316507503
-0.336244995571  -0.708537248488  -0.871759890859
-0.337978127862  -0.633496465461  -0.200545702592
-0.350075391256  -0.569331158245  -0.159618008186
-0.363957780882  -0.505165850979  -0.222373806276
-0.376089706924  -0.439912996208  -0.203274215553
-0.388238964278  -0.375747688942  -0.18690313779
-0.400336227652  -0.311582381726  -0.170532060027
-0.412485485007  -0.246329526904  -0.18690313779
-0.424634742362  -0.183251767244  -0.162346521146
-0.438465138027  -0.119086460029  -0.219645293315
-0.450614395382  -0.0538336052067  -0.219645293315
-0.462746321423  0.0114192496154  -0.162346521146
-0.473162446486  0.0744970092244  -0.151432469304
-0.486992842151  0.138662316491  -0.197817189632
-0.500875231798  0.202827623706  -0.233287858117
-0.513024489152  0.266992930922  -0.236016371078
-0.525121752526  0.331158238188  -0.214188267394
-0.537271009881  0.395323545403  -0.195088676671
-0.549402935922  0.460576400225  -0.145975443383
-0.57364945665  0.514953779235  -0.860845839018
-0.587531846297  0.578031538895  -0.948158253752
-0.599681103652  0.643284393666  -0.926330150068
-0.611778367025  0.708537248488  -0.899045020464
-0.62392762438  0.771615008148  -0.912687585266
-0.636059550421  0.83686786297  -0.888130968622
-0.648208807776  0.901033170186  -0.931787175989
-0.662039203441  0.965198477452  -0.964529331514
-0.762578207587  0.993474714513  -0.978171896317
-0.74869581794  0.929309407297  -0.956343792633
-0.736598554567  0.864056552475  -0.972714870396
-0.724449297212  0.800978792815  -0.888130968622
-0.710584238879  0.735725937993  -0.899045020464
-0.698434981524  0.672648178334  -0.899045020464
-0.686337718151  0.608482871118  -0.899045020464
-0.674188460796  0.544317563903  -0.841746248295
-0.662039203441  0.480152256637  -0.890859481583
-0.649941940068  0.413811854259  -0.942701227831
-0.637792682713  0.351821642205  -0.93451568895
-0.625660756672  0.288743882546  -0.87721691678
-0.613511499317  0.222403480168  -0.942701227831
-0.601414235943  0.156063077739  -0.961800818554
-0.587531846297  0.0951604132927  -0.828103683492
-0.575382588942  0.0299075584707  -0.858117326057
-0.552886531819  -0.0277324633082  -0.293315143247
-0.540737274464  -0.0886351278055  -0.214188267394
-0.528588017109  -0.152800435021  -0.214188267394
-0.514757621444  -0.216965742237  -0.184174624829
-0.502608364089  -0.282218597059  -0.178717598909
-0.490476438048  -0.345296356718  -0.170532060027
-0.478327180713  -0.41054921154  -0.159618008186
-0.46622991732  -0.474714518756  -0.162346521146
-0.454080659965  -0.537792278415  -0.200545702592
-0.44193140261  -0.603045133238  -0.181446111869
-0.440198270318  -0.679173463821  -0.869031377899
-0.428101006945  -0.743338771087  -0.855388813097
-0.41595174959  -0.807504078303  -0.882673942701
-0.403819823549  -0.872756933125  -0.915416098226
-0.38997209657  -0.935834692784  -0.860845839018
-0.37957330282  -1  -0.907230559345
-0.471429314194  -0.96846112017  -0.907230559345
-0.483526577568  -0.902120717792  -0.841746248295
-0.495675834923  -0.837955410526  -0.87721691678
-0.507807760964  -0.772702555755  -0.847203274216
-0.519957018319  -0.708537248488  -0.830832196453
-0.521655487963  -0.632408917905  -0.105047748977
-0.533804745298  -0.567156063083  -0.135061391542
-0.54766980363  -0.505165850979  -0.238744884038
-0.559819060985  -0.439912996208  -0.195088676671
-0.582332449422  -0.384448069591  -0.773533424284
-0.59794797136  -0.322457857538  -0.942701227831
-0.608312102462  -0.259380097878  -0.899045020464
-0.622194492088  -0.195214790663  -0.956343792633
-0.63432641813  -0.128874388234  -0.904502046385
-0.644742543193  -0.0647090810188  -0.849931787176
-0.658572938858  -0.00163132135916  -0.858117326057
-0.670722196213  0.0636215334629  -0.852660300136
-0.682871453568  0.127786840678  -0.863574351978
-0.696701849253  0.190864600338  -0.918144611187
-0.708851106588  0.25611745516  -0.860845839018
-0.720983032629  0.322457857538  -0.860845839018
-0.734865422275  0.385535617198  -0.918144611187
-0.745229553357  0.449700924413  -0.882673942701
-0.759111943004  0.514953779235  -0.882673942701
-0.771261200358  0.578031538895  -0.896316507503
-0.785091596023  0.642196846111  -0.945429740791
-0.797240853378  0.707449700933  -0.956343792633
-0.809372779419  0.771615008148  -0.93724420191
-0.821522036774  0.834692767808  -0.93997271487
-0.833619300148  0.89994562263  -0.896316507503
-0.847501689794  0.964110929845  -0.93997271487
-0.937624568877  0.948885263708  -0.983628922237
-0.925492642835  0.885807504049  -0.93724420191
-0.913343385501  0.821642196833  -0.915416098226
-0.901246122107  0.757476889618  -0.978171896317
-0.887363732461  0.694399129958  -0.855388813097
-0.875214475106  0.629146275136  -0.849931787176
-0.863117211732  0.56498096792  -0.882673942701
-0.850967954377  0.499728113098  -0.901773533424
-0.838836028336  0.435562805883  -0.918144611187
-0.826686771002  0.372485046223  -0.909959072306
-0.814589507608  0.307232191401  -0.953615279673
-0.802440250253  0.243066884186  -0.945429740791
-0.788557860607  0.178901576919  -0.893587994543
-0.778193729525  0.11582381731  -0.920873124147
-0.764311339878  0.0505709624884  -0.888130968622
-0.752179413837  -0.0157694398896  -0.93997271487
-0.740030156502  -0.0777596519933  -0.885402455662
-0.727932893109  -0.141924959209  -0.931787175989
-0.715783635754  -0.207177814031  -0.920873124147
-0.703634378399  -0.272430668853  -0.901773533424
-0.689803982734  -0.335508428513  -0.871759890859
-0.677654725379  -0.398586188122  -0.871759890859
-0.665522799338  -0.463839042944  -0.863574351978
-0.653373542003  -0.52800435021  -0.871759890859
-0.64127627861  -0.592169657425  -0.849931787176
-0.629127021255  -0.658510059803  -0.907230559345
-0.6169777639  -0.721587819463  -0.871759890859
-0.603147368235  -0.785753126679  -0.852660300136
-0.59099811088  -0.848830886338  -0.822646657572
-0.578866184839  -0.91408374116  -0.828103683492
-0.568450059776  -0.979336595982  -0.918144611187
-0.653373542003  -0.956498096802  -0.866302864939
-0.66725593163  -0.892332789536  -0.931787175989
-0.679387857671  -0.82816748232  -0.863574351978
-0.693270247317  -0.764002175105  -0.920873124147
-0.703634378399  -0.698749320283  -0.87448840382
-0.717516768046  -0.635671560623  -0.915416098226
-0.7296660254  -0.571506253408  -0.915416098226
-0.743496421065  -0.506253398586  -0.918144611187
-0.753912546129  -0.439912996208  -0.847203274216
-0.767777604461  -0.376835236548  -0.893587994543
-0.779926861816  -0.314845024444  -0.942701227831
-0.79202412519  -0.248504622066  -0.839017735334
-0.804173382545  -0.183251767244  -0.885402455662
-0.8163226399  -0.117998912473  -0.841746248295
-0.830153035565  -0.0549211528132  -0.901773533424
-0.842302292919  0.0103317020089  -0.879945429741
-0.854434218961  0.0755845568309  -0.863574351978
-0.866583476315  0.139749864046  -0.841746248295
-0.880431203294  0.202827623706  -0.896316507503
-0.892563129335  0.268080478528  -0.869031377899
-0.90471238669  0.331158238188  -0.896316507503
-0.918542782355  0.395323545403  -0.912687585266
-0.93069203971  0.460576400225  -0.885402455662
-0.942841297065  0.524741707441  -0.912687585266
-0.954938560459  0.588907014656  -0.907230559345
-0.968820950085  0.653072321923  -0.948158253752
-0.980952876126  0.719412724301  -0.869031377899
-0.993102133481  0.781402936354  -0.923601637108
-0.993102133481  0.284393692221  -0.841746248295
-0.982686008418  0.219140837399  -0.920873124147
-0.968820950085  0.156063077739  -0.849931787176
-0.958404825022  0.0908102229679  -0.93724420191
-0.944574429357  0.0266449157017  -0.871759890859
-0.93069203971  -0.0364328439579  -0.787175989086
-0.918542782355  -0.100598151173  -0.759890859482
-0.906445518982  -0.164763458389  -0.754433833561
-0.892563129335  -0.228928765655  -0.708049113233
-0.880431203294  -0.294181620427  -0.757162346521
-0.86828194596  -0.357259380086  -0.757162346521
-0.857917814857  -0.422512234908  -0.795361527967
-0.845768557503  -0.48776508973  -0.806275579809
-0.833619300148  -0.55084284939  -0.81446111869
-0.821522036774  -0.617183251768  -0.866302864939
-0.807639647128  -0.681348558983  -0.833560709413
-0.797240853378  -0.74551386625  -0.899045020464
-0.785091596023  -0.809679173465  -0.879945429741
-0.77299433265  -0.874932028287  -0.950886766712
-0.759111943004  -0.939097335503  -0.899045020464
-0.835352432439  -0.995649809675  -0.912687585266
-0.845768557503  -0.929309407297  -0.776261937244
-0.859650947149  -0.865144100031  -0.781718963165
-0.873481342814  -0.79989124526  -0.847203274216
-0.883897467877  -0.734638390438  -0.781718963165
-0.896029393919  -0.670473083171  -0.740791268759
-0.911610253209  -0.607395323562  -0.899045020464
-0.923759510544  -0.543230016296  -0.901773533424
-0.935891436585  -0.479064709081  -0.896316507503
-0.94804069394  -0.413811854259  -0.855388813097
-0.961871089605  -0.350734094599  -0.901773533424
-0.975753479251  -0.285481239777  -0.948158253752
-0.987902736606  -0.220228385005  -0.931787175989
-0.998266867708  -0.156063077739  -0.87448840382
-1  -0.686786296915  -0.890859481583
-0.987902736606  -0.749864056524  -0.869031377899
-0.975753479251  -0.81402936379  -0.869031377899
-0.961871089605  -0.879282218612  -0.87448840382
-0.951506958523  -0.944535073384  -0.918144611187
-0.951506958523  -0.944535073384  -0.918144611187
