# .PCD v.7 - Point Cloud Data file format
VERSION .7
FIELDS x y z
SIZE 4 4 4
TYPE F F F
COUNT 1 1 1
WIDTH 182
HEIGHT 1
VIEWPOINT 0 0 0 1 0 0 0
POINTS 182
DATA ascii
-0.03285976 0.3695352 0.2451923
-0.3377103 0.1394386 0.2548077
-0.1027124 0.3999079 0.2692308
0.2563784 0.2554073 0.2788461
-0.1881774 -0.3640129 0.2836539
-0.3566258 -0.07685228 0.2932692
0.07970484 0.3566498 0.3028846
-0.3212763 0.08053382 0.3125
-0.1314801 0.3465255 0.3173077
0.1150297 -0.3410032 0.3269231
-0.09120042 -0.3345605 0.3269231
-0.1643399 -0.3327197 0.3317308
-0.2744558 -0.2406811 0.3317308
0.2917033 -0.1587667 0.3317308
0.2966417 -0.1053843 0.3317308
-0.3130757 0.1872987 0.3365385
-0.03944157 0.3170732 0.3317308
0.1709217 0.3437644 0.3365385
0.1865258 -0.3281178 0.3413461
-0.2481532 -0.1992637 0.3461539
0.166805 0.2913024 0.3413461
-0.001643399 -0.3584906 0.3509615
-0.2703473 -0.1854579 0.3509615
-0.3525173 -0.01978831 0.3509615
-0.3352616 -0.07409112 0.3653846
0.3130675 0.111827 0.3653846
-0.01231727 0.3870226 0.3605769
-0.07230134 -0.3474459 0.3798077
-0.2580054 -0.3032674 0.3798077
-0.1602314 -0.2793373 0.3701923
-0.2530916 -0.2517257 0.375
0.3212763 -0.07317073 0.3701923
-0.2144553 0.221353 0.375
0.2333709 0.2719742 0.375
-0.1092942 0.3502071 0.3798077
-0.3188112 0.1366774 0.3894231
0.2284324 0.2176714 0.3846154
0.2497966 0.2075472 0.3990385
0.07394473 0.3078693 0.3942308
0.1898126 -0.2701335 0.4038461
0.1939293 -0.2158307 0.4038461
0.3040206 0.005982513 0.4038461
-0.3278581 0.03175334 0.4086539
-0.114208 0.2986654 0.4038461
-0.06903097 -0.2940635 0.4134615
0.2111768 -0.2646111 0.4182692
-0.1766572 -0.1937414 0.4182692
-0.2456881 -0.1440405 0.4182692
0.3245631 -0.01978831 0.4134615
0.2991068 -0.04739991 0.4278846
-0.350044 0.03727566 0.4230769
0.2448664 0.1560055 0.4278846
-0.01807739 0.3373217 0.4278846
-0.1857041 -0.302347 0.4375
0.3155408 -0.1228716 0.4326923
-0.3319748 -0.01886792 0.4326923
0.3286798 0.0345145 0.4326923
-0.2021381 0.3824206 0.4375
0.3073156 0.06212609 0.4423077
-0.2456881 0.1468017 0.4423077
0.1437974 0.3391624 0.4471154
0.09203856 -0.314312 0.4567308
-0.267874 -0.1265531 0.4567308
-0.3459355 0.09249885 0.4567308
0.09613062 -0.2600092 0.4663461
0.2185638 0.1127474 0.4663461
0.1602232 0.2434423 0.4615385
0.1396807 0.28578 0.4615385
0.08710014 -0.3686148 0.4711539
-0.2374629 -0.03727566 0.4807692
-0.2596488 -0.01518638 0.4855769
-0.2251457 0.1201104 0.4855769
-0.2202155 0.1725725 0.4807692
-0.1199681 0.2489646 0.4855769
0.04355007 0.2471238 0.4855769
0.1166731 -0.2820985 0.4903846
-0.08546496 -0.2195122 0.4951923
0.0295894 -0.2149103 0.4951923
0.2136501 -0.2093879 0.4951923
-0.02300758 0.2867004 0.4951923
0.04848848 0.3014266 0.4903846
-0.1824173 -0.245283 0.5096154
-0.1479141 0.1909802 0.5096154
-0.2424013 0.2038656 0.5096154
0.02054249 -0.3198343 0.5192308
-0.2555403 0.04003682 0.5192308
-0.1741921 -0.135757 0.5288461
-0.2645872 -0.06948919 0.5240384
0.05177528 0.3575702 0.5288461
0.01560407 -0.3722964 0.5384616
-0.1594097 -0.2204326 0.5336539
0.1544877 0.1937414 0.5384616
-0.04684509 0.2710539 0.5384616
-0.2333709 0.314312 0.5336539
0.1240766 -0.1734929 0.5480769
-0.2514482 0.09618039 0.5480769
0.2218506 0.1698113 0.5432692
-0.1248983 0.1992637 0.5480769
-0.2382846 0.2590888 0.5480769
-0.09120042 -0.2710539 0.5528846
-0.06738757 -0.2360792 0.5576923
0.1955727 -0.1550851 0.5528846
0.1996647 -0.1007823 0.5528846
-0.243223 -0.08697653 0.5528846
0.2037815 -0.04647952 0.5576923
0.03861987 0.1946618 0.5528846
0.1199599 -0.2259549 0.5673077
-0.155293 -0.1670502 0.5673077
0.2169369 -0.1541647 0.5625
0.2382846 0.1081454 0.5673077
0.1331235 0.2351588 0.5625
0.02382928 -0.2655315 0.5721154
-0.2309058 0.07040957 0.5769231
-0.1536496 0.1385182 0.5865384
0.1495493 0.1431201 0.5817308
-0.05175885 0.2195122 0.5865384
0.06655765 0.26185 0.5817308
-0.1396889 0.302347 0.5817308
-0.2095416 0.3354809 0.5865384
-0.001643399 -0.2940635 0.5913461
0.2251457 -0.04832029 0.5913461
0.2120067 0.06396686 0.5961539
-0.2136501 0.2830189 0.5913461
0.1068209 -0.09157846 0.6009616
-0.1709217 -0.07869305 0.6009616
0.2292541 0.005062126 0.6009616
0.1018907 -0.1449609 0.6153846
0.2210289 -0.09986194 0.6105769
0.1314801 -0.06580764 0.6153846
0.03285976 0.1431201 0.6153846
-0.06409255 -0.180856 0.6298077
0.1273634 -0.1182697 0.6298077
-0.1429757 -0.006902899 0.6201923
0.2070683 0.01150483 0.6298077
-0.03368146 0.1872987 0.6298077
-0.1454408 0.2489646 0.6201923
-0.2358195 0.0207087 0.6346154
-0.158588 0.08513576 0.6346154
0.06162746 0.2112287 0.6346154
0.001643399 -0.2379199 0.6442308
0.03123279 -0.1569259 0.6490384
0.1355722 -0.01150483 0.6490384
0.1396807 0.0409572 0.6442308
-0.03039466 0.2406811 0.6490384
0.09695232 -0.1974229 0.6538461
-0.1396889 0.04647952 0.6538461
0.1273634 0.1836171 0.6586539
0.01478237 -0.07317073 0.6682692
-0.1528279 -0.1099862 0.6875
-0.08052655 -0.1044639 0.6826923
0.2325492 0.06120571 0.6826923
0.1183165 0.07593189 0.6875
-0.08463504 -0.1578463 0.6923077
-0.03944157 0.1366774 0.6971154
-0.1314801 0.152324 0.6971154
-0.06327086 0.1136677 0.7067308
0.1134027 0.02254947 0.7115384
-0.1643399 0.0345145 0.7163461
-0.1363939 0.1007823 0.7163461
-0.1495575 -0.05568339 0.7259616
-0.1684566 -0.01886792 0.7211539
0.1216115 0.1320755 0.7259616
-0.06820927 0.06028532 0.7307692
0.142154 0.09710078 0.7355769
-0.04931019 0.03267372 0.7403846
-0.05916236 0.1698113 0.7403846
-0.07312303 0.006902899 0.7692308
0.04190667 0.005062126 0.7692308
0.02629438 0.09433962 0.7692308
0.05504565 0.1633686 0.7644231
0.008225211 -0.123792 0.7740384
-0.05834066 -0.07040957 0.7740384
-0.07723974 -0.04647952 0.7788461
0.03696826 -0.04739991 0.7788461
-0.06244916 -0.1219512 0.7836539
0.1076426 -0.02991256 0.7836539
-0.05422395 -0.01794754 0.7884616
-0.04520169 0.08697653 0.7836539
0.003286798 -0.1780948 0.7932692
0.03123279 -0.09618039 0.875
0.04848848 0.1145881 0.8701923
0.01560407 -0.009664059 0.8846154
