# .PCD v.7 - Point Cloud Data file format
VERSION .7
FIELDS x y z
SIZE 4 4 4
TYPE F F F
COUNT 1 1 1
WIDTH 1055
HEIGHT 1
VIEWPOINT 0 0 0 1 0 0 0
POINTS 1055
DATA ascii
0.1446191 0.838012 -0.9807692
0.05422395 0.8665439 -0.9759616
0.112581 0.7386102 -0.9663461
0.1273634 0.6272435 -0.9567308
0.04519347 0.7606995 -0.9519231
0.2407497 0.8821905 -0.9519231
0.3073156 0.5803037 -0.9471154
0.4979499 0.6511735 -0.9423077
-0.05175885 0.7248044 -0.9423077
-0.8636061 -0.8048781 -0.9326923
0.1224332 0.5757018 -0.9326923
0.01724747 0.7036355 -0.9326923
0.2949983 0.7156006 -0.9375
-0.04684509 0.7781869 -0.9375
0.04931019 0.8140819 -0.9375
-0.4527564 0.8288081 -0.9375
-0.1602314 0.8582605 -0.9326923
-0.03861987 0.8849517 -0.9326923
0.2448664 0.9374137 -0.9375
-0.8677228 -0.8573401 -0.9278846
-0.8594976 -0.752416 -0.9278846
-0.6704985 -0.6392085 -0.9230769
-0.06903097 0.5140359 -0.9230769
0.3023772 0.5278417 -0.9278846
0.0271243 0.549931 -0.9230769
0.4930197 0.5987114 -0.9278846
0.02218588 0.7588587 -0.9278846
-0.2349978 0.8269673 -0.9278846
-0.06574417 0.8453751 -0.9230769
-0.1355722 0.8591809 -0.9230769
0.3081373 0.8794293 -0.9230769
-0.03450316 0.9374137 -0.9230769
-0.4749423 -0.8849517 -0.9134616
-0.87428 -0.6530142 -0.9182692
-0.8701879 -0.5987114 -0.9182692
-0.2908898 0.423838 -0.9134616
0.4568649 0.4440865 -0.9182692
-0.1783006 0.6392085 -0.9182692
0.2226723 0.6695812 -0.9182692
-0.5373996 0.6971928 -0.9182692
-0.3434704 0.6944317 -0.9134616
-0.2440447 0.7220433 -0.9182692
0.2070683 0.7791072 -0.9182692
0.02547268 0.8131616 -0.9134616
0.3286798 0.8462954 -0.9182692
-0.4486479 0.8840313 -0.9134616
0.4239887 0.8840313 -0.9182692
0.2193855 0.9420156 -0.9182692
-0.3977107 -0.890474 -0.9038461
-0.3747032 -0.8591809 -0.9086539
-0.6606545 -0.7763461 -0.9038461
-0.8792184 -0.7082375 -0.9086539
-0.6754369 -0.6944317 -0.9038461
-0.7526684 -0.6723424 -0.9086539
-0.6170963 -0.2508053 -0.9086539
-0.6261268 -0.09157846 -0.9086539
0.2892382 0.3695352 -0.9086539
0.3853688 0.4063507 -0.9038461
-0.2867731 0.4790612 -0.9038461
0.004108497 0.5416475 -0.9086539
-0.5423298 0.6447308 -0.9038461
-0.3475789 0.6419696 -0.9038461
0.5858799 0.6456512 -0.9086539
0.1076426 0.6861482 -0.9086539
0.04026327 0.7091578 -0.9086539
0.7691189 0.7257248 -0.9038461
-0.3393537 0.7478141 -0.9086539
0.1158514 0.7956742 -0.9086539
-0.1396889 0.8067188 -0.9086539
-0.5497169 0.8370916 -0.9038461
0.2152935 0.8877128 -0.9038461
0.7814361 0.8840313 -0.9038461
0.05751074 0.9226875 -0.9038461
-0.3845553 -0.7257248 -0.8990384
-0.8553809 -0.6981132 -0.8942308
-0.7682972 -0.6051542 -0.8990384
-0.8463587 -0.5941095 -0.8990384
0.8479938 -0.3980672 -0.8990384
-0.8291029 -0.3861022 -0.8942308
-0.5382214 -0.2075472 -0.8990384
0.5341046 0.01150483 -0.8990384
0.6031356 0.02162908 -0.8942308
-0.4856161 0.1468017 -0.8990384
-0.3747032 0.3244363 -0.8942308
0.267874 0.3897837 -0.8942308
0.5727245 0.4873447 -0.8990384
0.02218588 0.4983893 -0.8942308
0.1174948 0.5232397 -0.8990384
-0.06492247 0.5674183 -0.8990384
0.2177421 0.6161988 -0.8942308
0.7378861 0.6244823 -0.8942308
-0.4667253 0.6677405 -0.8942308
-0.2481532 0.6695812 -0.8990384
-0.4371523 0.7275656 -0.8990384
0.1347669 0.7358491 -0.8942308
0.2991068 0.7708237 -0.8990384
0.4823458 0.7708237 -0.8990384
-0.07065793 0.7910722 -0.8990384
0.2350143 0.8306489 -0.8990384
0.7773194 0.8315693 -0.8942308
0.5143839 0.8647032 -0.8990384
0.3122458 0.9355729 -0.8990384
0.1520226 0.9466176 -0.8990384
-0.1824173 -0.8527381 -0.8894231
-0.4708338 -0.8315693 -0.8894231
-0.4815077 -0.7137598 -0.8894231
-0.6474909 -0.6171192 -0.8846154
0.8315681 -0.6079153 -0.8846154
-0.66639 -0.5849057 -0.8894231
-0.8660794 -0.5425678 -0.8894231
-0.7502034 -0.3851818 -0.8846154
-0.8249944 -0.3327197 -0.8894231
-0.4420661 -0.221353 -0.8894231
0.8808618 0.02254947 -0.8846154
0.5349264 0.2913024 -0.8894231
0.8003352 0.3051082 -0.8894231
0.3599126 0.3925449 -0.8846154
-0.6516076 0.537966 -0.8894231
-0.3796169 0.5425678 -0.8846154
0.3106024 0.6355269 -0.8894231
-0.664763 0.6511735 -0.8894231
0.3147191 0.6889094 -0.8846154
0.9145597 0.683387 -0.8894231
-0.1446191 0.7551772 -0.8894231
0.5094454 0.8131616 -0.8894231
-0.7272122 0.8278877 -0.8846154
0.4198966 0.8324897 -0.8846154
0.5784764 0.8389323 -0.8894231
0.1479059 0.8941556 -0.8894231
-0.6203913 0.907041 -0.8846154
0.1290068 0.9604234 -0.8894231
-0.6935143 -0.9116429 -0.8701923
-0.7707459 -0.8803498 -0.875
-0.5694377 -0.8508974 -0.8701923
0.8800319 -0.8011965 -0.8701923
-0.4864379 -0.7680626 -0.875
-0.7576069 -0.7220433 -0.8701923
0.1807657 -0.7045559 -0.8701923
0.2029598 -0.6843074 -0.875
-0.8512724 -0.6447308 -0.8701923
0.1848824 -0.6493327 -0.8701923
-0.74856 -0.6180395 -0.8701923
0.3944157 -0.614358 -0.8798077
0.4831675 -0.6198804 -0.875
0.8972875 -0.5812241 -0.8701923
-0.662298 -0.5287621 -0.875
-0.6392822 -0.5121951 -0.875
0.4913763 -0.5149563 -0.8701923
-0.4404227 -0.464335 -0.875
0.5883286 -0.4201565 -0.8701923
0.5686078 -0.4155545 -0.8701923
0.4157799 -0.3502071 -0.875
-0.7461113 -0.330879 -0.8798077
-0.6129878 -0.1965025 -0.8701923
0.8463504 -0.1900598 -0.8701923
-0.7091184 -0.1468017 -0.8798077
0.7009096 -0.1210308 -0.875
-0.4289271 -0.05660377 -0.8701923
-0.8258162 -0.04924068 -0.8701923
0.9441326 0.01610677 -0.8701923
0.8019786 0.08329498 -0.875
0.8899087 0.1293143 -0.875
0.5513521 0.2231937 -0.875
-0.6688551 0.3271974 -0.8798077
0.2637573 0.3354809 -0.8701923
0.3558041 0.3382421 -0.8798077
0.8044438 0.3612517 -0.8798077
0.1758519 0.3999079 -0.8701923
-0.5866852 0.4008284 -0.8701923
0.8274513 0.4008284 -0.875
-0.3656563 0.4312011 -0.8798077
0.01807739 0.4459273 -0.8798077
0.3640046 0.4486884 -0.8701923
-0.2662306 0.4597331 -0.8798077
0.2046032 0.4578923 -0.8701923
-0.4601599 0.464335 -0.8701923
-0.09778223 0.464335 -0.875
-0.07476643 0.4624943 -0.875
0.8972875 0.4652554 -0.875
0.2974634 0.4772204 -0.8701923
-0.7543201 0.5112748 -0.8798077
-0.2621221 0.5112748 -0.8798077
0.7510415 0.5149563 -0.8701923
-0.8553809 0.537966 -0.8701923
-0.1626965 0.5434883 -0.8798077
0.464252 0.5536125 -0.875
-0.3755248 0.5968707 -0.8798077
0.4683605 0.6088357 -0.8701923
0.3779899 0.6134377 -0.8798077
0.4018192 0.6198804 -0.8701923
0.01231727 0.6530142 -0.8798077
0.2892382 0.6631385 -0.8701923
0.1306584 0.683387 -0.875
-0.6384605 0.6971928 -0.8798077
-0.1495575 0.7027152 -0.8701923
-0.763367 0.7128394 -0.8701923
-0.4585165 0.7772664 -0.875
0.3903072 0.7772664 -0.8701923
0.8381252 0.7956742 -0.875
-0.2613004 0.8085596 -0.8701923
-0.1651616 0.8048781 -0.8701923
-0.6516076 0.8159227 -0.8798077
-0.3574475 0.8159227 -0.8798077
0.7633588 0.9530603 -0.8701923
0.5497087 -0.8932351 -0.8605769
-0.889087 -0.8150023 -0.8605769
-0.8849703 -0.7606995 -0.8605769
0.5628724 -0.7358491 -0.8605769
-0.4576948 -0.6723424 -0.8605769
0.4609816 -0.6392085 -0.8653846
0.4650737 -0.5839853 -0.8653846
0.101069 -0.5306029 -0.8605769
0.4691822 -0.5296825 -0.8605769
-0.2719907 -0.504832 -0.8605769
0.4954848 -0.4624943 -0.8653846
0.6754369 -0.435803 -0.8653846
-0.3319748 -0.3317994 -0.8653846
-0.5480653 -0.3161528 -0.8605769
-0.5431351 -0.2609296 -0.8605769
0.6959794 -0.1725725 -0.8605769
-0.7000879 -0.0409572 -0.8653846
0.6220265 0.002300967 -0.8605769
-0.4946631 0.04371836 -0.8653846
-0.3886638 0.1670502 -0.8605769
0.634352 0.1615278 -0.8605769
-0.4732989 0.3060285 -0.8653846
-0.5694377 0.330879 -0.8653846
0.1955727 0.3520479 -0.8605769
-0.8923573 0.4054303 -0.8653846
0.08463504 0.4146341 -0.8605769
0.1084643 0.4183157 -0.8653846
-0.1963779 0.4247584 -0.8605769
0.2719825 0.4459273 -0.8605769
-0.8882653 0.4597331 -0.8653846
0.179944 0.4542108 -0.8653846
0.368943 0.5039116 -0.8653846
0.2087117 0.5112748 -0.8653846
-0.6474909 0.5913484 -0.8653846
-0.5472436 0.5941095 -0.8605769
0.007403512 0.5987114 -0.8605769
-0.6425772 0.6447308 -0.8605769
0.03450316 0.6585366 -0.8605769
0.7641805 0.6732628 -0.8653846
-0.8414202 0.6971928 -0.8653846
-0.2703473 0.7008744 -0.8605769
0.8529322 0.7202025 -0.8605769
0.2300758 0.7791072 -0.8605769
0.8570243 0.7735849 -0.8605769
0.0295894 0.8693051 -0.8653846
0.6023139 0.8601012 -0.8605769
-0.353339 0.8711459 -0.8653846
0.03368146 0.9236079 -0.8605769
0.5291662 -0.9088817 -0.8509616
0.07887493 -0.8048781 -0.8557692
0.7986919 -0.7919927 -0.8509616
-0.2941766 -0.7791072 -0.8509616
-0.6803671 -0.7459733 -0.8557692
-0.007403512 -0.7367694 -0.8557692
-0.7732109 -0.659457 -0.8557692
0.3681214 -0.6502531 -0.8557692
-0.6442206 -0.5637368 -0.8557692
0.3985325 -0.5600552 -0.8557692
0.5595773 -0.5232397 -0.8557692
-0.3672996 -0.5029913 -0.8509616
0.3122458 -0.4882651 -0.8509616
-0.340997 -0.4376438 -0.8557692
-0.9350858 -0.4063507 -0.8557692
0.9309937 -0.3916245 -0.8509616
0.7641805 -0.3888633 -0.8509616
-0.3541607 -0.3382421 -0.8557692
0.9351022 -0.3391624 -0.8557692
-0.6450423 -0.3078693 -0.8557692
-0.350044 -0.2830189 -0.8509616
-0.8208777 -0.2784169 -0.8557692
0.6688716 -0.2480442 -0.8509616
0.8603193 -0.2388403 -0.8557692
0.4280972 -0.1919006 -0.8557692
-0.608871 -0.1431201 -0.8509616
0.8685363 -0.1329959 -0.8509616
0.7855446 -0.1256328 -0.8509616
0.6943278 0.07961344 -0.8509616
-0.4157881 0.107225 -0.8509616
-0.6869325 0.1164289 -0.8557692
0.7255688 0.1955822 -0.8557692
-0.5036935 0.2323976 -0.8509616
-0.4987798 0.2867004 -0.8557692
0.4420825 0.2811781 -0.8557692
-0.5908019 0.3465255 -0.8557692
-0.3705865 0.3787391 -0.8509616
0.451113 0.3916245 -0.8509616
-0.464252 0.411873 -0.8557692
-0.5604072 0.4367234 -0.8557692
-0.7592503 0.4597331 -0.8509616
0.08875176 0.4689369 -0.8557692
0.6376387 0.4606535 -0.8557692
0.4872595 0.5480902 -0.8509616
-0.7502034 0.5646572 -0.8509616
0.5562905 0.5664979 -0.8557692
-0.08875176 0.5747814 -0.8509616
0.7329477 0.5720202 -0.8557692
-0.7723892 0.6051542 -0.8509616
0.2851297 0.6088357 -0.8509616
0.9096213 0.6300046 -0.8509616
-0.2744558 0.6456512 -0.8509616
-0.07558813 0.7386102 -0.8509616
0.593267 0.7533364 -0.8509616
0.4149582 0.7800276 -0.8509616
0.6853055 0.7956742 -0.8557692
0.9441326 0.8186839 -0.8509616
0.4856161 0.8278877 -0.8509616
0.1191382 0.8518178 -0.8509616
0.8422419 0.8508974 -0.8557692
0.8652495 0.8794293 -0.8509616
-0.7231037 0.8821905 -0.8557692
0.4568649 -0.9337322 -0.8461539
-0.1873475 -0.902439 -0.8413461
0.2777426 -0.9079614 -0.8461539
0.4658954 -0.8278877 -0.8461539
0.2867731 -0.8030373 -0.8413461
-0.4667253 -0.7763461 -0.8413461
-0.7822579 -0.7680626 -0.8413461
-0.5842201 -0.7542568 -0.8461539
-0.5612289 -0.7441325 -0.8413461
0.01313897 -0.7413714 -0.8461539
0.1092942 -0.7045559 -0.8461539
-0.5562905 -0.6907501 -0.8413461
-0.1701 -0.6935112 -0.8461539
0.3894855 -0.6649793 -0.8461539
-0.4535781 -0.6198804 -0.8461539
-0.4741206 -0.6033134 -0.8413461
0.1889909 -0.5941095 -0.8461539
-0.06492247 -0.5536125 -0.8413461
-0.4691904 -0.5480902 -0.8413461
-0.9441326 -0.5103543 -0.8461539
0.7345911 -0.5131155 -0.8461539
-0.05998406 -0.5011505 -0.8461539
0.6515995 -0.4689369 -0.8461539
-0.267874 -0.4496088 -0.8461539
0.760072 -0.4413254 -0.8413461
-0.4560514 -0.3851818 -0.8461539
-0.336905 -0.3842614 -0.8413461
0.3204546 -0.3824206 -0.8461539
-0.6220347 -0.3005062 -0.8413461
-0.5217873 -0.2728946 -0.8461539
-0.844707 -0.2682927 -0.8461539
-0.4239887 -0.2535665 -0.8461539
-0.8167692 -0.2250345 -0.8461539
-0.8397768 -0.2121491 -0.8461539
-0.7140568 -0.1983433 -0.8461539
-0.5127404 -0.1670502 -0.8413461
0.9605584 -0.02254947 -0.8461539
0.7124052 0.03911643 -0.8413461
0.4248104 0.06304648 -0.8413461
0.5382131 0.06672803 -0.8461539
0.6072441 0.07777266 -0.8413461
0.8849703 0.07685228 -0.8413461
-0.8126525 0.1173493 -0.8413461
-0.608871 0.1302347 -0.8413461
0.5464219 0.1716521 -0.8413461
-0.6047626 0.1836171 -0.8461539
0.9770089 0.1891394 -0.8461539
-0.8825052 0.2231937 -0.8413461
-0.9063345 0.2416015 -0.8461539
-0.7765059 0.2480442 -0.8413461
-0.3796169 0.2728946 -0.8413461
0.5546471 0.2774965 -0.8413461
0.8184044 0.2968247 -0.8461539
-0.4691904 0.3594109 -0.8413461
0.7378861 0.3557294 -0.8413461
-0.07888315 0.4109526 -0.8461539
-0.8644278 0.4330419 -0.8413461
-0.6606545 0.4339623 -0.8413461
-0.7855529 0.4440865 -0.8461539
0.3886638 0.4624943 -0.8461539
0.746933 0.4624943 -0.8413461
-0.5562905 0.4891855 -0.8413461
-0.8792184 0.5692591 -0.8461539
0.2128284 0.5655776 -0.8413461
-0.2793696 0.5913484 -0.8461539
0.649956 0.6244823 -0.8413461
0.7461113 0.7358491 -0.8413461
-0.634352 0.7505752 -0.8461539
0.5045317 0.7625403 -0.8413461
-0.5554688 0.7846295 -0.8461539
0.3229197 0.7956742 -0.8461539
0.3023772 0.8269673 -0.8461539
0.7543119 0.8444546 -0.8413461
-0.4248104 0.8886333 -0.8461539
0.3311449 0.9015186 -0.8413461
0.3352616 0.954901 -0.8413461
0.7222738 -0.914404 -0.8365384
-0.3796169 -0.9079614 -0.8365384
-0.8940008 -0.8702255 -0.8365384
0.6409256 -0.8545789 -0.8365384
0.7937534 -0.8453751 -0.8365384
-0.2990904 -0.83341 -0.8317308
-0.7666538 -0.8260469 -0.8317308
-0.492198 -0.821445 -0.8317308
-0.6853055 -0.8002761 -0.8365384
-0.1783006 -0.797515 -0.8365384
-0.01231727 -0.7901518 -0.8365384
-0.271169 -0.7699034 -0.8365384
0.08299164 -0.7496548 -0.8365384
0.6491343 -0.7487345 -0.8317308
0.3640046 -0.7045559 -0.8365384
0.8069088 -0.6815463 -0.8365384
-0.6532511 -0.6677405 -0.8365384
-0.4782373 -0.6576162 -0.8317308
0.6384605 -0.630925 -0.8365384
-0.3541607 -0.5941095 -0.8317308
0.746933 -0.5987114 -0.8365384
-0.2547351 -0.561896 -0.8317308
0.8340167 -0.5526921 -0.8317308
-0.7650104 -0.5480902 -0.8365384
0.6664065 -0.5398067 -0.8317308
0.6466857 -0.5223194 -0.8317308
0.5636941 -0.4689369 -0.8317308
-0.3631829 -0.4477681 -0.8365384
-0.8537375 -0.3759779 -0.8365384
-0.5530037 -0.3686148 -0.8317308
0.4190749 -0.2959043 -0.8365384
0.4905546 -0.2535665 -0.8317308
-0.5176789 -0.2195122 -0.8317308
0.4946631 -0.1983433 -0.8317308
0.6729636 -0.1937414 -0.8365384
0.9474195 -0.1799356 -0.8317308
-0.8356601 -0.1578463 -0.8365384
-0.7239254 -0.054763 -0.8365384
0.6853055 -0.02991256 -0.8317308
-0.817591 0.06212609 -0.8365384
0.4486397 0.07317073 -0.8317308
0.8668929 0.08513576 -0.8365384
0.6302353 0.1099862 -0.8365384
0.6113362 0.1339162 -0.8317308
-0.4067412 0.2185918 -0.8365384
-0.8036221 0.2277957 -0.8317308
0.8972875 0.2360792 -0.8317308
0.3508657 0.2848596 -0.8317308
0.8841486 0.3032674 -0.8365384
0.9687836 0.3446848 -0.8317308
-0.565321 0.3851818 -0.8317308
0.5628724 0.383341 -0.8365384
0.292525 0.4256788 -0.8365384
0.5464219 0.4578923 -0.8317308
-0.6565378 0.4864243 -0.8365384
0.6409256 0.5167971 -0.8365384
-0.8512724 0.5922688 -0.8365384
-0.7461113 0.6180395 -0.8317308
-0.8751017 0.6235619 -0.8365384
0.1018907 0.6336861 -0.8365384
-0.8463587 0.6465716 -0.8365384
0.3812768 0.6695812 -0.8317308
0.9309937 0.6612977 -0.8317308
-0.4428878 0.6760239 -0.8317308
-0.05751896 0.6751035 -0.8365384
0.1963944 0.6723424 -0.8365384
0.7411729 0.6806259 -0.8365384
-0.3672996 0.7073171 -0.8365384
-0.5341046 0.7533364 -0.8365384
-0.1709217 0.7514956 -0.8365384
0.6631114 0.7892315 -0.8317308
0.7723892 0.780948 -0.8365384
-0.5299962 0.8057984 -0.8365384
0.5973755 0.8076392 -0.8317308
0.4897246 0.8831109 -0.8365384
-0.5464219 0.8932351 -0.8365384
-0.5209656 0.9125633 -0.8365384
-0.2530916 0.9180856 -0.8317308
0.5858799 0.9484584 -0.8365384
0.6754369 0.9530603 -0.8365384
-0.5004232 -0.9300506 -0.8269231
0.636817 -0.907041 -0.8269231
-0.593267 -0.861942 -0.8269231
0.09613062 -0.8610216 -0.8221154
0.7255688 -0.8610216 -0.8221154
0.2818347 -0.8545789 -0.8269231
-0.2760828 -0.8223654 -0.8269231
0.8972875 -0.8113208 -0.8221154
-0.7625371 -0.7735849 -0.8269231
-0.3903072 -0.7772664 -0.8269231
-0.1027124 -0.7634606 -0.8221154
-0.004116714 -0.6806259 -0.8269231
0.5661591 -0.6806259 -0.8221154
-0.1659833 -0.6392085 -0.8269231
0.913738 -0.6014726 -0.8221154
-0.350044 -0.5407271 -0.8269231
0.7510415 -0.545329 -0.8269231
0.8381252 -0.5002301 -0.8221154
-0.3459355 -0.4882651 -0.8221154
-0.2456881 -0.4551311 -0.8221154
0.8430637 -0.4477681 -0.8269231
0.3853688 -0.4293603 -0.8269231
-0.732126 -0.4081914 -0.8269231
-0.3590744 -0.3925449 -0.8221154
0.3894855 -0.3750575 -0.8269231
0.691041 -0.2241141 -0.8221154
-0.6359954 -0.1974229 -0.8269231
0.5850582 -0.1946618 -0.8221154
0.760072 -0.1854579 -0.8221154
0.4313922 -0.1385182 -0.8221154
-0.6047626 -0.08881731 -0.8221154
0.7732109 -0.02162908 -0.8221154
-0.4248104 -0.0004601933 -0.8269231
-0.9005826 0.01426599 -0.8221154
-0.6187397 0.01978831 -0.8269231
-0.5916236 0.06948919 -0.8269231
-0.4116714 0.1633686 -0.8221154
-0.8866219 0.1707317 -0.8221154
0.8102039 0.1909802 -0.8269231
0.8751017 0.1937414 -0.8221154
-0.3845553 0.221353 -0.8269231
0.8142959 0.2443626 -0.8269231
0.7296773 0.2508053 -0.8221154
0.9646751 0.2894616 -0.8221154
0.7115835 0.3005062 -0.8221154
0.4461746 0.3373217 -0.8269231
0.4700121 0.3364013 -0.8269231
-0.271169 0.4081914 -0.8269231
-0.1931076 0.4799816 -0.8269231
0.8118473 0.4716981 -0.8269231
-0.1676349 0.492867 -0.8221154
-0.001643399 0.4901058 -0.8269231
-0.4560514 0.5186378 -0.8221154
0.6639414 0.5324436 -0.8221154
0.5801198 0.5959503 -0.8221154
0.0295894 0.6069949 -0.8221154
0.926877 0.6088357 -0.8269231
0.5595773 0.6217211 -0.8269231
-0.1544713 0.6520939 -0.8269231
0.5645157 0.6778647 -0.8269231
0.3853688 0.723884 -0.8269231
-0.6573595 0.7625403 -0.8269231
0.5727245 0.7873907 -0.8221154
0.7502198 0.7901518 -0.8269231
-0.3360833 0.8030373 -0.8269231
0.861141 0.8278877 -0.8221154
0.6056007 0.914404 -0.8269231
0.3459272 -0.9226875 -0.8173077
-0.5743679 -0.9005982 -0.8125
-0.02136419 -0.8987575 -0.8173077
-0.3032071 -0.8877128 -0.8173077
-0.79211 -0.8766682 -0.8125
-0.08628666 -0.8150023 -0.8173077
0.8134742 -0.8159227 -0.8173077
0.2637573 -0.80948 -0.8125
0.1043558 -0.7560976 -0.8173077
0.7378861 -0.7036355 -0.8125
-0.580128 -0.6971928 -0.8173077
0.6532428 -0.6962724 -0.8173077
0.633522 -0.6852278 -0.8173077
0.6573595 -0.64289 -0.8125
0.3031989 -0.5922688 -0.8125
0.661468 -0.5913484 -0.8173077
-0.2769045 -0.5591348 -0.8173077
-0.8438853 -0.5388863 -0.8173077
-0.8627844 -0.4836631 -0.8173077
-0.5398647 -0.4818224 -0.8125
0.9129163 -0.3630925 -0.8125
0.3245631 -0.3281178 -0.8173077
0.5957321 -0.3124712 -0.8173077
0.6639414 -0.3014266 -0.8125
-0.7428245 -0.2728946 -0.8125
-0.718987 -0.2498849 -0.8173077
0.9260553 -0.2001841 -0.8173077
0.4108497 -0.1007823 -0.8173077
-0.705848 -0.09157846 -0.8125
0.5242525 -0.09157846 -0.8125
-0.5045152 -0.06028532 -0.8173077
0.7041964 -0.06580764 -0.8173077
0.9383726 -0.03635527 -0.8125
0.857846 -0.02346986 -0.8125
0.8619627 0.03175334 -0.8173077
0.4527564 0.1256328 -0.8173077
-0.915365 0.1339162 -0.8173077
0.6984445 0.1375978 -0.8173077
-0.7863746 0.1449609 -0.8125
0.4568649 0.1780948 -0.8173077
0.6154529 0.1891394 -0.8125
0.9556447 0.1817763 -0.8125
0.4650737 0.2839392 -0.8125
-0.902226 0.297745 -0.8125
-0.2801913 0.302347 -0.8125
-0.8693662 0.3824206 -0.8125
-0.6655847 0.3815002 -0.8173077
-0.1027124 0.4127934 -0.8125
0.4593382 0.5011505 -0.8173077
0.183239 0.5103543 -0.8125
-0.09366552 0.521399 -0.8173077
0.5760113 0.5434883 -0.8173077
-0.158588 0.5996318 -0.8173077
0.4050896 0.6751035 -0.8173077
-0.1750138 0.6981132 -0.8173077
0.2251457 0.7266452 -0.8173077
0.6803671 0.7450529 -0.8125
0.1380373 0.7910722 -0.8125
0.2095334 0.8370916 -0.8173077
0.393594 0.83341 -0.8173077
-0.5258794 0.8601012 -0.8125
-0.2571837 0.8637828 -0.8173077
0.4272755 0.9420156 -0.8125
0.07394473 -0.8573401 -0.8076923
0.5530037 -0.8389323 -0.8076923
0.008225211 -0.792913 -0.8076923
-0.08216994 -0.7625403 -0.8076923
0.1980214 -0.7340083 -0.8076923
0.8258079 -0.6576162 -0.8076923
0.9087996 -0.6539347 -0.8076923
-0.5488952 -0.585826 -0.8028846
-0.1618748 -0.5867465 -0.8076923
-0.659003 -0.4716981 -0.8076923
0.1043558 -0.4744593 -0.8076923
0.5825931 -0.4707777 -0.8028846
0.3155408 -0.4321215 -0.8028846
0.6548945 -0.4109526 -0.8028846
-0.4371523 -0.4091118 -0.8028846
0.8274513 -0.4072711 -0.8076923
0.410028 -0.3999079 -0.8076923
0.6787238 -0.3815002 -0.8076923
0.7510415 -0.2940635 -0.8028846
0.9219468 -0.2535665 -0.8028846
0.423167 -0.2425219 -0.8028846
-0.535748 -0.1486424 -0.8028846
0.4987715 -0.1431201 -0.8076923
0.9301637 -0.1458813 -0.8028846
0.9342805 -0.09065808 -0.8028846
-0.7995136 -0.0133456 -0.8076923
-0.7198087 0.0004601933 -0.8076923
-0.5965538 0.01702715 -0.8028846
-0.5176789 0.07040957 -0.8076923
-0.7904667 0.09157846 -0.8028846
0.3623612 0.1458813 -0.8076923
-0.5086319 0.1790152 -0.8028846
0.702553 0.192821 -0.8028846
0.9597367 0.2360792 -0.8028846
0.7066697 0.2462034 -0.8028846
0.8792102 0.2498849 -0.8028846
0.9802792 0.2434423 -0.8028846
-0.4034462 0.273815 -0.8076923
-0.7732109 0.3032674 -0.8028846
0.9055128 0.3437644 -0.8028846
0.6318787 0.4081914 -0.8028846
0.6548945 0.4265992 -0.8028846
0.913738 0.4496088 -0.8028846
0.7239172 0.4652554 -0.8076923
-0.385377 0.4910262 -0.8076923
0.09203856 0.5250806 -0.8028846
-0.4519347 0.5720202 -0.8028846
-0.1840607 0.5895076 -0.8076923
-0.6713202 0.5996318 -0.8028846
-0.5694377 0.6217211 -0.8028846
-0.06244916 0.6235619 -0.8076923
0.4716555 0.6649793 -0.8076923
-0.662298 0.7100782 -0.8028846
0.475764 0.7192821 -0.8076923
0.4092063 0.7294064 -0.8028846
-0.5604072 0.7321675 -0.8076923
0.6581813 0.7367694 -0.8076923
0.9391943 0.7680626 -0.8028846
0.9219468 0.7938334 -0.8076923
-0.7551418 0.8251265 -0.8076923
-0.4297488 0.8370916 -0.8076923
0.4938414 0.9401749 -0.8076923
0.7041964 -0.8950759 -0.7980769
-0.09120042 -0.8665439 -0.7980769
0.350044 -0.8665439 -0.7980769
0.816761 -0.7634606 -0.7932692
-0.1750138 -0.7441325 -0.7932692
0.6285918 -0.7395306 -0.7932692
0.8019786 -0.7340083 -0.7932692
-0.4634303 -0.7220433 -0.7980769
-0.2908898 -0.7220433 -0.7932692
0.8208777 -0.7100782 -0.7980769
0.9046911 -0.7045559 -0.7980769
0.4552215 -0.6907501 -0.7980769
0.9687836 -0.6953521 -0.7980769
-0.5530037 -0.6373677 -0.7980769
-0.08957346 -0.5977911 -0.7980769
0.995908 -0.578463 -0.7932692
0.0295894 -0.5287621 -0.7980769
-0.7411729 -0.5112748 -0.7980769
0.8192343 -0.5167971 -0.7980769
-0.08134825 -0.4873447 -0.7932692
0.8233429 -0.4615739 -0.7980769
0.9260553 -0.4422458 -0.7932692
0.7428163 -0.4026691 -0.7932692
0.8504671 -0.3419236 -0.7932692
-0.7231037 -0.3014266 -0.7980769
0.6039573 -0.2066268 -0.7980769
0.7641805 -0.1302347 -0.7932692
0.8488237 -0.1311551 -0.7932692
0.5028883 -0.08789691 -0.7980769
0.788018 -0.07132996 -0.7932692
-0.8044519 -0.06488726 -0.7932692
-0.5267012 -0.04003682 -0.7980769
-0.6014922 -0.03543488 -0.7932692
0.7074915 -0.01242522 -0.7932692
-0.5225926 0.01426599 -0.7980769
0.7764978 0.03359411 -0.7932692
-0.6146312 0.07685228 -0.7980769
0.7814361 0.08973769 -0.7932692
-0.7066697 0.1624482 -0.7980769
-0.8093821 0.1734929 -0.7932692
-0.6836622 0.1716521 -0.7932692
0.7896613 0.2001841 -0.7932692
0.6417472 0.2682927 -0.7932692
-0.6754369 0.2774965 -0.7932692
-0.87428 0.3299586 -0.7980769
-0.6935143 0.3253567 -0.7932692
0.645864 0.3207547 -0.7980769
0.9885044 0.3492867 -0.7980769
0.9096213 0.3962264 -0.7980769
0.198843 0.4072711 -0.7980769
-0.3903072 0.4376438 -0.7980769
0.4782291 0.4431661 -0.7980769
0.8307464 0.4569719 -0.7932692
-0.1889991 0.5352048 -0.7980769
0.2793696 0.5563737 -0.7980769
0.9219468 0.5572941 -0.7980769
0.09613062 0.5803037 -0.7980769
-0.3541607 0.5931891 -0.7980769
-0.7691025 0.6612977 -0.7980769
-0.08134825 0.6861482 -0.7932692
0.5883286 0.7027152 -0.7980769
-0.2662306 0.7588587 -0.7932692
-0.04520169 0.8361712 -0.7980769
0.9260553 0.8490566 -0.7932692
-0.6483126 0.8720663 -0.7980769
0.7576069 0.9015186 -0.7932692
0.8701879 -0.9061206 -0.7836539
0.1709217 -0.80948 -0.7884616
0.4691822 -0.7735849 -0.7884616
0.3582692 -0.757018 -0.7836539
0.9005744 -0.757018 -0.7836539
-0.1963779 -0.7349287 -0.7836539
-0.6581813 -0.7183617 -0.7884616
-0.3590744 -0.6447308 -0.7836539
0.5497087 -0.630925 -0.7884616
0.8102039 -0.626323 -0.7836539
0.9770089 -0.5849057 -0.7884616
0.004108497 -0.5692591 -0.7884616
0.4856161 -0.5637368 -0.7836539
0.7543119 -0.4910262 -0.7836539
0.03368146 -0.4763001 -0.7884616
0.7378861 -0.4560515 -0.7836539
-0.5579422 -0.4219972 -0.7884616
0.5710729 -0.3575702 -0.7884616
0.4856161 -0.3069489 -0.7836539
0.9170083 -0.3078693 -0.7884616
-0.6417555 -0.2508053 -0.7836539
0.9424893 -0.2314772 -0.7884616
-0.4198802 -0.1992637 -0.7884616
0.7797928 -0.1753336 -0.7836539
-0.7296609 -0.107225 -0.7836539
0.954823 -0.07317073 -0.7836539
-0.7115835 0.1099862 -0.7836539
-0.5135621 0.1247124 -0.7836539
0.5406864 0.1210308 -0.7836539
0.4330356 0.176254 -0.7884616
0.8923738 0.1854579 -0.7884616
0.4609816 0.2323976 -0.7836539
-0.6014922 0.2406811 -0.7884616
-0.6984445 0.2728946 -0.7836539
-0.5965538 0.2940635 -0.7836539
-0.7691025 0.3557294 -0.7884616
-0.2769045 0.3557294 -0.7884616
0.5373914 0.3502071 -0.7884616
-0.2982687 0.3741371 -0.7836539
0.659003 0.480902 -0.7884616
-0.6803671 0.4910262 -0.7884616
0.4823458 0.4965486 -0.7884616
-0.5784846 0.5131155 -0.7884616
0.8348384 0.5103543 -0.7884616
-0.5743679 0.5683387 -0.7884616
0.8192343 0.5812241 -0.7884616
-0.4478262 0.6254027 -0.7884616
0.8241645 0.6355269 -0.7836539
-0.565321 0.6769443 -0.7884616
0.4996015 0.7100782 -0.7836539
-0.7378861 0.7257248 -0.7884616
-0.760072 0.7708237 -0.7884616
0.6664065 0.8462954 -0.7884616
0.5809415 0.8969167 -0.7836539
0.784723 -0.9530603 -0.7788461
0.5439733 -0.9420156 -0.7788461
-0.2095416 -0.8996779 -0.7788461
0.1848824 -0.890474 -0.7788461
0.7888397 -0.8987575 -0.7740384
0.4601599 -0.878509 -0.7788461
-0.2046032 -0.8444546 -0.7788461
0.09941742 -0.8067188 -0.7788461
0.8825052 -0.7422917 -0.7788461
0.9827443 -0.7367694 -0.7740384
-0.267874 -0.7156006 -0.7788461
-0.07888315 -0.7082375 -0.7788461
0.01642577 -0.6861482 -0.7740384
-0.5760113 -0.6419696 -0.7788461
0.1166731 -0.5968707 -0.7740384
0.02547268 -0.5803037 -0.7788461
0.2801913 -0.5895076 -0.7788461
0.1922859 -0.5361252 -0.7740384
-0.4461828 -0.5121951 -0.7788461
0.008225211 -0.5131155 -0.7740384
0.6696768 -0.4855039 -0.7788461
-0.8356601 -0.4330419 -0.7740384
-0.6507778 -0.3603313 -0.7788461
0.659003 -0.354809 -0.7788461
-0.8504671 -0.3207547 -0.7788461
0.6820105 -0.3281178 -0.7788461
0.771584 -0.2802577 -0.7740384
0.5990189 -0.2581684 -0.7788461
0.5152056 -0.1955822 -0.7740384
0.5924371 -0.08329498 -0.7740384
0.7674755 -0.07409112 -0.7740384
0.5069804 -0.03359411 -0.7788461
0.4396174 -0.02991256 -0.7740384
-0.6976228 0.01518638 -0.7788461
0.4190749 0.01150483 -0.7788461
-0.7165219 0.05660377 -0.7740384
0.9671403 0.08605614 -0.7788461
0.9712487 0.1385182 -0.7788461
0.340997 0.1780948 -0.7788461
0.6376387 0.216751 -0.7788461
-0.6795455 0.2250345 -0.7788461
0.4371441 0.2305568 -0.7788461
0.5283445 0.2406811 -0.7788461
0.3705865 0.2526461 -0.7788461
-0.8792184 0.2784169 -0.7740384
0.2826564 0.3216751 -0.7740384
0.7148703 0.3575702 -0.7788461
0.8874354 0.3603313 -0.7788461
-0.7650104 0.4091118 -0.7788461
0.1109376 0.4753796 -0.7740384
-0.3631829 0.4882651 -0.7788461
0.5505304 0.5149563 -0.7740384
0.7280339 0.5204786 -0.7740384
-0.4782373 0.5628164 -0.7740384
-0.08628666 0.6318454 -0.7788461
0.8471721 0.6705016 -0.7740384
0.8323898 0.7450529 -0.7788461
-0.6269485 0.8582605 -0.7740384
0.8742964 -0.8518178 -0.7644231
-0.1076508 -0.8159227 -0.7692308
0.1742085 -0.7542568 -0.7644231
0.2670523 -0.752416 -0.7644231
0.02054249 -0.6318454 -0.7644231
-0.0008216994 -0.6226415 -0.7644231
-0.5719028 -0.585826 -0.7644231
0.6417472 -0.573861 -0.7644231
-0.7461113 -0.5628164 -0.7692308
0.2842998 -0.533364 -0.7692308
0.9811009 -0.5278417 -0.7644231
0.1963944 -0.480902 -0.7644231
-0.8594976 -0.4284399 -0.7692308
-0.5316395 -0.3750575 -0.7644231
0.5020666 -0.3538886 -0.7692308
0.5751896 -0.302347 -0.7692308
0.6861272 -0.2747354 -0.7692308
-0.4166098 -0.1458813 -0.7644231
-0.5316395 -0.09249885 -0.7644231
0.8710096 -0.07777266 -0.7644231
-0.8233429 0.009664059 -0.7644231
0.9630318 0.03359411 -0.7644231
-0.8923573 0.1210308 -0.7644231
0.4280972 0.1210308 -0.7644231
0.9005744 0.2913024 -0.7644231
0.9835742 0.2968247 -0.7692308
0.7329477 0.3060285 -0.7692308
0.8216994 0.3529682 -0.7644231
-0.5834148 0.4597331 -0.7644231
-0.4872678 0.4551311 -0.7692308
-0.4823293 0.509434 -0.7692308
-0.8849703 0.5177174 -0.7692308
0.8389469 0.5646572 -0.7692308
-0.4741206 0.6171192 -0.7644231
-0.3730597 0.6557754 -0.7644231
-0.6310652 0.8057984 -0.7692308
0.6154529 -0.9033594 -0.7596154
-0.1125646 -0.8702255 -0.7596154
0.5316395 -0.849977 -0.7548077
0.1881692 -0.838012 -0.7548077
-0.3960674 -0.8297285 -0.7596154
-0.3730597 -0.8002761 -0.7548077
0.4461746 -0.7993557 -0.7596154
0.9786358 -0.7883111 -0.7548077
0.4724772 -0.7202025 -0.7596154
-0.09942563 -0.7063967 -0.7596154
-0.3640128 -0.6962724 -0.7596154
0.4765857 -0.66682 -0.7548077
0.7411729 -0.6484123 -0.7548077
0.09039515 -0.6364473 -0.7596154
-0.3779899 -0.6097561 -0.7596154
0.5776547 -0.521399 -0.7548077
0.8997527 -0.5232397 -0.7596154
-0.4667253 -0.4910262 -0.7548077
-0.8405985 -0.4845835 -0.7548077
-0.5628724 -0.4763001 -0.7548077
0.2884165 -0.4781408 -0.7548077
0.4050896 -0.4505292 -0.7596154
-0.5365697 -0.4265992 -0.7548077
-0.6557162 -0.4146341 -0.7548077
0.8307464 -0.3511275 -0.7548077
-0.5275228 -0.3216751 -0.7596154
-0.4297488 -0.3032674 -0.7596154
0.8537539 -0.2876208 -0.7596154
0.6754369 -0.135757 -0.7596154
0.9498845 -0.1247124 -0.7596154
-0.4355089 -0.107225 -0.7548077
0.5275228 -0.03635527 -0.7596154
0.4437095 0.02346986 -0.7596154
0.6244998 0.05936493 -0.7548077
0.5242525 0.1863783 -0.7596154
-0.9120946 0.1900598 -0.7548077
0.365648 0.2001841 -0.7548077
-0.7033829 0.2195122 -0.7596154
0.3451056 0.2323976 -0.7596154
-0.4963147 0.3456052 -0.7596154
-0.3952456 0.3851818 -0.7548077
-0.4913763 0.4008284 -0.7596154
-0.6853055 0.4367234 -0.7548077
0.5661591 0.4394846 -0.7596154
0.2744558 0.5029913 -0.7596154
0.9170083 0.504832 -0.7548077
-0.3590744 0.5407271 -0.7548077
0.6754369 0.6944317 -0.7548077
0.8274513 0.6907501 -0.7596154
0.6877707 0.8527381 -0.7548077
0.3968891 0.8895536 -0.7596154
0.6704985 0.9015186 -0.7596154
0.1610449 -0.9180856 -0.75
-0.2818429 -0.8711459 -0.7451923
-0.01807739 -0.8416935 -0.7451923
-0.2013164 -0.7883111 -0.7451923
0.2711608 -0.6962724 -0.7451923
0.5447949 -0.683387 -0.75
0.2974634 -0.64289 -0.75
0.5694295 -0.6254027 -0.7451923
0.09448722 -0.5812241 -0.75
0.8134742 -0.5701795 -0.7451923
-0.451113 -0.5628164 -0.7451923
-0.08628666 -0.5407271 -0.7451923
-0.158588 -0.5324436 -0.7403846
-0.5677861 -0.5296825 -0.75
0.2136501 -0.521399 -0.7451923
0.4001758 -0.5029913 -0.7403846
-0.7617154 -0.4901058 -0.7451923
0.9211168 -0.492867 -0.75
0.4716555 -0.4707777 -0.7451923
-0.4617869 -0.435803 -0.75
0.292525 -0.4229176 -0.75
0.4979499 -0.4054303 -0.7451923
-0.7288392 -0.3520479 -0.75
0.7666538 -0.3317994 -0.7451923
0.7543119 -0.2369995 -0.7403846
-0.4396174 -0.1624482 -0.7403846
-0.6335303 -0.140359 -0.7451923
0.5193141 -0.1421997 -0.75
0.5965538 -0.02623102 -0.7403846
-0.5012449 -0.005062126 -0.75
-0.7962267 0.0409572 -0.7451923
-0.8972875 0.06948919 -0.75
-0.6935143 0.0685688 -0.75
0.9465978 0.07501151 -0.75
-0.492198 0.1007823 -0.75
0.8693662 0.1431201 -0.7403846
-0.3032071 0.3198343 -0.75
-0.3993377 0.3299586 -0.75
-0.8989392 0.354809 -0.7403846
0.3788117 0.3594109 -0.75
0.6491343 0.3768983 -0.7403846
0.3911289 0.5186378 -0.7451923
0.8142959 0.5287621 -0.7451923
-0.2596488 0.5692591 -0.75
0.9038694 0.5793833 -0.75
0.6664065 0.5885872 -0.7451923
0.6704985 0.6419696 -0.7451923
0.5669644 0.7358491 -0.7403846
0.06820927 -0.9098021 -0.7307692
0.4371441 -0.9079614 -0.7307692
0.6195614 -0.8472158 -0.7355769
-0.368943 -0.7468937 -0.7355769
0.4502913 -0.7432122 -0.7355769
0.08545674 -0.6907501 -0.7355769
-0.1922859 -0.6778647 -0.7307692
-0.3829037 -0.6631385 -0.7307692
0.2752775 -0.6419696 -0.7355769
0.7239172 -0.6180395 -0.7307692
0.475764 -0.4146341 -0.7355769
-0.6285918 -0.3492867 -0.7355769
0.5061586 -0.2995858 -0.7355769
0.8397768 -0.2397607 -0.7355769
0.6877707 0.02899218 -0.7307692
0.7953969 0.03635527 -0.7307692
0.9498845 0.1293143 -0.7307692
0.8044438 0.1421997 -0.7355769
-0.4798807 0.2581684 -0.7307692
-0.8619627 0.4901058 -0.7355769
-0.5538254 0.5462494 -0.7355769
0.7534901 0.5720202 -0.7355769
0.8422419 0.61896 -0.7355769
0.3664697 -0.9226875 -0.7259616
0.4412608 -0.8527381 -0.7211539
0.3746949 -0.8177634 -0.7259616
0.5562905 -0.7827888 -0.7211539
0.732126 -0.752416 -0.7211539
0.1117593 -0.6474919 -0.7259616
0.3705865 -0.590428 -0.7259616
-0.3747032 -0.5536125 -0.7211539
0.3056722 -0.5361252 -0.7211539
0.9030477 -0.4670962 -0.7259616
0.4798807 -0.3594109 -0.7211539
0.7452814 -0.3456052 -0.7211539
0.9367291 -0.2811781 -0.7211539
0.5792981 -0.245283 -0.7259616
0.7748544 -0.2259549 -0.7211539
0.8619627 -0.180856 -0.7211539
0.5875069 -0.1366774 -0.7211539
-0.8093821 -0.1155085 -0.7259616
0.5143839 0.07869305 -0.7211539
0.5193141 0.1339162 -0.7211539
0.5571122 0.3345605 -0.7211539
-0.79211 0.3934653 -0.7259616
-0.6770803 0.5480902 -0.7259616
0.3533308 -0.80948 -0.7115384
0.535748 -0.7938334 -0.7163461
0.7198087 -0.6723424 -0.7163461
-0.07147963 -0.6014726 -0.7163461
0.7280339 -0.5628164 -0.7163461
0.9161866 -0.5434883 -0.7115384
-0.6376387 -0.4532904 -0.7163461
0.9071562 -0.411873 -0.7115384
0.8521106 -0.07317073 -0.7115384
0.7839013 0.1486424 -0.7115384
0.7929317 0.2563277 -0.7163461
-0.6902193 0.383341 -0.7163461
0.7403512 0.4137138 -0.7163461
-0.7839095 0.5020708 -0.7163461
0.002465098 -0.8416935 -0.7019231
0.6433989 -0.7965946 -0.7067308
0.1914642 -0.7827888 -0.7067308
0.2884165 -0.7459733 -0.7067308
0.292525 -0.6935112 -0.7067308
0.3788117 -0.4790612 -0.7067308
0.2177421 -0.4670962 -0.7067308
0.5102671 0.02439024 -0.7019231
0.8069088 -0.8628624 -0.6971154
0.7280339 -0.8039576 -0.6923077
0.6228564 -0.7901518 -0.6923077
0.2087117 -0.5720202 -0.6971154
0.3697647 -0.8683847 -0.6826923
0.3779899 -0.7634606 -0.6875
0.5390348 -0.7358491 -0.6826923
0.3829037 -0.7109986 -0.6826923
0.8899087 -0.6290842 -0.6875
0.5094454 -0.245283 -0.6875
0.8849703 -0.683387 -0.6682692
