# .PCD v.7 - Point Cloud Data file format
VERSION .7
FIELDS x y z
SIZE 4 4 4
TYPE F F F
COUNT 1 1 1
WIDTH 2013
HEIGHT 1
VIEWPOINT 0 0 0 1 0 0 0
POINTS 2013
DATA ascii
576493.3 4178024 310.5
576494.9 4178024 310.5
576499.9 4178024 310.5
576499.9 4178025 310.5
576494.8 4178026 310.5
576524.5 4178026 310.5
576494.3 4178026 310.5
576511.1 4178026 310.5
576525.6 4178026 310.5
576532.4 4178027 310.5
576498.6 4178027 310.5
576500 4178027 310.5
576534.4 4178028 310.5
576495.4 4178028 310.5
576532.2 4178029 310.5
576531.7 4178034 310.5
576536.8 4178034 310.5
576535.4 4178035 310.5
576524.8 4178036 310.5
576533.6 4178036 310.5
576530.9 4178042 310.5
576529.6 4178043 310.5
576497.9 4178021 310.51
576507.9 4178021 310.51
576511.7 4178021 310.52
576507.9 4178022 310.52
576509.9 4178022 310.51
576493.8 4178023 310.51
576496 4178023 310.52
576497.7 4178023 310.52
576501.6 4178023 310.51
576504.6 4178023 310.51
576518.1 4178024 310.51
576504.5 4178024 310.52
576510.9 4178024 310.52
576495.9 4178024 310.52
576512.9 4178025 310.51
576514.6 4178025 310.52
576531.4 4178024 310.51
576495.8 4178025 310.52
576498.8 4178026 310.52
576499.8 4178026 310.52
576519.4 4178026 310.52
576520.6 4178026 310.52
576498.7 4178026 310.51
576501.6 4178026 310.51
576526.1 4178026 310.51
576500.1 4178027 310.52
576512.7 4178027 310.52
576512.6 4178028 310.51
576494.4 4178028 310.51
576496.8 4178028 310.52
576499.9 4178028 310.52
576512.1 4178028 310.52
576520.9 4178028 310.52
576522.6 4178028 310.51
576529.4 4178028 310.51
576495.7 4178029 310.51
576502.8 4178029 310.51
576505.9 4178029 310.51
576526.9 4178030 310.52
576532.1 4178030 310.52
576534.1 4178030 310.51
576530.8 4178031 310.51
576535.8 4178032 310.52
576536.6 4178036 310.52
576536.9 4178037 310.51
576533.4 4178039 310.51
576534.6 4178039 310.52
576534.6 4178039 310.51
576529.4 4178041 310.51
576535.9 4178044 310.51
576499.2 4178021 310.53
576504.8 4178021 310.53
576506.6 4178022 310.53
576519.8 4178022 310.53
576506.6 4178023 310.53
576507.7 4178023 310.53
576514.2 4178024 310.53
576524.1 4178025 310.53
576507.5 4178025 310.53
576509.1 4178026 310.53
576502.7 4178026 310.53
576515.6 4178026 310.53
576498.2 4178027 310.53
576509.4 4178027 310.53
576515.9 4178027 310.53
576533.9 4178028 310.53
576497.1 4178028 310.53
576517.6 4178028 310.53
576525.9 4178029 310.53
576493.9 4178030 310.53
576523.4 4178032 310.53
576530.6 4178032 310.53
576531.6 4178035 310.53
576534.6 4178040 310.53
576535.6 4178047 310.53
576506.5 4178020 310.55
576497.6 4178020 310.55
576502 4178023 310.54
576513.1 4178023 310.54
576516.3 4178024 310.54
576494.4 4178026 310.55
576510.8 4178026 310.55
576519.5 4178026 310.55
576507.8 4178026 310.55
576495.6 4178026 310.54
576509 4178026 310.55
576513.9 4178026 310.54
576499.6 4178027 310.55
576507.8 4178027 310.55
576517.2 4178027 310.55
576522.2 4178028 310.54
576512.2 4178028 310.55
576498.1 4178029 310.54
576532.5 4178030 310.54
576534.2 4178030 310.55
576528.7 4178030 310.55
576532.5 4178030 310.55
576523.4 4178032 310.54
576532.2 4178034 310.54
576535.5 4178034 310.54
576537.2 4178034 310.54
576537.1 4178036 310.55
576536.9 4178038 310.55
576530.8 4178044 310.55
576536.4 4178044 310.54
576496.3 4178020 310.56
576498.9 4178022 310.56
576501.7 4178025 310.56
576509.1 4178025 310.56
576498.4 4178026 310.56
576505.8 4178026 310.56
576514.5 4178026 310.56
576517.3 4178026 310.56
576494.2 4178027 310.56
576495.5 4178027 310.56
576521 4178027 310.56
576494.2 4178027 310.56
576494.5 4178027 310.56
576502.5 4178028 310.56
576510.9 4178028 310.56
576501.3 4178029 310.56
576510.4 4178029 310.56
576520.8 4178029 310.56
576523.6 4178030 310.56
576530.3 4178031 310.56
576525.6 4178032 310.56
576532.2 4178033 310.56
576537.1 4178036 310.56
576535 4178040 310.56
576534 4178046 310.56
576500.2 4178023 310.58
576514.8 4178024 310.57
576498.5 4178025 310.58
576493.4 4178026 310.57
576501.3 4178026 310.57
576507.4 4178026 310.57
576498.3 4178026 310.58
576519.4 4178027 310.58
576498.5 4178028 310.57
576517.1 4178028 310.58
576496.7 4178028 310.58
576524.2 4178028 310.57
576525.4 4178029 310.58
576495.2 4178029 310.58
576522.4 4178029 310.57
576524 4178030 310.58
576525.6 4178031 310.57
576525.1 4178032 310.58
576493.9 4178032 310.58
576523.3 4178032 310.57
576535.2 4178032 310.58
576536.9 4178033 310.57
576535.2 4178033 310.57
576536.9 4178033 310.57
576524.8 4178035 310.58
576533.2 4178035 310.58
576534.9 4178035 310.58
576536.7 4178036 310.58
576535.4 4178036 310.57
576534.9 4178036 310.57
576536.6 4178037 310.57
576537 4178037 310.58
576536.5 4178038 310.58
576529.9 4178040 310.58
576534.9 4178040 310.58
576536.2 4178041 310.58
576531 4178042 310.57
576533.1 4178042 310.57
576530.9 4178043 310.58
576534.7 4178043 310.58
576529.8 4178024 310.59
576514.7 4178024 310.59
576501.8 4178025 310.59
576521.2 4178024 310.59
576509.6 4178025 310.59
576512.4 4178026 310.59
576493.4 4178026 310.59
576501.2 4178026 310.59
576495.9 4178027 310.59
576516 4178027 310.59
576496.8 4178027 310.59
576507.2 4178027 310.59
576512.2 4178027 310.59
576506 4178028 310.59
576515.9 4178028 310.59
576515.8 4178028 310.59
576497 4178029 310.59
576495.6 4178029 310.59
576525.2 4178030 310.59
576527.4 4178031 310.59
576537.4 4178032 310.59
576532.9 4178039 310.59
576536.6 4178041 310.59
576534.2 4178043 310.59
576534.1 4178045 310.59
576495.4 4178020 310.6
576496.1 4178022 310.6
576496.5 4178022 310.6
576497.8 4178022 310.6
576493.8 4178022 310.61
576495 4178023 310.6
576511.4 4178024 310.61
576497.1 4178024 310.61
576498.9 4178024 310.61
576494.5 4178024 310.6
576500.2 4178025 310.61
576507.9 4178026 310.6
576507.8 4178027 310.61
576517.2 4178027 310.61
576508.9 4178028 310.61
576509.3 4178028 310.61
576522.6 4178028 310.61
576501.4 4178028 310.6
576502.4 4178028 310.6
576522.1 4178028 310.6
576494.1 4178028 310.6
576499.5 4178028 310.61
576517 4178029 310.61
576522 4178029 310.6
576522.4 4178030 310.6
576498.2 4178030 310.61
576496.8 4178031 310.6
576525.2 4178031 310.6
576537.1 4178031 310.6
576498.1 4178031 310.6
576526.8 4178032 310.6
576532.3 4178032 310.6
576530.1 4178034 310.6
576526.6 4178034 310.6
576531.9 4178036 310.6
576533.2 4178036 310.61
576529.8 4178037 310.61
576529.7 4178038 310.6
576526.7 4178038 310.6
576528.1 4178041 310.6
576534.4 4178041 310.61
576536 4178043 310.61
576496.7 4178020 310.62
576501.9 4178020 310.62
576495.1 4178022 310.62
576523.1 4178023 310.62
576497.2 4178023 310.62
576497.2 4178024 310.62
576509.2 4178024 310.62
576496.9 4178026 310.62
576498.2 4178028 310.62
576518.8 4178028 310.62
576514.2 4178028 310.62
576525.4 4178029 310.62
576496.9 4178030 310.62
576530.8 4178031 310.62
576526.6 4178034 310.62
576527.1 4178034 310.62
576536.8 4178034 310.62
576527.1 4178034 310.62
576524.9 4178034 310.62
576532.1 4178034 310.62
576533.2 4178036 310.62
576534.9 4178036 310.62
576526.6 4178038 310.62
576531.7 4178038 310.62
576496.2 4178024 310.63
576493.5 4178025 310.63
576504.4 4178024 310.63
576496 4178026 310.63
576511.2 4178026 310.63
576512.4 4178026 310.63
576513.9 4178027 310.63
576498.5 4178028 310.63
576508.8 4178028 310.63
576522.1 4178028 310.63
576493.1 4178029 310.63
576505.9 4178029 310.63
576520.1 4178032 310.63
576494 4178032 310.63
576530.2 4178032 310.63
576525.4 4178034 310.63
576527.8 4178040 310.63
576495.3 4178021 310.64
576493.4 4178023 310.64
576496.2 4178024 310.64
576510.9 4178024 310.64
576514 4178026 310.64
576507.4 4178026 310.64
576504.5 4178028 310.64
576501.4 4178028 310.64
576499.4 4178029 310.64
576502.8 4178029 310.64
576502.7 4178030 310.64
576535.3 4178031 310.64
576527.2 4178032 310.64
576521.6 4178034 310.64
576536.4 4178038 310.64
576531.1 4178041 310.64
576529.3 4178042 310.64
576532.8 4178045 310.64
576536.1 4178046 310.64
576504.9 4178020 310.65
576508 4178025 310.65
576503.2 4178026 310.65
576520.6 4178027 310.65
576518.9 4178027 310.65
576502.9 4178028 310.65
576507.2 4178028 310.65
576525.8 4178030 310.65
576522.3 4178030 310.65
576523.8 4178033 310.65
576528.5 4178037 310.65
576536.2 4178040 310.65
576531.5 4178041 310.65
576536.1 4178042 310.65
576532.4 4178044 310.65
576535.7 4178046 310.65
576536.1 4178047 310.65
576500.6 4178023 310.66
576498.9 4178025 310.66
576514.1 4178025 310.66
576499.7 4178027 310.66
576506.1 4178028 310.66
576512.5 4178029 310.66
576497 4178029 310.66
576502.6 4178030 310.66
576513.6 4178030 310.66
576529.1 4178030 310.66
576537.1 4178030 310.66
576499.2 4178031 310.66
576524 4178031 310.66
576527.3 4178031 310.66
576500.9 4178033 310.66
576524.9 4178034 310.66
576527 4178035 310.66
576528 4178037 310.66
576532.9 4178039 310.66
576532.8 4178041 310.66
576529.2 4178042 310.66
576527.9 4178043 310.66
576536.4 4178043 310.66
576535.8 4178045 310.66
576523.1 4178024 310.67
576524.3 4178028 310.67
576520.4 4178028 310.67
576518.7 4178029 310.67
576517 4178030 310.67
576516.8 4178031 310.67
576534 4178032 310.67
576526.9 4178036 310.67
576526.4 4178037 310.67
576531.9 4178037 310.67
576534.6 4178044 310.67
576497.6 4178024 310.68
576507.3 4178027 310.68
576510.6 4178027 310.68
576493.2 4178028 310.68
576501.1 4178028 310.68
576519.2 4178028 310.68
576509.2 4178028 310.68
576499.8 4178029 310.68
576500.9 4178029 310.68
576518.6 4178030 310.68
576520.2 4178030 310.68
576512.3 4178030 310.68
576523.6 4178030 310.68
576495 4178032 310.68
576523.9 4178032 310.68
576525 4178033 310.68
576531.4 4178037 310.68
576535.1 4178040 310.68
576529.7 4178042 310.68
576532.9 4178043 310.68
576535.8 4178046 310.68
576536.1 4178046 310.68
576515.9 4178024 310.69
576496.1 4178025 310.69
576509.2 4178024 310.69
576511.3 4178024 310.69
576510.6 4178026 310.69
576522.7 4178027 310.69
576514.3 4178028 310.69
576501 4178028 310.69
576513.8 4178029 310.69
576499.7 4178030 310.69
576505.7 4178031 310.69
576522.2 4178031 310.69
576530.2 4178031 310.69
576493.6 4178032 310.69
576505.1 4178033 310.69
576494.8 4178033 310.69
576533.4 4178034 310.69
576533.8 4178034 310.69
576494.9 4178035 310.69
576526.4 4178036 310.69
576528.4 4178038 310.69
576532.5 4178044 310.69
576506.4 4178021 310.7
576495.2 4178022 310.7
576501.6 4178026 310.7
576503.1 4178027 310.7
576505.8 4178027 310.7
576495.4 4178028 310.7
576515.8 4178029 310.7
576520.3 4178029 310.7
576515.8 4178030 310.7
576507.2 4178031 310.7
576521.8 4178032 310.7
576529 4178032 310.7
576525 4178033 310.7
576530.1 4178033 310.7
576493.4 4178034 310.7
576495.1 4178034 310.7
576525.2 4178035 310.7
576526.9 4178035 310.7
576528.6 4178036 310.7
576531.6 4178039 310.7
576533.3 4178039 310.7
576527.8 4178040 310.7
576536.1 4178042 310.7
576509.3 4178024 310.71
576501.5 4178024 310.71
576512.3 4178026 310.71
576500.9 4178029 310.71
576501.2 4178030 310.71
576516.9 4178030 310.71
576502.2 4178030 310.71
576494.1 4178031 310.71
576530.2 4178032 310.71
576497.6 4178033 310.71
576532 4178036 310.71
576533 4178038 310.71
576532.9 4178040 310.71
576531.6 4178040 310.71
576496.4 4178022 310.72
576497.8 4178022 310.72
576520.8 4178024 310.72
576522.8 4178026 310.72
576501.2 4178026 310.72
576495.9 4178026 310.72
576520.5 4178028 310.72
576507.7 4178028 310.72
576508.8 4178028 310.72
576521.9 4178030 310.72
576496.8 4178030 310.72
576493.8 4178031 310.72
576504.1 4178031 310.72
576530.2 4178036 310.72
576533.2 4178040 310.72
576532.8 4178044 310.72
576537.3 4178048 310.72
576506.4 4178020 310.73
576522.9 4178024 310.73
576509.4 4178026 310.73
576506.2 4178026 310.73
576514.4 4178026 310.73
576493.2 4178027 310.73
576496.9 4178027 310.73
576504.6 4178027 310.73
576493.1 4178028 310.73
576519.1 4178029 310.73
576495.1 4178030 310.73
576505.8 4178030 310.73
576520.7 4178030 310.73
576520.1 4178032 310.73
576533.4 4178034 310.73
576525.2 4178036 310.73
576527.9 4178038 310.73
576531.3 4178038 310.73
576531.2 4178039 310.73
576536.4 4178039 310.73
576531.2 4178040 310.73
576536.2 4178040 310.73
576533.1 4178041 310.73
576531.4 4178042 310.73
576532.9 4178044 310.73
576496.1 4178022 310.74
576519.3 4178027 310.74
576504.4 4178029 310.74
576504.2 4178030 310.74
576495.6 4178030 310.74
576492.9 4178030 310.74
576495.1 4178031 310.74
576493.8 4178031 310.74
576520.6 4178031 310.74
576493.7 4178032 310.74
576507.2 4178032 310.74
576513.9 4178032 310.74
576528.9 4178033 310.74
576525.4 4178034 310.74
576493.3 4178035 310.74
576494.6 4178035 310.74
576532.1 4178035 310.74
576524.7 4178036 310.74
576528.3 4178038 310.74
576531.2 4178039 310.74
576536.3 4178040 310.74
576532.7 4178042 310.74
576530.8 4178043 310.74
576530.8 4178044 310.74
576534.6 4178044 310.74
576535.9 4178044 310.74
576532.4 4178045 310.74
576500.6 4178022 310.75
576502.7 4178027 310.75
576495.8 4178028 310.75
576513.9 4178028 310.75
576496.6 4178029 310.75
576510.8 4178029 310.75
576494.2 4178030 310.75
576510.2 4178030 310.75
576494.1 4178031 310.75
576496.2 4178033 310.75
576523.7 4178034 310.75
576536.5 4178037 310.75
576536.9 4178038 310.75
576529.5 4178039 310.75
576527.7 4178041 310.75
576532.2 4178046 310.75
576535.6 4178048 310.75
576535.5 4178048 310.75
576523 4178024 310.77
576495.7 4178026 310.76
576509.5 4178026 310.76
576505.7 4178027 310.76
576515.5 4178028 310.77
576504.4 4178028 310.77
576507.6 4178028 310.76
576512.6 4178028 310.77
576513.8 4178028 310.77
576499.9 4178028 310.77
576498.4 4178029 310.76
576494.3 4178029 310.76
576501.2 4178029 310.77
576510.4 4178029 310.76
576493 4178030 310.77
576499.4 4178030 310.77
576495.2 4178030 310.76
576502.2 4178030 310.76
576511.9 4178030 310.77
576509 4178030 310.76
576514 4178030 310.77
576515.2 4178030 310.77
576516.9 4178030 310.76
576521.8 4178031 310.76
576502.2 4178031 310.76
576525.1 4178032 310.76
576496.2 4178032 310.77
576496.6 4178033 310.76
576530.6 4178033 310.77
576533.5 4178033 310.76
576528.9 4178033 310.76
576493.8 4178034 310.77
576521.4 4178035 310.77
576523.5 4178036 310.77
576529.9 4178036 310.76
576528.1 4178036 310.76
576528.1 4178037 310.77
576528.4 4178038 310.76
576529.6 4178038 310.77
576528.3 4178039 310.76
576532.8 4178040 310.77
576536.6 4178041 310.77
576528 4178042 310.76
576533.1 4178042 310.77
576536.5 4178042 310.77
576531.2 4178043 310.77
576532.6 4178043 310.76
576535.4 4178049 310.76
576537.2 4178049 310.77
576512.9 4178026 310.78
576505.6 4178028 310.78
576507.1 4178028 310.78
576512 4178030 310.78
576515.3 4178030 310.78
576520.8 4178030 310.78
576527.5 4178030 310.78
576505.6 4178032 310.78
576522.2 4178032 310.78
576494.9 4178032 310.78
576522.2 4178032 310.78
576521.5 4178034 310.78
576493.4 4178037 310.78
576495.6 4178038 310.78
576531.1 4178040 310.78
576536 4178044 310.78
576534.6 4178045 310.78
576532.8 4178046 310.78
576535.6 4178047 310.78
576512.8 4178026 310.8
576519.2 4178028 310.79
576517.5 4178028 310.8
576512.4 4178030 310.8
576515.2 4178030 310.79
576511.9 4178030 310.8
576499.6 4178031 310.8
576520.6 4178031 310.8
576508.5 4178031 310.8
576505.2 4178032 310.8
576499.5 4178032 310.79
576497.7 4178032 310.8
576502 4178032 310.79
576528.5 4178032 310.8
576496.5 4178033 310.79
576523.8 4178033 310.79
576498.9 4178034 310.79
576531.6 4178036 310.79
576531.5 4178036 310.79
576495.8 4178037 310.8
576522.9 4178037 310.8
576531.4 4178038 310.79
576534.7 4178038 310.8
576527.9 4178039 310.8
576536.6 4178042 310.79
576529.2 4178042 310.79
576527.5 4178043 310.79
576529.1 4178043 310.79
576533 4178043 310.79
576530.6 4178046 310.8
576534 4178046 310.8
576533.8 4178048 310.8
576535.8 4178050 310.79
576502.2 4178021 310.81
576494.8 4178025 310.81
576503 4178028 310.81
576520.9 4178028 310.81
576502.4 4178030 310.81
576519.1 4178030 310.81
576524.1 4178030 310.81
576500.8 4178030 310.81
576501.1 4178031 310.81
576496.3 4178032 310.81
576495.2 4178032 310.81
576500.9 4178032 310.81
576528.8 4178034 310.81
576528.8 4178034 310.81
576493.7 4178035 310.81
576530.4 4178035 310.81
576531.6 4178035 310.81
576520.1 4178036 310.81
576493.4 4178036 310.81
576526.8 4178036 310.81
576526.8 4178037 310.81
576530.1 4178038 310.81
576529.5 4178040 310.81
576531.6 4178040 310.81
576536.7 4178040 310.81
576525.9 4178041 310.81
576534.5 4178045 310.81
576536.2 4178046 310.81
576534.3 4178047 310.81
576502.6 4178027 310.82
576495.8 4178028 310.83
576505.6 4178028 310.82
576515.4 4178028 310.83
576505.5 4178029 310.82
576507.1 4178029 310.82
576508.7 4178029 310.82
576510.8 4178030 310.83
576499.3 4178030 310.82
576505.4 4178030 310.82
576505.8 4178030 310.83
576510.3 4178030 310.82
576514.1 4178030 310.82
576508.6 4178030 310.83
576500.7 4178031 310.83
576499.2 4178031 310.83
576498.1 4178032 310.83
576502.4 4178032 310.82
576505.1 4178032 310.82
576513.8 4178032 310.83
576493.6 4178033 310.82
576509.9 4178033 310.83
576523.3 4178033 310.82
576518.2 4178034 310.83
576519.8 4178034 310.82
576521.9 4178034 310.83
576523.1 4178035 310.82
576523.6 4178035 310.82
576525.3 4178035 310.83
576493.6 4178035 310.82
576494.9 4178036 310.83
576525.1 4178037 310.83
576526.2 4178038 310.82
576526.6 4178039 310.83
576536.8 4178039 310.83
576528.2 4178040 310.82
576529.4 4178040 310.82
576495.6 4178041 310.82
576527.6 4178042 310.83
576531.3 4178043 310.83
576529.1 4178044 310.83
576530.6 4178046 310.82
576532.3 4178046 310.83
576532.2 4178047 310.83
576530.8 4178048 310.82
576532.1 4178048 310.83
576535.4 4178050 310.82
576536.9 4178052 310.83
576506.1 4178027 310.84
576514.4 4178027 310.84
576515.6 4178027 310.84
576518.8 4178028 310.84
576502.4 4178029 310.84
576512.5 4178029 310.84
576508.6 4178030 310.84
576507.4 4178030 310.84
576516.8 4178032 310.84
576523.9 4178032 310.84
576510.1 4178032 310.84
576521.7 4178032 310.84
576493.4 4178034 310.84
576523.6 4178034 310.84
576516.4 4178034 310.84
576528.6 4178036 310.84
576525 4178038 310.84
576535.1 4178038 310.84
576536.8 4178040 310.84
576494.1 4178040 310.84
576534.8 4178042 310.84
576531.2 4178044 310.84
576530.5 4178046 310.84
576536 4178048 310.84
576537.4 4178051 310.84
576500.2 4178026 310.85
576504 4178028 310.85
576503.9 4178029 310.85
576512.1 4178029 310.85
576498 4178029 310.85
576496.6 4178030 310.86
576498.4 4178030 310.86
576499.8 4178030 310.85
576503.8 4178030 310.86
576504.2 4178030 310.86
576506.9 4178030 310.85
576520.2 4178030 310.86
576508.5 4178031 310.85
576528.6 4178031 310.85
576495.3 4178032 310.85
576528.6 4178032 310.86
576499.1 4178032 310.85
576496.6 4178032 310.85
576516.7 4178032 310.85
576494.8 4178034 310.85
576496.1 4178034 310.85
576496.4 4178034 310.85
576505 4178034 310.85
576528.7 4178035 310.85
576521.4 4178035 310.86
576533.7 4178035 310.86
576528.2 4178036 310.85
576494.8 4178036 310.85
576495.8 4178036 310.85
576524.6 4178037 310.86
576530.1 4178038 310.85
576526.4 4178040 310.86
576532.6 4178042 310.85
576536.2 4178045 310.85
576530.7 4178045 310.85
576532.3 4178046 310.85
576537.4 4178047 310.85
576530.9 4178047 310.86
576532.6 4178048 310.85
576534.2 4178048 310.86
576533.8 4178049 310.86
576535.9 4178049 310.85
576537.1 4178051 310.85
576513.6 4178030 310.87
576530.5 4178034 310.87
576502.2 4178034 310.87
576528.2 4178035 310.87
576494.5 4178038 310.87
576527.6 4178041 310.87
576504.8 4178025 310.88
576522.9 4178025 310.88
576504.3 4178026 310.88
576509.2 4178028 310.88
576520.4 4178028 310.88
576513.7 4178029 310.88
576494.2 4178030 310.88
576503.8 4178030 310.88
576502.6 4178031 310.88
576508.9 4178032 310.88
576516.6 4178033 310.88
576526.5 4178036 310.88
576520.1 4178036 310.88
576515 4178036 310.88
576527.9 4178043 310.88
576534.4 4178046 310.88
576531 4178046 310.88
576535.8 4178050 310.88
576537.4 4178052 310.88
576504.6 4178026 310.89
576497.9 4178030 310.89
576519 4178030 310.89
576495.5 4178030 310.89
576506.9 4178031 310.89
576507.4 4178031 310.89
576503.8 4178031 310.89
576517.2 4178031 310.89
576502.5 4178032 310.89
576502.1 4178032 310.89
576506.6 4178033 310.89
576518.6 4178034 310.89
576495 4178034 310.89
576521.9 4178035 310.89
576526.6 4178035 310.89
576516.4 4178035 310.89
576522.9 4178036 310.89
576529.9 4178040 310.89
576526 4178040 310.89
576529.1 4178044 310.89
576531.1 4178046 310.89
576533.9 4178047 310.89
576532.1 4178048 310.89
576504.9 4178024 310.9
576514.2 4178029 310.9
576496.4 4178030 310.9
576496.7 4178032 310.9
576508.3 4178033 310.9
576496.1 4178034 310.9
576499.2 4178034 310.9
576497.4 4178034 310.9
576495.9 4178036 310.9
576521.6 4178037 310.9
576536.3 4178044 310.9
576533.8 4178048 310.9
576530.6 4178050 310.9
576537.1 4178050 310.9
576521 4178023 310.91
576504.9 4178024 310.91
576504.2 4178026 310.91
576510.5 4178028 310.91
576515.4 4178029 310.91
576505.3 4178030 310.91
576515.7 4178030 310.91
576521.9 4178030 310.91
576512.3 4178031 310.91
576513.5 4178031 310.91
576505.2 4178031 310.91
576510.1 4178032 310.91
576499.1 4178032 310.91
576499.4 4178032 310.91
576508.4 4178032 310.91
576528.4 4178033 310.91
576521.6 4178033 310.91
576520.2 4178034 310.91
576530.4 4178034 310.91
576496.4 4178034 310.91
576518.1 4178034 310.91
576508.4 4178036 310.91
576494.2 4178038 310.91
576529.5 4178044 310.91
576534.4 4178046 310.91
576506.3 4178025 310.92
576517.4 4178029 310.92
576520.2 4178031 310.92
576500.6 4178032 310.92
576512.2 4178032 310.92
576521.8 4178032 310.92
576512.2 4178032 310.92
576520 4178032 310.92
576497.8 4178034 310.92
576526.3 4178042 310.92
576528.1 4178042 310.92
576532.7 4178046 310.92
576537.4 4178048 310.92
576532 4178049 310.92
576534.2 4178049 310.92
576533.9 4178052 310.92
576533.8 4178054 310.92
576494.6 4178026 310.93
576506.8 4178031 310.93
576525.5 4178032 310.93
576522.1 4178033 310.93
576504.9 4178034 310.93
576516.8 4178035 310.93
576519.8 4178035 310.93
576500.6 4178036 310.93
576521.3 4178036 310.93
576494.4 4178036 310.93
576493.3 4178038 310.93
576493.2 4178038 310.93
576495.4 4178040 310.93
576528.2 4178040 310.93
576527.6 4178042 310.93
576529.4 4178045 310.93
576527.7 4178046 310.93
576537.4 4178048 310.93
576535.8 4178051 310.93
576535 4178054 310.93
576509.2 4178029 310.94
576503.9 4178030 310.94
576509.1 4178030 310.94
576518.6 4178030 310.94
576496.4 4178031 310.94
576505.6 4178032 310.94
576494.9 4178032 310.94
576502.4 4178033 310.94
576507.2 4178032 310.94
576518.8 4178032 310.94
576509.8 4178035 310.94
576514.8 4178035 310.94
576523.4 4178036 310.94
576494.4 4178040 310.94
576532.7 4178042 310.94
576528.9 4178045 310.94
576537.2 4178050 310.94
576535.2 4178052 310.94
576507.6 4178029 310.95
576514.1 4178029 310.95
576496.5 4178030 310.95
576511.9 4178031 310.95
576529.1 4178031 310.95
576497.8 4178032 310.95
576510.6 4178031 310.95
576508.8 4178032 310.95
576518.4 4178032 310.95
576518.8 4178033 310.95
576517 4178033 310.95
576526.8 4178033 310.95
576503.8 4178034 310.95
576497.7 4178035 310.95
576503.6 4178035 310.95
576524.7 4178036 310.95
576495.7 4178037 310.95
576531.2 4178044 310.95
576532.2 4178051 310.95
576511.1 4178027 310.96
576510.6 4178028 310.96
576501.1 4178030 310.96
576504.1 4178031 310.96
576518.4 4178031 310.96
576506.8 4178032 310.96
576513.4 4178032 310.96
576493.9 4178033 310.96
576499.4 4178033 310.96
576519.9 4178033 310.96
576506.6 4178034 310.96
576508.6 4178034 310.96
576494.7 4178034 310.96
576509.8 4178034 310.96
576514.8 4178034 310.96
576497.4 4178035 310.96
576493.6 4178036 310.96
576523.2 4178038 310.96
576524.3 4178040 310.96
576493.9 4178041 310.96
576525.9 4178042 310.96
576534.2 4178048 310.96
576530.3 4178049 310.96
576532.4 4178048 310.96
576531.8 4178052 310.96
576537 4178052 310.96
576533.4 4178052 310.96
576504.8 4178026 310.97
576518.9 4178031 310.97
576508.4 4178032 310.97
576500.5 4178033 310.97
576510.3 4178034 310.97
576500.7 4178034 310.97
576495.9 4178035 310.97
576498.6 4178036 310.97
576529.8 4178036 310.97
576516.7 4178037 310.97
576513.1 4178038 310.97
576530 4178039 310.97
576527.8 4178044 310.97
576499.6 4178044 310.97
576505.4 4178030 310.98
576509 4178031 310.98
576512.1 4178033 310.98
576520.4 4178032 310.98
576497.8 4178034 310.98
576501.8 4178034 310.98
576520.2 4178035 310.98
576503.6 4178036 310.98
576523.3 4178038 310.98
576524.6 4178038 310.98
576534.9 4178041 310.98
576531.4 4178042 310.98
576526.2 4178043 310.98
576527.4 4178044 310.98
576528.6 4178049 310.98
576531.8 4178052 310.98
576535.1 4178053 310.98
576537.2 4178054 310.98
576511 4178028 310.99
576507 4178030 310.99
576497.9 4178030 310.99
576517.3 4178030 310.99
576518.5 4178031 310.99
576518.9 4178031 310.99
576503.6 4178032 310.99
576502 4178033 310.99
576495.1 4178033 310.99
576500.4 4178034 310.99
576518.2 4178034 310.99
576522 4178034 310.99
576514.9 4178034 310.99
576494.6 4178035 310.99
576498.7 4178036 310.99
576515.1 4178036 310.99
576494.2 4178039 310.99
576526.1 4178040 310.99
576494 4178040 310.99
576524.2 4178040 310.99
576526.4 4178041 310.99
576521.2 4178042 310.99
576526.1 4178044 310.99
576529.4 4178045 310.99
576528.9 4178046 310.99
576535.9 4178048 310.99
576537.4 4178052 310.99
576533.4 4178053 310.99
576505.5 4178033 311
576493.8 4178034 311
576506.5 4178034 311
576499.2 4178035 311
576516.8 4178036 311
576493.2 4178036 311
576523.2 4178039 311
576494.1 4178039 311
576531.1 4178045 311
576532.4 4178049 311
576533.6 4178051 311
576537.1 4178056 311
576507.5 4178030 311.02
576517.4 4178030 311.02
576498.2 4178030 311.01
576500.8 4178030 311.01
576515.6 4178031 311.01
576513.9 4178031 311.02
576501 4178032 311.02
576500.6 4178032 311.01
576510.4 4178033 311.02
576497.6 4178033 311.02
576514.9 4178033 311.02
576503.4 4178034 311.02
576513.5 4178035 311.01
576521.8 4178036 311.01
576525.1 4178036 311.01
576496.1 4178037 311.01
576496.1 4178037 311.02
576521.1 4178038 311.02
576522.8 4178038 311.01
576495.4 4178040 311.01
576498.3 4178039 311.02
576523.1 4178040 311.01
576496.7 4178041 311.02
576493.9 4178042 311.02
576527.4 4178044 311.01
576532.6 4178047 311.01
576533.9 4178047 311.02
576535.4 4178050 311.01
576535.3 4178051 311.01
576536.9 4178054 311.01
576504.7 4178026 311.03
576497.8 4178031 311.03
576515.5 4178032 311.03
576508.8 4178032 311.03
576500.4 4178033 311.03
576508.7 4178033 311.03
576522.1 4178033 311.03
576497.5 4178034 311.03
576497.9 4178034 311.03
576519.9 4178034 311.03
576516.9 4178034 311.03
576510.2 4178035 311.03
576510.2 4178035 311.03
576494.5 4178036 311.03
576494.8 4178037 311.03
576522.9 4178038 311.03
576498.4 4178038 311.03
576521.5 4178038 311.03
576521.2 4178041 311.03
576526.2 4178042 311.03
576524 4178044 311.03
576533.7 4178050 311.03
576535 4178055 311.03
576521.5 4178023 311.04
576504.3 4178026 311.04
576510.7 4178031 311.04
576510.2 4178031 311.05
576503.7 4178032 311.05
576498 4178032 311.04
576504 4178032 311.04
576506.7 4178032 311.04
576497.9 4178033 311.05
576515.4 4178032 311.05
576503.9 4178033 311.04
576518.3 4178033 311.04
576528.4 4178033 311.04
576523.2 4178034 311.04
576528.3 4178034 311.04
576501.8 4178035 311.04
576493.3 4178035 311.05
576498.8 4178035 311.04
576496.2 4178036 311.05
576515.1 4178036 311.04
576497.6 4178036 311.04
576504.8 4178036 311.04
576493.2 4178036 311.05
576497.6 4178036 311.05
576500.5 4178036 311.04
576520 4178036 311.05
576514.6 4178037 311.04
576523.4 4178037 311.04
576497.1 4178037 311.05
576498.6 4178037 311.05
576531.8 4178037 311.04
576513.2 4178038 311.05
576519.9 4178038 311.05
576526.2 4178038 311.05
576494.6 4178038 311.05
576524.9 4178038 311.05
576526.2 4178039 311.05
576494.3 4178040 311.04
576494.1 4178042 311.04
576523.9 4178044 311.05
576525.6 4178044 311.04
576527.1 4178047 311.05
576530.8 4178048 311.04
576534.1 4178049 311.04
576530.2 4178050 311.05
576533.8 4178053 311.05
576537.3 4178053 311.05
576533.3 4178054 311.05
576511.1 4178027 311.06
576495.4 4178031 311.06
576515.1 4178032 311.06
576518.8 4178032 311.06
576510.5 4178032 311.06
576502.4 4178033 311.06
576498.9 4178034 311.06
576518.6 4178034 311.06
576499 4178036 311.06
576498.9 4178037 311.06
576497.1 4178038 311.06
576495.6 4178038 311.06
576527.9 4178038 311.06
576526.6 4178040 311.06
576501.1 4178041 311.06
576525.8 4178043 311.06
576527.8 4178044 311.06
576533.6 4178050 311.06
576530.6 4178051 311.06
576532.1 4178052 311.06
576537.1 4178055 311.06
576494.7 4178026 311.07
576510.8 4178030 311.07
576499.6 4178031 311.08
576517.2 4178032 311.07
576510.6 4178032 311.07
576518.4 4178032 311.08
576520.5 4178032 311.08
576513.8 4178033 311.07
576507.1 4178034 311.08
576520.3 4178034 311.07
576528.4 4178034 311.08
576505.4 4178034 311.07
576523.2 4178034 311.08
576511.4 4178036 311.08
576521.8 4178036 311.08
576506.8 4178036 311.07
576516.8 4178036 311.07
576502 4178036 311.08
576500.4 4178037 311.07
576494.4 4178037 311.07
576506.7 4178037 311.08
576511.2 4178037 311.08
576496 4178038 311.08
576521.6 4178038 311.07
576501.8 4178038 311.07
576513.2 4178038 311.07
576524.9 4178039 311.08
576521.4 4178040 311.07
576504.2 4178040 311.07
576492.9 4178042 311.07
576498.1 4178042 311.07
576522.4 4178042 311.07
576499.8 4178043 311.08
576521.1 4178043 311.08
576522.4 4178043 311.08
576494 4178043 311.07
576522.2 4178044 311.07
576527.6 4178046 311.07
576529.2 4178048 311.07
576531.8 4178051 311.07
576536.9 4178053 311.07
576533.2 4178054 311.08
576536.8 4178055 311.07
576534.9 4178055 311.07
576535.3 4178055 311.07
576537 4178056 311.07
576509.9 4178034 311.09
576496 4178034 311.09
576496.3 4178035 311.09
576511.9 4178035 311.09
576513.1 4178036 311.09
576523 4178036 311.09
576514.6 4178036 311.09
576521.7 4178037 311.09
576494.7 4178037 311.09
576501.5 4178037 311.09
576507.9 4178037 311.09
576514.9 4178038 311.09
576501.3 4178039 311.09
576510.9 4178040 311.09
576526.1 4178040 311.09
576505.8 4178041 311.09
576529 4178045 311.09
576511.8 4178032 311.11
576495.2 4178033 311.11
576507.1 4178033 311.11
576520.4 4178033 311.1
576498.8 4178034 311.1
576513.6 4178034 311.1
576503.3 4178035 311.11
576511.4 4178035 311.11
576518.6 4178035 311.1
576513 4178036 311.11
576511.8 4178036 311.11
576506.8 4178036 311.11
576521.3 4178036 311.11
576500.1 4178037 311.1
576501.6 4178037 311.1
576512.9 4178037 311.11
576521.2 4178037 311.1
576497.4 4178038 311.11
576509.9 4178038 311.1
576497.4 4178038 311.1
576521.1 4178039 311.1
576495.8 4178039 311.1
576524.4 4178040 311.1
576498.6 4178040 311.1
576495.3 4178041 311.1
576524.2 4178041 311.1
576494.2 4178042 311.1
576496.6 4178042 311.11
576495.4 4178043 311.1
576520.6 4178043 311.1
576526.1 4178044 311.1
576524.2 4178045 311.1
576525.6 4178045 311.11
576529.4 4178046 311.1
576523.8 4178046 311.11
576525.4 4178047 311.1
576525.4 4178047 311.1
576526.9 4178048 311.1
576529.1 4178049 311.1
576526.9 4178049 311.1
576534.1 4178050 311.11
576534 4178051 311.11
576533.6 4178051 311.1
576535.2 4178051 311.1
576537.1 4178051 311.1
576532.2 4178052 311.11
576530.4 4178052 311.1
576533.5 4178052 311.11
576535.6 4178052 311.11
576513.4 4178033 311.12
576515.4 4178033 311.12
576505.4 4178033 311.12
576499.3 4178034 311.12
576511.6 4178034 311.12
576509.7 4178036 311.12
576511.8 4178036 311.12
576513.4 4178036 311.12
576511.2 4178037 311.12
576511.1 4178038 311.12
576511.6 4178038 311.12
576524.5 4178038 311.12
576524.9 4178039 311.12
576493 4178040 311.12
576498.1 4178041 311.12
576495.2 4178041 311.12
576524.2 4178042 311.12
576524.6 4178042 311.12
576527.3 4178044 311.12
576532.5 4178048 311.12
576530.8 4178049 311.12
576530.5 4178051 311.12
576535.2 4178052 311.12
576515.2 4178031 311.13
576512.1 4178033 311.13
576503.8 4178034 311.13
576513.2 4178034 311.13
576500.6 4178035 311.13
576508.5 4178035 311.13
576508.2 4178038 311.13
576498.6 4178040 311.13
576499.6 4178040 311.13
576499.9 4178042 311.13
576524.6 4178042 311.13
576498.2 4178044 311.13
576529.6 4178044 311.13
576525.7 4178044 311.13
576524.2 4178046 311.13
576524.1 4178047 311.13
576531.7 4178053 311.13
576529.9 4178053 311.13
576532 4178053 311.13
576533.2 4178055 311.13
576499 4178033 311.14
576503.8 4178034 311.14
576518.5 4178035 311.14
576496.2 4178036 311.14
576513.4 4178036 311.14
576513.3 4178037 311.14
576494.3 4178038 311.14
576507.8 4178038 311.14
576506 4178039 311.14
576504.8 4178040 311.14
576504.6 4178041 311.14
576506.1 4178042 311.14
576496.9 4178042 311.14
576498 4178042 311.14
576496.4 4178046 311.14
576535.1 4178054 311.14
576535.4 4178055 311.14
576517.2 4178032 311.15
576503.6 4178033 311.15
576502.3 4178034 311.15
576513.2 4178034 311.15
576508.6 4178034 311.15
576504.8 4178035 311.15
576514.7 4178036 311.15
576501.9 4178037 311.15
576497 4178038 311.15
576522.8 4178039 311.15
576495.7 4178040 311.15
576524.8 4178040 311.15
576496.9 4178042 311.15
576521.1 4178042 311.15
576495.1 4178043 311.15
576524.1 4178043 311.15
576503.8 4178044 311.15
576529.1 4178048 311.15
576536.8 4178055 311.15
576504.1 4178032 311.16
576513.3 4178033 311.16
576516.6 4178034 311.16
576501.9 4178034 311.16
576516.6 4178034 311.16
576510.3 4178034 311.16
576502.1 4178036 311.16
576503.2 4178036 311.16
576497.2 4178036 311.16
576503.5 4178036 311.16
576524.4 4178039 311.16
576511 4178039 311.16
576506.4 4178039 311.16
576524.7 4178041 311.16
576506.1 4178042 311.16
576494.1 4178042 311.16
576499.4 4178043 311.16
576518.8 4178045 311.16
576531.9 4178050 311.16
576537.2 4178054 311.16
576531.5 4178055 311.16
576536.6 4178056 311.16
576511.7 4178033 311.17
576500.3 4178034 311.17
576504.7 4178036 311.17
576506.2 4178037 311.17
576503.1 4178037 311.17
576520 4178037 311.17
576504.9 4178038 311.17
576493.2 4178039 311.17
576506.5 4178039 311.17
576499.8 4178039 311.17
576522.7 4178039 311.17
576504.2 4178041 311.17
576522.5 4178041 311.17
576525.9 4178042 311.17
576520.7 4178043 311.17
576493.8 4178046 311.17
576529.3 4178046 311.17
576530.4 4178048 311.17
576527 4178048 311.17
576529 4178049 311.17
576535.6 4178053 311.17
576531.5 4178054 311.17
576531.4 4178056 311.17
576533.1 4178056 311.17
576515.6 4178031 311.18
576511.8 4178032 311.18
576525.5 4178033 311.18
576508.2 4178034 311.18
576503.4 4178034 311.18
576513.6 4178034 311.18
576515.2 4178034 311.18
576523.1 4178035 311.18
576500.2 4178036 311.18
576500.1 4178036 311.18
576511.3 4178036 311.18
576497.5 4178037 311.18
576526.4 4178037 311.18
576498.5 4178038 311.18
576531.8 4178038 311.18
576504.4 4178038 311.18
576508.1 4178038 311.18
576497.2 4178039 311.18
576497.2 4178040 311.18
576520.9 4178040 311.18
576497 4178041 311.18
576523.9 4178044 311.18
576527.8 4178045 311.18
576519.1 4178046 311.18
576527.2 4178046 311.18
576528.6 4178049 311.18
576537.6 4178049 311.18
576537.6 4178050 311.18
576530.6 4178050 311.18
576531.9 4178050 311.18
576531.6 4178053 311.18
576537.2 4178053 311.18
576517.1 4178032 311.19
576501.9 4178033 311.19
576511.6 4178033 311.19
576513.7 4178033 311.19
576499.1 4178036 311.19
576507.9 4178036 311.19
576521.2 4178038 311.19
576511.5 4178038 311.19
576521.5 4178039 311.19
576501.2 4178040 311.19
576502.7 4178041 311.19
576492.9 4178041 311.19
576499.6 4178041 311.19
576522.9 4178041 311.19
576497.9 4178042 311.19
576526 4178045 311.19
576525.9 4178046 311.19
576530.5 4178047 311.19
576523.6 4178048 311.19
576528.9 4178050 311.19
576528.8 4178051 311.19
576535.7 4178051 311.19
576526.6 4178052 311.19
576532.1 4178053 311.19
576536.8 4178054 311.19
576533.6 4178056 311.19
576515 4178033 311.2
576517 4178034 311.2
576508.4 4178036 311.2
576502 4178037 311.2
576508.2 4178037 311.2
576514.5 4178037 311.2
576502.9 4178039 311.2
576502.8 4178040 311.2
576509.2 4178040 311.2
576504.7 4178040 311.2
576505.8 4178041 311.2
576496.6 4178042 311.2
576507.2 4178042 311.2
576530.9 4178047 311.2
576525.3 4178048 311.2
576525.1 4178050 311.2
576532.4 4178050 311.2
576523.8 4178050 311.2
576532.3 4178050 311.2
576525.4 4178050 311.2
576533.4 4178057 311.2
576536.9 4178057 311.2
576505.3 4178034 311.21
576511.5 4178034 311.21
576500.2 4178035 311.21
576502.2 4178035 311.21
576509.6 4178036 311.21
576516.4 4178036 311.21
576516.3 4178036 311.21
576511.1 4178038 311.21
576505.9 4178040 311.21
576501.1 4178041 311.21
576524.3 4178044 311.21
576529.2 4178047 311.21
576535.6 4178052 311.21
576503.5 4178033 311.22
576500.8 4178034 311.22
576503.2 4178036 311.22
576506.6 4178038 311.22
576504.8 4178039 311.22
576499.8 4178040 311.22
576498.2 4178040 311.22
576526.5 4178040 311.22
576520.9 4178041 311.22
576524.1 4178042 311.22
576505.6 4178042 311.22
576524.5 4178043 311.22
576521 4178044 311.22
576497.8 4178044 311.22
576518.8 4178044 311.22
576524.4 4178044 311.22
576522.5 4178046 311.22
576517.2 4178048 311.22
576530.2 4178050 311.22
576534 4178050 311.22
576530.1 4178051 311.22
576533.9 4178052 311.22
576533.7 4178054 311.22
576533.5 4178056 311.22
576531.2 4178058 311.22
576508.2 4178034 311.23
576513.1 4178035 311.23
576515.2 4178035 311.23
576519.9 4178038 311.23
576500.2 4178039 311.23
576493.1 4178039 311.23
576495.8 4178040 311.23
576503.2 4178039 311.23
576521 4178039 311.23
576524.8 4178040 311.23
576496.8 4178040 311.23
576498.5 4178040 311.23
576499.5 4178042 311.23
576520.8 4178042 311.23
576502.5 4178042 311.23
576495.4 4178042 311.23
576493.6 4178044 311.23
576522.1 4178045 311.23
576527.2 4178046 311.23
576520.8 4178046 311.23
576515.2 4178047 311.23
576515.1 4178048 311.23
576530.4 4178048 311.23
576525.6 4178049 311.23
576528.6 4178050 311.23
576531.6 4178054 311.23
576513.5 4178032 311.24
576515.3 4178034 311.24
576506.3 4178036 311.24
576523.4 4178037 311.24
576506.2 4178038 311.24
576501.4 4178038 311.24
576495.5 4178039 311.24
576502.6 4178041 311.24
576499.8 4178042 311.24
576498.3 4178042 311.24
576493.8 4178043 311.24
576502.8 4178043 311.24
576504.3 4178043 311.24
576526.1 4178044 311.24
576514.1 4178045 311.24
576499.4 4178046 311.24
576515.3 4178046 311.24
576503.6 4178047 311.24
576528.8 4178048 311.24
576524 4178048 311.24
576525.2 4178048 311.24
576521.8 4178049 311.24
576521.7 4178050 311.24
576523.8 4178050 311.24
576525 4178051 311.24
576527.1 4178051 311.24
576529.4 4178058 311.24
576512.9 4178036 311.25
576497.2 4178037 311.25
576503.1 4178037 311.25
576505 4178037 311.25
576493.1 4178040 311.25
576520.9 4178040 311.25
576502.6 4178042 311.25
576493.8 4178042 311.25
576522.3 4178043 311.25
576493.8 4178045 311.25
576500.5 4178046 311.25
576522.4 4178046 311.25
576524.1 4178047 311.25
576521.9 4178048 311.25
576493.2 4178050 311.25
576527.3 4178050 311.25
576521.6 4178050 311.25
576525.1 4178051 311.25
576525.4 4178051 311.25
576530.1 4178052 311.25
576529.9 4178054 311.25
576532 4178054 311.25
576531.9 4178054 311.25
576515.1 4178032 311.26
576512 4178034 311.27
576507 4178034 311.26
576508.1 4178035 311.27
576508 4178036 311.26
576516.2 4178037 311.27
576510 4178037 311.26
576503 4178038 311.27
576497.3 4178038 311.26
576502.9 4178038 311.26
576498.8 4178039 311.26
576494.5 4178039 311.27
576511.4 4178039 311.27
576501.6 4178040 311.27
576509.3 4178040 311.27
576496.8 4178040 311.26
576521.4 4178040 311.26
576500 4178041 311.27
576495.2 4178042 311.26
576522.5 4178042 311.27
576493.7 4178043 311.27
576503.9 4178044 311.27
576493.9 4178044 311.27
576496.3 4178044 311.26
576497.7 4178045 311.27
576523.8 4178046 311.26
576503.7 4178046 311.26
576528.9 4178046 311.27
576520.4 4178046 311.26
576522 4178046 311.26
576525.9 4178046 311.27
576493.6 4178047 311.26
576502.4 4178047 311.26
576520.2 4178048 311.27
576528.7 4178048 311.26
576517.1 4178049 311.26
576525.2 4178049 311.26
576521.6 4178050 311.27
576523.6 4178052 311.27
576535.4 4178054 311.26
576504.9 4178034 311.28
576505.2 4178036 311.28
576505.1 4178037 311.28
576511.7 4178037 311.28
576495.9 4178038 311.28
576496.9 4178039 311.28
576500.1 4178040 311.28
576523.1 4178040 311.28
576498.2 4178040 311.28
576499.4 4178042 311.28
576498.2 4178043 311.28
576518.9 4178044 311.28
576502.6 4178044 311.28
576493.4 4178046 311.28
576515.2 4178046 311.28
576523.9 4178049 311.28
576532 4178049 311.28
576502.1 4178050 311.28
576501.6 4178050 311.28
576521.8 4178052 311.28
576533.6 4178055 311.28
576530 4178056 311.28
576536.6 4178057 311.28
576497.3 4178036 311.29
576518.4 4178036 311.29
576517.9 4178036 311.3
576500.4 4178038 311.29
576503.4 4178038 311.3
576504.9 4178038 311.29
576500.2 4178038 311.3
576509.8 4178039 311.29
576508.1 4178039 311.29
576504.4 4178040 311.3
576497.1 4178040 311.3
576522.6 4178040 311.3
576495.6 4178041 311.29
576504.6 4178042 311.29
576497.9 4178043 311.29
576499.3 4178044 311.3
576493.6 4178044 311.3
576499.2 4178044 311.29
576502.3 4178044 311.3
576527.3 4178045 311.3
576518.7 4178046 311.3
576495.1 4178046 311.29
576527.1 4178048 311.29
576494.8 4178048 311.29
576521.8 4178048 311.29
576523.5 4178049 311.3
576520.4 4178050 311.3
576500.5 4178050 311.3
576493.2 4178050 311.29
576537.6 4178050 311.29
576528.9 4178050 311.3
576508.4 4178051 311.3
576523.7 4178051 311.29
576526.8 4178051 311.3
576526.7 4178051 311.29
576535.5 4178054 311.3
576510 4178033 311.31
576506.5 4178034 311.31
576508.1 4178035 311.31
576506.9 4178035 311.31
576501.4 4178038 311.31
576496.9 4178040 311.31
576521.3 4178041 311.31
576523 4178041 311.31
576501 4178042 311.31
576522.2 4178044 311.31
576523.9 4178045 311.31
576493.7 4178046 311.31
576518.6 4178046 311.31
576528.8 4178047 311.31
576515.5 4178048 311.31
576527.4 4178048 311.31
576530.2 4178050 311.31
576526.6 4178052 311.31
576525.1 4178054 311.31
576530.2 4178054 311.31
576530.1 4178056 311.31
576505.2 4178035 311.32
576499.1 4178035 311.32
576519.8 4178035 311.33
576505.1 4178036 311.32
576509.6 4178036 311.33
576504.6 4178037 311.33
576498.4 4178038 311.32
576501.8 4178038 311.32
576505.9 4178040 311.32
576507.6 4178040 311.32
576522.6 4178040 311.32
576501.6 4178040 311.33
576494.3 4178041 311.33
576501.5 4178041 311.33
576506.2 4178041 311.33
576522.9 4178042 311.33
576506 4178043 311.32
576524.4 4178043 311.32
576499.6 4178044 311.33
576498.1 4178044 311.32
576504.2 4178044 311.33
576498.1 4178045 311.32
576494.8 4178045 311.33
576497.6 4178045 311.32
576515.4 4178045 311.33
576495.1 4178046 311.32
576520.7 4178046 311.33
576494.6 4178047 311.32
576500.4 4178048 311.33
576518.6 4178047 311.33
576520.2 4178047 311.32
576503.4 4178048 311.33
576520.5 4178048 311.32
576498.8 4178048 311.32
576501.8 4178048 311.33
576523.5 4178048 311.33
576502.1 4178049 311.32
576495.9 4178050 311.33
576502 4178050 311.33
576523.3 4178051 311.32
576530.4 4178052 311.33
576528.6 4178054 311.33
576502.8 4178054 311.33
576526.8 4178056 311.33
576533.1 4178056 311.33
576529.5 4178058 311.33
576529.8 4178058 311.32
576511.9 4178034 311.34
576510.1 4178036 311.34
576511.6 4178037 311.34
576519.5 4178038 311.34
576507.8 4178038 311.34
576499.7 4178040 311.34
576495.1 4178042 311.34
576495 4178044 311.34
576501.2 4178044 311.34
576502.7 4178044 311.34
576522.1 4178046 311.34
576494.7 4178046 311.34
576521.9 4178047 311.34
576497.3 4178048 311.34
576523.9 4178048 311.34
576527.2 4178050 311.34
576533.7 4178054 311.34
576531.9 4178055 311.34
576506.9 4178035 311.36
576518.1 4178035 311.35
576506.4 4178035 311.36
576501.7 4178036 311.35
576508.4 4178037 311.35
576515 4178037 311.35
576512.8 4178038 311.36
576503.4 4178038 311.35
576509.4 4178038 311.35
576512.8 4178038 311.36
576501.2 4178040 311.36
576507.5 4178040 311.35
576509.2 4178040 311.35
576507.8 4178041 311.35
576501.3 4178042 311.36
576525.8 4178043 311.35
576499.7 4178043 311.36
576496.4 4178044 311.35
576520.6 4178044 311.36
576500.8 4178044 311.36
576522.6 4178045 311.35
576503.8 4178045 311.36
576515.8 4178046 311.35
576494.8 4178046 311.35
576517.3 4178046 311.36
576524.2 4178046 311.36
576503.9 4178047 311.35
576517.2 4178047 311.36
576525.8 4178047 311.35
576494.6 4178048 311.35
576523.6 4178047 311.35
576501.9 4178048 311.35
576522.1 4178050 311.35
576493.1 4178051 311.36
576516.5 4178051 311.36
576528.4 4178051 311.35
576511.4 4178051 311.35
576511.8 4178052 311.35
576519.6 4178053 311.35
576530.2 4178055 311.36
576526.3 4178055 311.36
576534.9 4178056 311.35
576536.7 4178056 311.36
576526.7 4178056 311.35
576531.4 4178056 311.36
576534.8 4178057 311.36
576509.6 4178037 311.37
576498.8 4178038 311.37
576506.1 4178038 311.37
576507.7 4178038 311.37
576503.1 4178040 311.37
576501.4 4178041 311.37
576497.8 4178044 311.37
576499.2 4178044 311.37
576517.5 4178045 311.37
576520.3 4178046 311.37
576527.6 4178046 311.37
576527.5 4178047 311.37
576498.8 4178048 311.37
576500.3 4178048 311.37
576523.2 4178052 311.37
576528.3 4178052 311.37
576523.1 4178052 311.37
576501.4 4178052 311.37
576523 4178054 311.37
576510.1 4178036 311.38
576504.7 4178037 311.38
576514.5 4178038 311.38
576504.6 4178038 311.38
576506.6 4178038 311.38
576496.8 4178043 311.38
576519.3 4178044 311.38
576496.7 4178044 311.38
576502.2 4178044 311.38
576517.1 4178045 311.38
576523.7 4178047 311.38
576497.8 4178048 311.38
576525.8 4178048 311.38
576525.7 4178048 311.38
576494.7 4178049 311.38
576523.4 4178050 311.38
576521.5 4178052 311.38
576523.6 4178052 311.38
576528.2 4178053 311.38
576529.9 4178057 311.38
576512.7 4178039 311.39
576507.6 4178039 311.39
576493.9 4178044 311.39
576494.9 4178044 311.39
576515.8 4178045 311.39
576496.6 4178045 311.39
576496.5 4178046 311.39
576520.4 4178046 311.39
576493.4 4178046 311.39
576513.5 4178048 311.39
576494.5 4178048 311.39
576525.5 4178050 311.39
576527.2 4178051 311.39
576521.9 4178052 311.39
576530 4178053 311.39
576526.4 4178055 311.39
576526.2 4178057 311.39
576531.2 4178057 311.39
576509.5 4178038 311.4
576506.4 4178040 311.4
576495.5 4178042 311.4
576507.4 4178042 311.4
576501.2 4178043 311.4
576500.6 4178046 311.4
576502.3 4178047 311.4
576493.4 4178048 311.4
576501.8 4178049 311.4
576504.8 4178050 311.4
576520 4178050 311.4
576494.6 4178050 311.4
576520.4 4178050 311.4
576504.8 4178050 311.4
576521.6 4178051 311.4
576521.8 4178053 311.4
576530.4 4178053 311.4
576528.2 4178054 311.4
576529.9 4178058 311.4
576508 4178040 311.41
576498.4 4178041 311.41
576522.9 4178042 311.41
576496.5 4178043 311.41
576517.6 4178044 311.41
576512.5 4178045 311.41
576508.6 4178046 311.41
576497.4 4178048 311.41
576497.4 4178050 311.41
576522.1 4178050 311.41
576528.5 4178050 311.41
576504.6 4178052 311.41
576525.1 4178054 311.41
576528.2 4178058 311.41
576501.6 4178036 311.42
576509.9 4178038 311.42
576502.8 4178040 311.42
576503 4178041 311.42
576505.6 4178043 311.42
576506 4178043 311.42
576493.3 4178046 311.42
576499.3 4178047 311.42
576508.5 4178047 311.42
576522.4 4178047 311.42
576510.1 4178048 311.42
576500.2 4178048 311.42
576530.3 4178054 311.42
576525 4178055 311.42
576529.7 4178056 311.42
576528.1 4178058 311.42
576494.6 4178059 311.42
576519.6 4178036 311.43
576503.5 4178037 311.43
576500 4178037 311.43
576519.6 4178037 311.43
576503.3 4178038 311.43
576509.4 4178039 311.43
576508.1 4178040 311.43
576500.9 4178043 311.43
576505.7 4178046 311.43
576499.4 4178046 311.43
576503.6 4178046 311.43
576499.1 4178048 311.43
576520.5 4178049 311.43
576510.4 4178049 311.43
576494.6 4178050 311.43
576506.9 4178050 311.43
576515.3 4178050 311.43
576510.2 4178050 311.43
576526.8 4178050 311.43
576522 4178050 311.43
576504.7 4178051 311.43
576511.9 4178051 311.43
576506.3 4178052 311.43
576527.1 4178052 311.43
576521.4 4178052 311.43
576518.4 4178053 311.43
576524.8 4178053 311.43
576531.7 4178057 311.43
576533.1 4178057 311.43
576498.4 4178042 311.44
576502.9 4178042 311.44
576499.1 4178045 311.44
576515.4 4178048 311.44
576499.1 4178049 311.44
576501.7 4178050 311.44
576519.7 4178036 311.45
576506.1 4178038 311.45
576501.4 4178042 311.45
576504.1 4178042 311.45
576494.9 4178044 311.45
576519.2 4178045 311.45
576513.7 4178046 311.45
576504 4178046 311.45
576498.9 4178047 311.45
576505.1 4178048 311.45
576495.9 4178048 311.45
576493.3 4178049 311.45
576496 4178050 311.45
576500.4 4178050 311.45
576501.9 4178051 311.45
576503.5 4178051 311.45
576495.5 4178051 311.45
576523.2 4178051 311.45
576500.2 4178052 311.45
576528.3 4178052 311.45
576528.7 4178053 311.45
576526.9 4178053 311.45
576524.7 4178054 311.45
576495.1 4178055 311.45
576529.8 4178056 311.45
576531.8 4178056 311.45
576493.5 4178057 311.45
576527.9 4178057 311.45
576534.8 4178057 311.45
576500.1 4178040 311.46
576504.2 4178041 311.46
576495.3 4178044 311.46
576496.6 4178044 311.46
576517.5 4178044 311.46
576502.6 4178045 311.46
576511.9 4178046 311.46
576496.1 4178047 311.46
576522.3 4178048 311.46
576513.4 4178048 311.46
576494.8 4178048 311.46
576517.1 4178049 311.46
576518.8 4178049 311.46
