# .PCD v.7 - Point Cloud Data file format
VERSION .7
FIELDS x y z
SIZE 4 4 4
TYPE F F F
COUNT 1 1 1
WIDTH 78
HEIGHT 1
VIEWPOINT 0 0 0 1 0 0 0
POINTS 78
DATA ascii
576519.625 4178041.5 312.950012207
576519.5625 4178042 312.899993896
576519.125 4178041.75 312.809997559
576519.25 4178041.25 313.070007324
576519.25 4178040.75 312.910003662
576518.375 4178036.75 312.700012207
576518.3125 4178037.25 312.609985352
576518.25 4178038 312.670013428
576518.25 4178038.5 313.049987793
576518.25 4178039 313.75
576518.1875 4178039.5 313.619995117
576518.125 4178040 313.790008545
576518.0625 4178040.75 313.700012207
576517.9375 4178041.25 313.320007324
576518.0625 4178041.5 315.540008545
576517.5625 4178041.75 315.309997559
576517.5625 4178041.25 314.359985352
576517.5625 4178041 313.540008545
576517.625 4178040.5 313.529998779
576517.6875 4178039.75 313.529998779
576517.75 4178039.25 313.510009766
576517.8125 4178038.75 313.070007324
576517.8125 4178038.25 312.940002441
576517.875 4178037.75 312.970001221
576517.9375 4178037 312.890014648
576518 4178036.5 312.540008545
576516.625 4178039 314.779998779
576516.4375 4178039.75 313.609985352
576516.4375 4178040.25 313.660003662
576516.375 4178041 313.730010986
576516.25 4178041.5 313.660003662
576516.25 4178042 314.070007324
576515.875 4178041.5 313.649993896
576515.9375 4178041 313.880004883
576516 4178040.25 313.760009766
576516.0625 4178039.75 313.820007324
576516.1875 4178039 314.839996338
576514.75 4178040.25 313.779998779
576514.6875 4178040.75 313.579986572
576514.625 4178041.25 313.989990234
576514.5625 4178042 313.769989014
576514.125 4178042 313.440002441
576514.25 4178041.25 313.910003662
576514.25 4178040.75 313.510009766
576514.3125 4178040.25 313.369995117
576513 4178040.5 313.010009766
576513 4178041 313.709991455
576513 4178041.5 314.190002441
576512.875 4178042.25 313.899993896
576512.8125 4178042.75 313.660003662
576512.375 4178043 313.440002441
576512.4375 4178042.25 313.959991455
576512.5625 4178041.75 314.290008545
576512.5625 4178041.25 313.609985352
576512.625 4178040.75 313.269989014
576511.3125 4178041 313.559997559
576511.25 4178041.5 313.640014648
576511.25 4178042 314.019989014
576511.1875 4178042.75 314.049987793
576511.0625 4178043.25 313.529998779
576510.625 4178043.5 313.579986572
576510.75 4178043 314.230010986
576510.8125 4178042.5 314.25
576510.8125 4178042 313.739990234
576510.875 4178041.5 313.450012207
576509.5625 4178042 313.230010986
576509.5 4178042.5 313.519989014
576509.5 4178043 314.200012207
576509.375 4178043.5 313.730010986
576509 4178043.5 313.839996338
576509.0625 4178043 314.059997559
576509.0625 4178042.5 313.549987793
576507.75 4178043.25 313.579986572
576507.6875 4178043.75 314.130004883
576507.3125 4178043.75 314.220001221
576507.3125 4178043.25 313.489990234
576506 4178044.25 313.670013428
576505.5 4178044.25 313.559997559
