# .PCD v.7 - Point Cloud Data file format
VERSION .7
FIELDS x y z
SIZE 4 4 4
TYPE F F F
COUNT 1 1 1
WIDTH 1380
HEIGHT 1
VIEWPOINT 0 0 0 1 0 0 0
POINTS 1380
DATA ascii
576524 4178048 311.239990234
576523.9375 4178048.5 311.339996338
576523.875 4178049 311.279998779
576523.8125 4178049.75 311.239990234
576523.75 4178050.25 311.200012207
576523.6875 4178051 311.290008545
576523.625 4178051.5 311.269989014
576523.5625 4178052 311.380004883
576523.5 4178052.5 311.549987793
576523.5 4178053.25 311.579986572
576523.4375 4178053.75 311.709991455
576523 4178054 311.489990234
576523 4178053.5 311.369995117
576523.125 4178052.75 311.549987793
576523.125 4178052.25 311.369995117
576523.1875 4178051.75 311.369995117
576523.25 4178051.25 311.450012207
576523.3125 4178050.75 311.320007324
576523.375 4178050 311.380004883
576523.4375 4178049.5 311.529998779
576523.5 4178049 311.299987793
576523.5 4178048.5 311.329986572
576523.5625 4178047.75 311.190002441
576523.625 4178047.25 311.350006104
576523.6875 4178046.75 311.380004883
576523.75 4178046.25 311.109985352
576523.8125 4178045.5 311.260009766
576523.875 4178045 311.309997559
576523.875 4178044.5 311.049987793
576523.9375 4178044 311.179992676
576524 4178043.5 311.029998779
576524.0625 4178042.75 311.149993896
576524.125 4178042.25 311.220001221
576524.1875 4178041.75 311.119995117
576524.25 4178041 311.100006104
576524.25 4178040.5 310.989990234
576524.3125 4178040 310.959991455
576524.375 4178039.5 311.100006104
576524.4375 4178038.75 311.160003662
576524.5 4178038.25 311.119995117
576524.5625 4178037.75 310.980010986
576524.625 4178037.25 310.859985352
576524.6875 4178036.5 310.950012207
576524.6875 4178036 310.739990234
576524.75 4178035.5 310.5
576524.8125 4178035 310.579986572
576524.875 4178034.5 310.619995117
576524.9375 4178033.75 310.660003662
576525 4178033.25 310.679992676
576525 4178032.75 310.700012207
576525.0625 4178032.25 310.579986572
576525.125 4178031.5 310.760009766
576525.1875 4178031 310.600006104
576525.25 4178030.5 310.589996338
576525.3125 4178030 310.339996338
576525.375 4178029.25 310.619995117
576525.4375 4178028.75 310.579986572
576525.5 4178028.25 310.489990234
576525.5 4178027.5 310.459991455
576525.5625 4178027 310.470001221
576525.625 4178026.5 310.5
576525.6875 4178026 310.480010986
576525.75 4178025.25 310.269989014
576525.8125 4178024.75 310.350006104
576525.8125 4178024.25 310.299987793
576525.875 4178023.75 310.260009766
576525.9375 4178023 310.260009766
576526 4178022.5 310.209991455
576526.125 4178021.25 310.239990234
576526.1875 4178020.75 310.070007324
576526.25 4178020.25 310.299987793
576526.3125 4178019.75 310.299987793
576525.0625 4178020 310.089996338
576525 4178020.5 310.029998779
576524.9375 4178021 310.25
576524.875 4178021.75 310.100006104
576524.8125 4178022.25 310.369995117
576524.75 4178023 310.079986572
576524.75 4178023.5 310.369995117
576524.6875 4178024 310.279998779
576524.5625 4178024.5 310.209991455
576524.5 4178025.25 310.220001221
576524.5 4178025.75 310.5
576524.4375 4178026.25 310.320007324
576524.375 4178027 310.440002441
576524.3125 4178027.5 310.670013428
576524.25 4178028 310.290008545
576524.1875 4178028.5 310.570007324
576524.125 4178029.25 310.309997559
576524.125 4178029.75 310.809997559
576524 4178030.25 310.579986572
576524 4178031 310.660003662
576523.9375 4178031.5 310.679992676
576523.875 4178032 310.839996338
576523.8125 4178032.75 310.649993896
576523.75 4178033.25 310.790008545
576523.6875 4178033.75 310.75
576523.625 4178034.25 310.839996338
576523.5625 4178035 310.820007324
576523.5 4178035.5 310.769989014
576523.4375 4178036 310.940002441
576523.4375 4178036.75 311.040008545
576523.375 4178037.25 311.239990234
576523.3125 4178037.75 310.980010986
576523.25 4178038.5 310.959991455
576523.1875 4178039 311
576523.125 4178039.5 311.010009766
576523.0625 4178040 311.279998779
576523 4178040.75 311.309997559
576522.9375 4178041.25 311.190002441
576522.875 4178041.75 311.329986572
576522.875 4178042.5 311.410003662
576522.8125 4178043 311.630004883
576522.75 4178043.5 311.679992676
576522.6875 4178044 311.570007324
576522.625 4178044.75 311.350006104
576522.5625 4178045.25 311.570007324
576522.5 4178046 311.220001221
576522.4375 4178046.5 311.25
576522.375 4178047 311.420013428
576522.3125 4178047.75 311.459991455
576522.25 4178048.25 311.470001221
576522.1875 4178048.75 311.549987793
576522.125 4178049.5 311.410003662
576522.0625 4178050 311.350006104
576522 4178050.5 311.429992676
576522 4178051.25 311.529998779
576521.875 4178051.75 311.390014648
576521.8125 4178052.25 311.279998779
576521.75 4178053 311.399993896
576521.75 4178053.5 311.570007324
576521.6875 4178054 311.5
576521.25 4178054.5 311.660003662
576521.25 4178054 311.549987793
576521.3125 4178053.25 311.570007324
576521.375 4178052.75 311.679992676
576521.4375 4178052.25 311.429992676
576521.5 4178051.75 311.380004883
576521.5625 4178051.25 311.399993896
576521.5625 4178050.5 311.269989014
576521.625 4178050 311.25
576521.6875 4178049.5 311.239990234
576521.75 4178049 311.239990234
576521.8125 4178048.25 311.290008545
576521.875 4178047.75 311.25
576521.9375 4178047.25 311.339996338
576522 4178046.5 311.5
576522 4178046 311.260009766
576522.0625 4178045.5 311.339996338
576522.125 4178045 311.230010986
576522.1875 4178044.5 311.070007324
576522.25 4178043.75 311.309997559
576522.3125 4178043.25 311.25
576522.375 4178042.75 311.079986572
576522.4375 4178042.25 311.070007324
576522.5 4178041.5 311.269989014
576522.5 4178041 311.170013428
576522.5625 4178040.5 311.299987793
576522.625 4178039.75 311.320007324
576522.6875 4178039.25 311.170013428
576522.75 4178038.75 311.149993896
576522.8125 4178038.25 311.010009766
576522.875 4178037.75 311.029998779
576522.875 4178037 310.799987793
576522.9375 4178036.5 310.890014648
576523 4178036 311.089996338
576523.0625 4178035.25 311.179992676
576523.125 4178034.75 310.820007324
576523.1875 4178034.25 311.079986572
576523.25 4178033.75 311.040008545
576523.3125 4178033.25 310.820007324
576523.3125 4178032.5 310.570007324
576523.375 4178032 310.529998779
576523.4375 4178031.5 310.540008545
576523.5 4178031 310.480010986
576523.5625 4178030.25 310.679992676
576523.625 4178029.75 310.559997559
576523.625 4178029.25 310.440002441
576523.6875 4178028.75 310.359985352
576523.75 4178028 310.420013428
576523.8125 4178027.5 310.380004883
576523.875 4178027 310.299987793
576523.9375 4178026.5 310.429992676
576524 4178025.75 310.410003662
576524.0625 4178025.25 310.350006104
576524.125 4178024.75 310.529998779
576524.125 4178024.25 310.239990234
576524.1875 4178023.5 310.320007324
576524.25 4178023 310.309997559
576524.3125 4178022.5 310.029998779
576524.375 4178022 310.019989014
576524.4375 4178021.25 310.190002441
576524.5 4178020.75 310.170013428
576524.5 4178020.25 310.029998779
576523.375 4178020 310.420013428
576523.3125 4178020.75 310.260009766
576523.25 4178021.25 310.339996338
576523.1875 4178021.75 310.079986572
576523.125 4178022.5 310.279998779
576523.0625 4178023 310.619995117
576523.0625 4178023.5 310.670013428
576523 4178024 310.769989014
576522.9375 4178024.5 310.730010986
576522.875 4178025.25 310.880004883
576522.8125 4178025.75 310.720001221
576522.75 4178026.5 310.369995117
576522.6875 4178027 310.690002441
576522.625 4178027.5 310.609985352
576522.5625 4178028 310.510009766
576522.5 4178028.75 310.470001221
576522.4375 4178029.25 310.570007324
576522.375 4178029.75 310.600006104
576522.3125 4178030.5 310.649993896
576522.25 4178031 310.690002441
576522.25 4178031.5 310.779998779
576522.1875 4178032 310.779998779
576522.125 4178032.75 310.929992676
576522.0625 4178033.25 311.029998779
576522 4178033.75 310.989990234
576521.9375 4178034.5 310.829986572
576521.875 4178035 310.890014648
576521.8125 4178035.5 311.079986572
576521.75 4178036 311.010009766
576521.6875 4178036.75 311.089996338
576521.625 4178037.25 310.899993896
576521.5625 4178037.75 311.070007324
576521.5 4178038.5 311.029998779
576521.5 4178039 311.190002441
576521.4375 4178039.5 311.070007324
576521.375 4178040.25 311.260009766
576521.3125 4178040.75 311.309997559
576521.25 4178041.25 311.029998779
576521.1875 4178042 310.989990234
576521.125 4178042.5 311.149993896
576521.0625 4178043 311.079986572
576521 4178043.5 311.220001221
576520.9375 4178044 311.559997559
576520.9375 4178044.75 311.600006104
576520.8125 4178045.25 311.470001221
576520.75 4178046 311.230010986
576520.6875 4178046.5 311.329986572
576520.6875 4178047 311.600006104
576520.625 4178047.5 311.589996338
576520.5 4178048.25 311.320007324
576520.5 4178048.75 311.429992676
576520.4375 4178049.5 311.299987793
576520.375 4178050 311.399993896
576520.3125 4178050.5 311.5
576520.25 4178051 311.589996338
576520.1875 4178051.75 311.519989014
576520.125 4178052.25 311.570007324
576520.0625 4178052.75 311.519989014
576520 4178053.5 311.619995117
576519.9375 4178054 311.540008545
576519.9375 4178054.5 311.769989014
576519.875 4178055.25 311.910003662
576519.75 4178055.75 311.690002441
576519.75 4178056.25 311.660003662
576519.625 4178057 311.519989014
576519.625 4178057.5 311.920013428
576519.5625 4178058 311.809997559
576519.5 4178058.75 311.850006104
576519.0625 4178058.75 311.660003662
576519.125 4178058.25 311.579986572
576519.25 4178057.75 312.019989014
576519.25 4178057 312.019989014
576519.3125 4178056.75 311.559997559
576519.375 4178056 311.579986572
576519.4375 4178055.5 311.779998779
576519.5 4178055 311.529998779
576519.5 4178054.5 311.549987793
576519.5625 4178053.75 311.589996338
576519.625 4178053.25 311.350006104
576519.6875 4178052.75 311.529998779
576519.75 4178052.25 311.540008545
576519.8125 4178051.5 311.489990234
576519.875 4178051 311.690002441
576519.9375 4178050.5 311.549987793
576520 4178050 311.529998779
576520 4178049.5 311.399993896
576520.125 4178048.75 311.690002441
576520.125 4178048.25 311.559997559
576520.1875 4178047.75 311.269989014
576520.25 4178047.25 311.320007324
576520.3125 4178046.5 311.369995117
576520.375 4178046 311.260009766
576520.4375 4178045.5 311.390014648
576520.5 4178044.75 311.510009766
576520.5 4178044.25 311.529998779
576520.5625 4178043.75 311.359985352
576520.625 4178043.25 311.100006104
576520.6875 4178042.75 311.170013428
576520.75 4178042 311.579986572
576520.8125 4178041.5 311.230010986
576520.875 4178041 311.220001221
576520.9375 4178040.5 311.25
576520.9375 4178039.75 311.179992676
576521 4178039.25 311.230010986
576521.0625 4178038.75 311.100006104
576521.125 4178038.25 311.019989014
576521.1875 4178037.5 311.190002441
576521.25 4178037 311.100006104
576521.3125 4178036.5 311.109985352
576521.3125 4178036 310.929992676
576521.375 4178035.25 310.859985352
576521.4375 4178034.75 310.769989014
576521.5 4178034.25 310.779998779
576521.5625 4178033.75 310.640014648
576521.625 4178033 310.910003662
576521.6875 4178032.5 310.839996338
576521.75 4178032 310.920013428
576521.75 4178031.5 310.700012207
576521.8125 4178030.75 310.760009766
576521.9375 4178030.25 310.910003662
576521.9375 4178029.75 310.720001221
576522 4178029.25 310.600006104
576522.0625 4178028.5 310.630004883
576522.125 4178028 310.600006104
576522.1875 4178027.5 310.540008545
576522.25 4178027 310.359985352
576522.25 4178026.25 310.290008545
576522.3125 4178025.75 310.119995117
576522.375 4178025.25 310.160003662
576522.4375 4178024.75 310.25
576522.5 4178024 310.429992676
576522.5625 4178023.5 310.309997559
576522.625 4178023 310.260009766
576522.625 4178022.5 310.119995117
576522.75 4178021.75 310.339996338
576522.75 4178021.25 310.220001221
576522.8125 4178020.75 310.160003662
576522.875 4178020.25 310.260009766
576521.6875 4178020 310.160003662
576521.6875 4178020.5 310.410003662
576521.5625 4178021 310.109985352
576521.5625 4178021.5 310.380004883
576521.5 4178022.25 310.299987793
576521.5 4178022.75 311.040008545
576521.25 4178024.5 310.589996338
576521.1875 4178025 310.450012207
576521.125 4178025.75 310.369995117
576521.0625 4178026.25 310.440002441
576521 4178026.75 310.559997559
576520.9375 4178027.5 310.320007324
576520.875 4178028 310.519989014
576520.875 4178028.5 310.809997559
576520.75 4178029 310.559997559
576520.75 4178029.5 310.779998779
576520.6875 4178030.25 310.730010986
576520.625 4178030.75 310.799987793
576520.5625 4178031.25 310.739990234
576520.5 4178032 311.079986572
576520.4375 4178032.5 310.980010986
576520.375 4178033 311.100006104
576520.3125 4178033.5 311.070007324
576520.25 4178034.25 310.910003662
576520.1875 4178034.75 310.980010986
576520.125 4178035.5 310.809997559
576520.0625 4178036 310.880004883
576520 4178036.5 311.049987793
576520 4178037 311.170013428
576519.9375 4178037.75 311.049987793
576519.3125 4178043.5 311.380004883
576519.25 4178044 311.470001221
576519.25 4178044.5 311.559997559
576519.1875 4178045 311.450012207
576519.0625 4178045.75 311.179992676
576519.0625 4178046.25 311.679992676
576519 4178046.75 311.739990234
576518.9375 4178047.25 311.859985352
576518.875 4178048 311.470001221
576518.8125 4178048.5 311.600006104
576518.75 4178049.25 311.459991455
576518.6875 4178049.75 311.589996338
576518.625 4178050.25 311.640014648
576518.5625 4178051 311.690002441
576518.5 4178051.5 311.559997559
576518.4375 4178052 311.480010986
576518.375 4178052.75 311.429992676
576518.3125 4178053.25 311.589996338
576518.25 4178053.75 311.510009766
576518.25 4178054.25 311.850006104
576518.125 4178055 311.589996338
576518.125 4178055.5 311.929992676
576518 4178056.75 312.010009766
576517.9375 4178057.25 311.670013428
576517.875 4178057.75 311.929992676
576517.8125 4178058.5 311.820007324
576517.75 4178059 311.739990234
576517.375 4178058.75 311.839996338
576517.4375 4178058.25 311.660003662
576517.5 4178057.75 311.660003662
576517.5625 4178057.25 311.799987793
576517.625 4178056.5 311.850006104
576517.6875 4178056 311.690002441
576517.75 4178055.5 311.799987793
576517.75 4178055 311.709991455
576517.8125 4178054.25 311.690002441
576517.875 4178053.75 311.760009766
576517.9375 4178053.25 311.549987793
576518 4178052.75 311.559997559
576518.0625 4178052.25 311.480010986
576518.125 4178051.5 311.489990234
576518.1875 4178051 311.730010986
576518.25 4178050.5 311.730010986
576518.25 4178050 311.559997559
576518.3125 4178049.25 311.600006104
576518.375 4178048.75 311.649993896
576518.4375 4178048.25 311.579986572
576518.5 4178047.75 311.640014648
576518.5625 4178047.25 311.329986572
576518.625 4178046.5 311.309997559
576518.6875 4178046 311.630004883
576518.6875 4178045.5 311.299987793
576518.75 4178045 311.160003662
576518.8125 4178044.25 311.220001221
576518.875 4178043.75 311.279998779
576519.5 4178037.5 311.339996338
576519.5625 4178037 311.429992676
576519.625 4178036.5 311.429992676
576519.6875 4178035.75 311.450012207
576519.75 4178035.25 311.329986572
576519.75 4178034.75 310.929992676
576519.8125 4178034.25 310.820007324
576519.875 4178033.75 311.029998779
576519.9375 4178033 310.959991455
576520 4178032.5 310.920013428
576520.0625 4178032 310.730010986
576520.125 4178031.5 310.630004883
576520.1875 4178030.75 310.920013428
576520.25 4178030.25 310.859985352
576520.25 4178029.75 310.679992676
576520.3125 4178029.25 310.700012207
576520.375 4178028.5 310.880004883
576520.4375 4178028 310.670013428
576520.5 4178027.5 310.720001221
576520.5625 4178027 310.649993896
576520.625 4178026.25 310.519989014
576520.6875 4178025.75 310.440002441
576520.75 4178025.25 310.470001221
576520.8125 4178024.5 310.720001221
576521 4178022.75 310.910003662
576521.0625 4178021.75 310.239990234
576521.125 4178021.25 310.239990234
576521.1875 4178020.75 310.299987793
576521.25 4178020 310.239990234
576520 4178020.25 310.350006104
576519.9375 4178021 310.299987793
576519.875 4178021.5 310.269989014
576519.8125 4178022 310.339996338
576519.75 4178022.5 310.529998779
576519.6875 4178023.25 310.390014648
576519.625 4178023.75 310.170013428
576519.5625 4178024.5 310.209991455
576519.5 4178025 310.359985352
576519.5 4178025.5 310.549987793
576519.4375 4178026 310.519989014
576519.375 4178026.75 310.579986572
576519.3125 4178027.25 310.739990234
576519.25 4178027.75 310.679992676
576519.1875 4178028.25 310.790008545
576519.125 4178029 310.730010986
576519.0625 4178029.5 310.809997559
576519 4178030 310.890014648
576518.9375 4178030.75 310.970001221
576518.875 4178031.25 310.989990234
576518.8125 4178031.75 311.059997559
576518.75 4178032.5 310.940002441
576518.75 4178033 310.950012207
576518.625 4178033.5 310.890014648
576518.625 4178034 311.059997559
576518.5625 4178034.75 311.100006104
576518.5 4178035.25 311.140014648
576518.4375 4178035.75 311.290008545
576518.375 4178036.5 311.470001221
576517.5625 4178044 311.410003662
576517.5 4178044.5 311.459991455
576517.5 4178045.25 311.369995117
576517.4375 4178045.75 311.489990234
576517.3125 4178046.25 311.359985352
576517.25 4178047 311.359985352
576517.1875 4178047.5 311.220001221
576517.1875 4178048 311.489990234
576517.125 4178048.75 311.260009766
576517.0625 4178049.25 311.459991455
576517 4178049.75 311.619995117
576516.9375 4178050.25 311.579986572
576516.875 4178051 311.679992676
576516.8125 4178051.5 311.75
576516.75 4178052 311.910003662
576516.6875 4178052.75 311.869995117
576516.625 4178053.25 311.760009766
576516.5625 4178053.75 311.850006104
576516.5 4178054.5 311.549987793
576516.4375 4178055 311.570007324
576516.375 4178055.5 311.600006104
576516.3125 4178056.25 311.549987793
576516.25 4178056.75 311.899993896
576516.25 4178057.25 311.929992676
576516.1875 4178058 311.880004883
576516.0625 4178058.5 311.700012207
576516 4178059 311.730010986
576515.625 4178059.25 311.679992676
576515.6875 4178058.75 311.720001221
576515.75 4178058 312.010009766
576515.8125 4178057.5 311.929992676
576515.875 4178057 311.809997559
576515.9375 4178056.5 311.489990234
576516 4178056 311.660003662
576516.0625 4178055.25 311.809997559
576516.0625 4178054.75 311.690002441
576516.125 4178054.25 311.670013428
576516.1875 4178053.75 311.679992676
576516.25 4178053 311.649993896
576516.3125 4178052.5 311.570007324
576516.375 4178052 311.470001221
576516.4375 4178051.5 311.519989014
576516.5 4178051 311.359985352
576516.5625 4178050.25 311.630004883
576516.625 4178049.75 311.809997559
576516.6875 4178049.25 311.700012207
576516.75 4178048.5 311.700012207
576516.75 4178048 311.480010986
576516.8125 4178047.5 311.570007324
576516.875 4178047 311.609985352
576516.9375 4178046.25 311.540008545
576517 4178045.75 311.690002441
576517.0625 4178045.25 311.589996338
576517.125 4178044.75 311.380004883
576517.1875 4178044 311.489990234
576517.9375 4178036.25 311.299987793
576518 4178035.75 311.5
576518.0625 4178035 311.350006104
576518.125 4178034.5 310.910003662
576518.1875 4178034 310.829986572
576518.25 4178033.5 310.989990234
576518.3125 4178033 311.040008545
576518.375 4178032.25 310.950012207
576518.4375 4178031.75 311.079986572
576518.4375 4178031.25 310.959991455
576518.5 4178030.75 310.989990234
576518.5625 4178030 310.940002441
576518.625 4178029.5 310.679992676
576518.6875 4178029 310.670013428
576518.75 4178028.5 310.839996338
576518.8125 4178027.75 310.619995117
576518.875 4178027.25 310.649993896
576518.875 4178026.75 310.380004883
576518.9375 4178026.25 310.489990234
576519 4178025.75 310.380004883
576519.0625 4178025 310.350006104
576519.125 4178024.5 310.420013428
576519.1875 4178024 310.380004883
576519.25 4178023.25 310.290008545
576519.3125 4178022.75 310.25
576519.3125 4178022.25 310.179992676
576519.375 4178021.75 310.179992676
576519.4375 4178021 310.200012207
576519.5 4178020.5 310.380004883
576519.5625 4178020 310.239990234
576518.375 4178020 310.440002441
576518.3125 4178020.5 310.279998779
576518.25 4178021.25 310.359985352
576518.1875 4178021.75 310.239990234
576518.125 4178022.25 310.359985352
576518.0625 4178023 310.260009766
576518.0625 4178023.5 310.510009766
576518 4178024 310.350006104
576517.875 4178024.75 310.279998779
576517.8125 4178025.25 310.299987793
576517.8125 4178025.75 310.380004883
576517.75 4178026.25 310.440002441
576517.6875 4178027 310.399993896
576517.625 4178027.5 310.429992676
576517.5625 4178028 310.529998779
576517.5 4178028.5 310.799987793
576517.4375 4178029.25 310.920013428
576517.375 4178029.75 311.019989014
576517.3125 4178030.25 310.989990234
576517.25 4178031 310.890014648
576517.25 4178031.5 311.070007324
576517.1875 4178032 311.149993896
576517.125 4178032.5 311.190002441
576517 4178033.25 310.950012207
576517 4178033.75 311.200012207
576516.9375 4178034.5 311.029998779
576516.8125 4178035 310.929992676
576516.75 4178035.5 311
576516.75 4178036 311.070007324
576516.6875 4178036.75 310.970001221
576515.875 4178044.25 311.619995117
576515.8125 4178044.75 311.390014648
576515.75 4178045.5 311.350006104
576515.75 4178046 311.579986572
576515.6875 4178046.5 311.589996338
576515.625 4178047 311.630004883
576515.5 4178047.75 311.309997559
576515.4375 4178048.25 311.440002441
576515.375 4178049 311.480010986
576515.3125 4178049.5 311.429992676
576515.3125 4178050 311.619995117
576515.25 4178050.5 311.619995117
576515.1875 4178051.25 311.700012207
576515.125 4178051.75 311.700012207
576515.0625 4178052.25 311.790008545
576515 4178053 311.769989014
576514.9375 4178053.5 311.619995117
576514.875 4178054 311.630004883
576514.8125 4178054.75 311.829986572
576514.75 4178055.25 312
576514.6875 4178055.75 311.920013428
576514.625 4178056.5 311.869995117
576514.5625 4178057 311.850006104
576514.5 4178057.5 311.880004883
576514.4375 4178058.25 311.670013428
576514.375 4178058.75 311.920013428
576514.3125 4178059.25 311.829986572
576514 4178058.75 311.690002441
576514.0625 4178058.25 311.679992676
576514.125 4178057.75 311.940002441
576514.1875 4178057 311.980010986
576514.25 4178056.5 311.940002441
576514.3125 4178056 311.829986572
576514.375 4178055.5 311.839996338
576514.4375 4178055 311.730010986
576514.5 4178054.25 311.790008545
576514.5 4178053.75 311.829986572
576514.5625 4178053.25 311.730010986
576514.625 4178052.75 311.459991455
576514.6875 4178052 311.630004883
576514.75 4178051.5 311.589996338
576514.8125 4178051 311.640014648
576514.875 4178050.5 311.579986572
576514.9375 4178049.75 311.720001221
576515 4178049.25 311.720001221
576515.0625 4178048.75 311.570007324
576515.125 4178048.25 311.549987793
576515.125 4178047.5 311.230010986
576515.1875 4178047 311.230010986
576515.25 4178046.5 311.279998779
576515.3125 4178046 311.239990234
576515.375 4178045.25 311.329986572
576515.4375 4178044.75 311.470001221
576515.5 4178044.25 311.489990234
576516.25 4178036.75 311.269989014
576516.3125 4178036.25 311.209991455
576516.375 4178035.75 311.209991455
576516.375 4178035.25 310.890014648
576516.4375 4178034.5 310.839996338
576516.5625 4178034 311.160003662
576516.625 4178033.5 311.160003662
576516.625 4178033 310.880004883
576516.6875 4178032.25 310.850006104
576516.75 4178031.75 310.839996338
576516.8125 4178031.25 310.670013428
576516.875 4178030.5 310.760009766
576516.9375 4178030 310.709991455
576517 4178029.5 310.670013428
576517 4178029 310.609985352
576517.0625 4178028.5 310.489990234
576517.125 4178027.75 310.579986572
576517.1875 4178027.25 310.549987793
576517.25 4178026.75 310.609985352
576517.3125 4178026 310.559997559
576517.375 4178025.5 310.390014648
576517.4375 4178025 310.320007324
576517.5 4178024.5 310.399993896
576517.5625 4178023.75 310.450012207
576517.625 4178023.25 310.309997559
576517.6875 4178022.75 310.25
576517.6875 4178022.25 310.130004883
576517.75 4178021.5 310.279998779
576517.8125 4178021 310.239990234
576517.875 4178020.5 310.230010986
576516.75 4178019.75 310.209991455
576516.6875 4178020.5 310.369995117
576516.625 4178021 310.299987793
576516.5625 4178021.5 310.089996338
576516.5 4178022.25 310.399993896
576516.4375 4178022.75 310.480010986
576516.375 4178023.25 310.440002441
576516.3125 4178023.75 310.540008545
576516.25 4178024.5 310.369995117
576516.1875 4178025 310.410003662
576516.125 4178025.5 310.450012207
576516.0625 4178026.25 310.440002441
576516 4178026.75 310.589996338
576515.9375 4178027.25 310.529998779
576515.9375 4178028 310.589996338
576515.8125 4178028.5 310.589996338
576515.8125 4178029 310.700012207
576515.75 4178029.75 310.700012207
576515.6875 4178030.25 310.910003662
576515.625 4178030.75 311.010009766
576515.5625 4178031.25 311.179992676
576515.5 4178032 311.029998779
576515.4375 4178032.5 311.049987793
576515.375 4178033 311.119995117
576515.3125 4178033.5 311.239990234
576515.25 4178034.25 311.179992676
576515.1875 4178034.75 311.230010986
576515.125 4178035.5 311.040008545
576515.0625 4178036 310.989990234
576515 4178036.5 310.880004883
576515 4178037 311.350006104
576514.875 4178037.75 311.089996338
576514.1875 4178044.5 311.640014648
576514.0625 4178045.25 311.239990234
576514.0625 4178045.75 311.720001221
576514 4178046.25 311.709991455
576513.9375 4178047 311.489990234
576513.875 4178047.5 311.640014648
576513.8125 4178048 311.619995117
576513.75 4178048.75 311.480010986
576513.6875 4178049.25 311.519989014
576513.625 4178050 311.470001221
576513.5625 4178050.5 311.559997559
576513.5 4178051 311.75
576513.4375 4178051.5 311.820007324
576513.375 4178052.25 311.850006104
576513.3125 4178052.75 311.600006104
576513.25 4178053.5 311.559997559
576513.1875 4178054 311.790008545
576513.125 4178054.5 311.700012207
576513.0625 4178055 311.829986572
576513 4178055.75 311.869995117
576512.9375 4178056.25 311.820007324
576512.875 4178056.75 311.739990234
576512.8125 4178057.5 311.950012207
576512.75 4178058 312.059997559
576512.6875 4178058.5 312.029998779
576512.625 4178059.25 311.899993896
576512.3125 4178059 311.839996338
576512.3125 4178058.5 311.760009766
576512.375 4178058 311.700012207
576512.4375 4178057.5 311.679992676
576512.5 4178056.75 311.75
576512.5625 4178056.25 311.760009766
576512.625 4178055.75 311.809997559
576512.6875 4178055.25 311.970001221
576512.75 4178054.5 311.809997559
576512.8125 4178054 311.589996338
576512.875 4178053.5 311.690002441
576512.9375 4178053 311.869995117
576512.9375 4178052.5 311.510009766
576513 4178051.75 311.529998779
576513.0625 4178051.25 311.609985352
576513.125 4178050.75 311.600006104
576513.1875 4178050.25 311.730010986
576513.25 4178049.5 311.769989014
576513.3125 4178049 311.670013428
576513.375 4178048.5 311.570007324
576513.4375 4178048 311.459991455
576513.5 4178047.5 311.390014648
576513.5625 4178046.75 311.529998779
576513.625 4178046.25 311.470001221
576513.6875 4178045.75 311.450012207
576513.75 4178045.25 311.470001221
576514.5 4178037.75 311.380004883
576514.5 4178037.25 311.200012207
576514.5625 4178036.75 311.040008545
576514.625 4178036.25 311.089996338
576514.6875 4178035.5 311.149993896
576514.75 4178035 310.940002441
576514.8125 4178034.5 310.959991455
576514.875 4178034 310.989990234
576514.9375 4178033.25 311.019989014
576515 4178032.75 311.200012207
576515.0625 4178032.25 311.260009766
576515.125 4178031.75 311.059997559
576515.1875 4178031 311.130004883
576515.1875 4178030.5 310.769989014
576515.25 4178030 310.790008545
576515.3125 4178029.5 310.779998779
576515.375 4178028.75 310.910003662
576515.4375 4178028.25 310.829986572
576515.5 4178027.75 310.769989014
576515.5625 4178027.25 310.839996338
576515.625 4178026.5 310.529998779
576515.6875 4178026 310.470001221
576515.75 4178025.5 310.420013428
576515.75 4178025 310.399993896
576515.875 4178024.25 310.690002441
576515.9375 4178023.25 310.470001221
576516 4178022.75 310.109985352
576516.125 4178021.5 310.140014648
576516.1875 4178021 310.25
576516.25 4178020.5 310.200012207
576516.3125 4178019.75 310.320007324
576515.0625 4178020.25 310.410003662
576515 4178020.75 310.149993896
576514.9375 4178021.25 310.209991455
576514.9375 4178021.75 310.369995117
576514.875 4178022.5 310.390014648
576514.75 4178023 310.339996338
576514.75 4178023.5 310.570007324
576514.6875 4178024.25 310.589996338
576514.625 4178024.75 310.519989014
576514.5625 4178025.25 310.480010986
576514.5 4178026 310.559997559
576514.4375 4178026.5 310.730010986
576514.375 4178027 310.839996338
576514.3125 4178027.5 310.690002441
576514.25 4178028.25 310.619995117
576514.1875 4178028.75 310.899993896
576514.125 4178029.25 310.950012207
576514.0625 4178030 310.820007324
576514 4178030.5 310.769989014
576513.9375 4178031 311.019989014
576513.875 4178031.75 310.739990234
576513.8125 4178032.25 310.829986572
576513.75 4178032.75 311.070007324
576513.6875 4178033.25 311.190002441
576513.625 4178034 311.179992676
576513.5625 4178034.5 311.100006104
576513.5 4178035 311.010009766
576513.4375 4178035.75 311.119995117
576513.375 4178036.25 311.140014648
576513.3125 4178036.75 311.140014648
576513.25 4178037.5 311.049987793
576513.1875 4178038 311.070007324
576513.125 4178038.5 310.970001221
576512.5 4178045 311.410003662
576512.4375 4178045.5 311.540008545
576512.375 4178046 311.619995117
576512.3125 4178046.75 311.519989014
576512.25 4178047.25 311.570007324
576512.1875 4178047.75 311.559997559
576512.125 4178048.5 311.589996338
576512.0625 4178049 311.75
576512 4178049.5 311.589996338
576511.9375 4178050.25 311.619995117
576511.875 4178050.75 311.429992676
576511.75 4178051.5 311.350006104
576511.75 4178052 311.570007324
576511.6875 4178052.5 311.589996338
576511.625 4178053 311.600006104
576511.5625 4178053.75 311.5
576511.5 4178054.25 311.690002441
576511.4375 4178054.75 311.589996338
576511.375 4178055.5 311.570007324
576511.3125 4178056 311.760009766
576511.25 4178056.5 311.929992676
576511.1875 4178057.25 311.910003662
576511.125 4178057.75 312.010009766
576511.0625 4178058.25 312.079986572
576510.6875 4178058.5 311.869995117
576510.75 4178057.75 311.989990234
576510.8125 4178057.25 312.019989014
576510.875 4178056.75 311.920013428
576510.9375 4178056.25 311.950012207
576511 4178055.5 311.839996338
576511 4178055 311.769989014
576511.0625 4178054.5 311.890014648
576511.125 4178054 311.730010986
576511.1875 4178053.5 311.829986572
576511.25 4178052.75 311.579986572
576511.3125 4178052.25 311.619995117
576511.375 4178051.75 311.609985352
576511.375 4178051.25 311.350006104
576511.5 4178050.5 311.679992676
576511.5625 4178050 311.589996338
576511.5625 4178049.5 311.470001221
576511.625 4178049 311.540008545
576511.6875 4178048.5 311.559997559
576511.75 4178047.75 311.640014648
576511.875 4178047.25 311.799987793
576511.875 4178046.75 311.5
576511.9375 4178046.25 311.459991455
576512 4178045.5 311.480010986
576512.6875 4178038.75 311.390014648
576512.75 4178038.25 311.359985352
576512.8125 4178037.75 311.359985352
576512.875 4178037.25 311.109985352
576512.9375 4178036.5 311.25
576513 4178036 311.109985352
576513.0625 4178035.5 311.089996338
576513.125 4178035 311.230010986
576513.1875 4178034.25 311.130004883
576513.25 4178033.75 311.149993896
576513.3125 4178033.25 311.160003662
576513.375 4178032.75 311.119995117
576513.375 4178032 310.959991455
576513.5 4178031.5 311.239990234
576513.5 4178031 310.910003662
576513.5625 4178030.5 310.660003662
576513.625 4178029.75 310.869995117
576513.6875 4178029.25 310.880004883
576513.75 4178028.75 310.690002441
576513.8125 4178028.25 310.769989014
576513.875 4178027.5 310.75
576513.9375 4178027 310.630004883
576513.9375 4178026.5 310.540008545
576514 4178026 310.640014648
576514.0625 4178025.25 310.489990234
576514.125 4178024.75 310.660003662
576514.1875 4178024.25 310.529998779
576514.25 4178023.75 310.489990234
576514.3125 4178023 310.429992676
576514.375 4178022.5 310.369995117
576514.4375 4178022 310.239990234
576514.5 4178021.5 310.200012207
576514.5625 4178020.25 310.109985352
576513.4375 4178020 310.279998779
576513.375 4178020.75 310.470001221
576513.3125 4178021.25 310.190002441
576513.25 4178021.75 310.440002441
576513.1875 4178022.5 310.350006104
576513.125 4178023 310.540008545
576513.0625 4178023.5 310.279998779
576513 4178024 310.429992676
576512.9375 4178024.75 310.510009766
576512.875 4178025.25 310.410003662
576512.875 4178025.75 310.779998779
576512.8125 4178026.25 310.799987793
576512.6875 4178027 310.519989014
576512.625 4178027.5 310.510009766
576512.625 4178028 310.769989014
576512.5 4178028.75 310.660003662
576512.5 4178029.25 310.839996338
576512.4375 4178029.75 310.799987793
576512.3125 4178030.5 310.679992676
576512.3125 4178031 310.910003662
576512.25 4178031.5 310.920013428
576512.1875 4178032.25 310.920013428
576512.125 4178032.75 310.980010986
576512.0625 4178033.25 311.130004883
576512 4178033.75 311.269989014
576511.9375 4178034.5 311.339996338
576511.875 4178035 311.089996338
576511.8125 4178035.5 311.119995117
576511.75 4178036.25 311.109985352
576511.6875 4178036.75 311.279998779
576511.625 4178037.25 311.339996338
576511.5625 4178038 311.119995117
576511.5 4178038.5 311.190002441
576511.4375 4178039 311.269989014
576510.75 4178045.5 311.549987793
576510.6875 4178046 311.619995117
576510.625 4178046.5 311.589996338
576510.5625 4178047.25 311.5
576510.5 4178047.75 311.549987793
576510.4375 4178048.25 311.5
576510.375 4178049 311.429992676
576510.3125 4178049.5 311.459991455
576510.25 4178050 311.429992676
576510.1875 4178050.75 311.790008545
576510.125 4178051.25 311.839996338
576510.0625 4178051.75 311.940002441
576510 4178052.5 311.850006104
576509.9375 4178053 311.720001221
576509.875 4178053.5 311.570007324
576509.8125 4178054.25 311.529998779
576509.75 4178054.75 311.640014648
576509.6875 4178055.25 311.570007324
576509.625 4178056 311.880004883
576509.5625 4178056.5 311.980010986
576509.5 4178057 311.760009766
576509.375 4178058.25 311.859985352
576509.0625 4178058 312.040008545
576509.125 4178057.25 312.130004883
576509.1875 4178056.75 311.970001221
576509.25 4178056.25 311.799987793
576509.25 4178055.75 311.630004883
576509.375 4178055.25 311.920013428
576509.375 4178054.5 311.779998779
576509.4375 4178054 311.799987793
576509.5 4178053.5 311.869995117
576509.5625 4178053 311.649993896
576509.625 4178052.5 311.679992676
576509.6875 4178051.75 311.799987793
576509.75 4178051.25 311.790008545
576509.8125 4178050.75 311.510009766
576509.875 4178050.25 311.670013428
576509.9375 4178049.5 311.529998779
576510 4178049 311.559997559
576510.0625 4178048.5 311.670013428
576510.0625 4178048 311.420013428
576510.1875 4178047.25 311.609985352
576510.1875 4178046.75 311.579986572
576510.25 4178046.25 311.619995117
576510.3125 4178045.75 311.570007324
576510.9375 4178039.5 311.089996338
576511 4178039 311.160003662
576511.0625 4178038.5 311.209991455
576511.125 4178037.75 311.119995117
576511.1875 4178037.25 311.079986572
576511.25 4178036.75 311.119995117
576511.3125 4178036.25 311.179992676
576511.375 4178035.5 311.079986572
576511.4375 4178035 311.109985352
576511.5 4178034.5 311.209991455
576511.5625 4178034 311.119995117
576511.625 4178033.25 311.190002441
576511.6875 4178032.75 311.170013428
576511.75 4178032.25 311.179992676
576511.8125 4178031.5 311.109985352
576511.875 4178031 310.950012207
576511.875 4178030.5 310.799987793
576511.9375 4178030 310.769989014
576512 4178029.5 310.779998779
576512.0625 4178028.75 310.850006104
576512.125 4178028.25 310.519989014
576512.1875 4178027.75 310.549987793
576512.25 4178027.25 310.589996338
576512.3125 4178026.5 310.709991455
576512.375 4178026 310.630004883
576512.4375 4178025.5 310.589996338
576512.5 4178025 310.399993896
576512.5625 4178024.25 310.480010986
576512.625 4178023.75 310.489990234
576512.625 4178023.25 310.339996338
576512.6875 4178022.75 310.260009766
576512.75 4178022 310.239990234
576512.8125 4178021.5 310.170013428
576512.875 4178021 310.140014648
576512.9375 4178020.5 310.109985352
576513 4178019.75 310.200012207
576511.8125 4178019.75 310.399993896
576511.75 4178020.5 310.309997559
576511.6875 4178021 310.519989014
576511.625 4178021.5 310.480010986
576511.5625 4178022.25 310.119995117
576511.5 4178022.75 310.119995117
576511.4375 4178023.25 310.320007324
576511.375 4178023.75 310.609985352
576511.3125 4178024.5 310.690002441
576511.25 4178025 310.470001221
576511.1875 4178025.5 310.630004883
576511.125 4178026.25 310.5
576511.125 4178026.75 310.959991455
576511.0625 4178027.25 311.059997559
576511 4178027.75 310.989990234
576510.875 4178028.5 310.559997559
576510.8125 4178029 310.75
576510.75 4178029.5 310.829986572
576510.75 4178030 311.070007324
576510.6875 4178030.75 311.040008545
576510.5625 4178031.25 310.950012207
576510.5625 4178031.75 311.070007324
576510.5 4178032.5 311.059997559
576510.4375 4178033 311.019989014
576510.3125 4178033.5 310.970001221
576510.3125 4178034.25 311.160003662
576510.25 4178034.75 311.029998779
576510.1875 4178035.25 311.029998779
576510.125 4178035.75 311.380004883
576510.0625 4178036.5 311.339996338
576510 4178037 311.260009766
576509.875 4178037.75 311.100006104
576509.875 4178038.25 311.420013428
576509.8125 4178038.75 311.290008545
576509.75 4178039.25 311.470001221
576509.6875 4178040 311.470001221
576509.0625 4178045.75 311.619995117
576509 4178046.25 311.619995117
576508.9375 4178047 311.649993896
576508.875 4178047.5 311.670013428
576508.8125 4178048 311.559997559
576508.75 4178048.75 311.709991455
576508.6875 4178049.25 311.540008545
576508.625 4178049.75 311.869995117
576508.5625 4178050.25 311.769989014
576508.4375 4178051 311.299987793
576508.4375 4178051.5 311.540008545
576508.3125 4178052.25 311.549987793
576508.25 4178052.75 311.510009766
576508.25 4178053.25 311.730010986
576508.125 4178054 311.600006104
576508.0625 4178054.5 311.660003662
576508 4178055 311.609985352
576508 4178055.75 311.709991455
576507.9375 4178056.25 311.809997559
576507.875 4178056.75 311.820007324
576507.8125 4178057.25 312.070007324
576507.75 4178058 312.119995117
576507.4375 4178057.25 311.940002441
576507.4375 4178056.75 311.739990234
576507.5 4178056.25 311.869995117
576507.5625 4178055.5 311.869995117
576507.625 4178055 311.760009766
576507.6875 4178054.5 311.700012207
576507.75 4178054 311.739990234
576507.8125 4178053.5 311.609985352
576507.875 4178052.75 311.640014648
576507.9375 4178052.25 311.730010986
576508 4178051.75 311.779998779
576508.0625 4178051.25 311.730010986
576508.125 4178050.5 311.630004883
576508.1875 4178050 311.690002441
576508.25 4178049.5 311.600006104
576508.3125 4178049 311.760009766
576508.375 4178048.5 311.549987793
576508.375 4178047.75 311.470001221
576508.5 4178047.25 311.600006104
576508.5 4178046.75 311.420013428
576508.5625 4178046 311.660003662
576508.625 4178045.5 311.410003662
576509.1875 4178040.5 311.350006104
576509.25 4178040 311.200012207
576509.3125 4178039.5 311.269989014
576509.375 4178038.75 311.429992676
576509.4375 4178038.25 311.350006104
576509.5 4178037.75 311.399993896
576509.5625 4178037.25 311.369995117
576509.625 4178036.5 311.329986572
576509.625 4178036 311.209991455
576509.6875 4178035.5 311.119995117
576509.75 4178035 310.940002441
576509.8125 4178034.5 310.959991455
576509.875 4178033.75 311.089996338
576509.9375 4178033.25 310.829986572
576510 4178032.75 311.309997559
576510.0625 4178032.25 310.839996338
576510.125 4178031.5 310.910003662
576510.1875 4178031 311.049987793
576510.25 4178030.5 310.75
576510.3125 4178030 310.820007324
576510.375 4178029.25 310.760009766
576510.375 4178028.75 310.559997559
576510.5 4178028.25 310.910003662
576510.5625 4178027.5 310.959991455
576510.5625 4178027 310.679992676
576510.625 4178026.5 310.690002441
576510.6875 4178026 310.350006104
576510.75 4178025.5 310.549987793
576510.8125 4178024.75 310.299987793
576510.875 4178024.25 310.640014648
576510.9375 4178023.75 310.519989014
576511 4178023.25 310.350006104
576511.0625 4178022.5 310.290008545
576511.125 4178022 310.279998779
576511.1875 4178021.5 310.329986572
576511.25 4178021 310.279998779
576511.25 4178020.25 310.140014648
576510.125 4178020 310.25
576510.0625 4178020.5 310.179992676
576510 4178021 310.480010986
576509.9375 4178021.75 310.390014648
576509.875 4178022.25 310.510009766
576509.8125 4178022.75 310.380004883
576509.75 4178023.5 310.410003662
576509.6875 4178024 310.290008545
576509.625 4178024.5 310.410003662
576509.5625 4178025.25 310.589996338
576509.5 4178025.75 310.760009766
576509.4375 4178026.25 310.730010986
576509.375 4178027 310.529998779
576509.3125 4178027.5 310.609985352
576509.25 4178028 310.880004883
576509.1875 4178028.5 310.679992676
576509.1875 4178029.25 310.940002441
576509.0625 4178029.75 310.940002441
576509 4178030.25 310.760009766
576509 4178031 310.980010986
576508.875 4178031.5 310.880004883
576508.8125 4178032 310.950012207
576508.75 4178032.5 311.029998779
576508.6875 4178033.25 311.029998779
576508.625 4178033.75 310.959991455
576508.5625 4178034.25 311.149993896
576508.5 4178035 311.130004883
576508.4375 4178035.5 310.910003662
576508.375 4178036 311.200012207
576508.375 4178036.75 311.350006104
576508.25 4178037.25 311.200012207
576508.1875 4178037.75 311.130004883
576508.125 4178038.5 311.179992676
576508.0625 4178039 311.290008545
576508.0625 4178039.5 311.429992676
576508 4178040.25 311.410003662
576507.9375 4178040.75 311.480010986
576507.8125 4178041.25 311.350006104
576507.4375 4178045.25 311.709991455
576507.3125 4178046 311.570007324
576507.25 4178046.5 311.600006104
576507.1875 4178047 311.549987793
576507.1875 4178047.75 311.700012207
576507.0625 4178048.25 311.600006104
576507 4178048.75 311.489990234
576506.9375 4178049.5 311.429992676
576506.875 4178050 311.589996338
576506.8125 4178050.5 311.510009766
576506.75 4178051.25 311.690002441
576506.6875 4178051.75 311.559997559
576506.625 4178052.25 311.690002441
576506.5625 4178053 311.700012207
576506.5 4178053.5 311.75
576506.4375 4178054 311.75
576506.375 4178054.75 311.769989014
576506.3125 4178055.25 311.820007324
576506.25 4178055.75 311.929992676
576506.1875 4178056.5 311.649993896
576506.0625 4178057.5 312.049987793
576505.5625 4178058.75 311.809997559
576505.625 4178058.25 311.720001221
576505.6875 4178057.5 311.809997559
576505.75 4178057 312.049987793
576505.8125 4178056.5 311.920013428
576505.875 4178055.75 312.160003662
576505.9375 4178055.25 311.910003662
576506 4178054.75 312.140014648
576506 4178054.25 311.630004883
576506.125 4178053.75 311.75
576506.1875 4178053.25 311.850006104
576506.25 4178052.5 311.989990234
576506.25 4178052 311.540008545
576506.3125 4178051.5 311.429992676
576506.375 4178051 311.549987793
576506.4375 4178050.25 311.619995117
576506.5 4178049.75 311.739990234
576506.5625 4178049.25 311.829986572
576506.625 4178048.75 311.630004883
576506.6875 4178048.25 311.619995117
576506.75 4178047.5 311.720001221
576506.8125 4178047 311.619995117
576506.875 4178046.5 311.570007324
576506.9375 4178046 311.589996338
576507 4178045.25 311.519989014
576507.0625 4178044.75 311.679992676
576507.25 4178042.5 311.200012207
576507.375 4178042 311.399993896
576507.4375 4178041.5 311.519989014
576507.5 4178040.75 311.529998779
576507.5 4178040.25 311.350006104
576507.5625 4178039.75 311.320007324
576507.625 4178039.25 311.390014648
576507.6875 4178038.5 311.369995117
576507.75 4178038 311.339996338
576507.8125 4178037.5 311.140014648
576507.875 4178037 311.089996338
576507.9375 4178036.5 311.190002441
576508 4178035.75 311.260009766
576508.0625 4178035.25 311.269989014
576508.125 4178034.75 311.309997559
576508.1875 4178034 311.230010986
576508.25 4178033.5 311.179992676
576508.3125 4178033 310.899993896
576508.375 4178032.5 310.910003662
576508.4375 4178031.75 310.970001221
576508.5 4178031.25 310.799987793
576508.5 4178030.75 310.850006104
576508.5625 4178030.25 310.829986572
576508.625 4178029.75 310.839996338
576508.6875 4178029 310.820007324
576508.75 4178028.5 310.630004883
576508.8125 4178028 310.720001221
576508.875 4178027.5 310.609985352
576508.9375 4178027 310.399993896
576509 4178026.25 310.549987793
576509.0625 4178025.75 310.529998779
576509.125 4178025.25 310.559997559
576509.1875 4178024.5 310.690002441
576509.25 4178024 310.619995117
576509.3125 4178023.5 310.709991455
576509.375 4178023 310.489990234
576509.4375 4178022.25 310.179992676
576509.5 4178021.75 310.339996338
576509.5625 4178021.25 310.459991455
576509.625 4178020.5 310.459991455
576509.6875 4178020 310.329986572
576508.5 4178019.75 310.200012207
576508.5 4178020.25 310.279998779
576508.4375 4178020.75 310.489990234
576508.375 4178021.5 310.480010986
576508.3125 4178022 310.420013428
576508.25 4178022.5 310.450012207
576508.125 4178023.25 310.220001221
576508.0625 4178023.75 310.329986572
576508 4178024.25 310.359985352
576508 4178025 310.649993896
576507.9375 4178025.5 310.600006104
576507.8125 4178026 310.549987793
576507.75 4178026.75 310.609985352
576507.75 4178027.25 310.549987793
576507.6875 4178027.75 310.720001221
576507.625 4178028.25 310.760009766
576507.5625 4178029 310.950012207
576507.5 4178029.5 311.019989014
576507.4375 4178030 310.839996338
576507.375 4178030.75 310.890014648
576507.25 4178031.25 310.700012207
576507.1875 4178031.75 310.739990234
576507.1875 4178032.5 310.940002441
576507.125 4178033 311.109985352
576507.0625 4178033.5 311.079986572
576507 4178034 311.260009766
576506.9375 4178034.75 311.359985352
576506.875 4178035.25 311.309997559
576506.75 4178035.75 311.070007324
576506.75 4178036.5 311.109985352
576506.6875 4178037 311.079986572
576506.625 4178037.5 311.220001221
576506.5625 4178038 311.380004883
576506.5 4178038.75 311.170013428
576506.375 4178039.25 311.160003662
576506.375 4178039.75 311.399993896
576506.3125 4178040.5 311.579986572
576506.25 4178041 311.329986572
576506.125 4178041.75 311.140014648
576506.0625 4178042.25 311.160003662
576506 4178042.75 311.320007324
576506 4178043.25 311.420013428
576505.9375 4178044 311.489990234
576505.8125 4178045 311.869995117
576505.6875 4178045.75 311.429992676
576505.6875 4178046.25 311.679992676
576505.625 4178046.75 311.700012207
576505.5 4178047.5 311.589996338
576505.4375 4178048 311.570007324
576505.375 4178048.5 311.579986572
576505.3125 4178049.25 311.570007324
576505.25 4178049.75 311.649993896
576505.1875 4178050.25 311.779998779
576505.125 4178050.75 311.880004883
576505.0625 4178051.5 311.760009766
576505 4178052 311.670013428
576504.9375 4178052.75 311.570007324
576504.875 4178053.25 311.730010986
576504.8125 4178053.75 311.910003662
576504.75 4178054.25 312.160003662
576504.625 4178055.5 311.989990234
576504.5625 4178056 312.149993896
576504.5 4178056.75 311.890014648
576504.4375 4178057.25 311.859985352
576504.375 4178058 311.799987793
576504.3125 4178058.5 311.760009766
576504.25 4178059 312.010009766
576503.8125 4178059.25 311.619995117
576503.875 4178058.75 311.579986572
576503.9375 4178058 312.019989014
576504 4178057.5 311.540008545
576504.0625 4178057 311.589996338
576504.125 4178056.5 311.869995117
576504.1875 4178055.75 311.720001221
576504.25 4178055.25 311.720001221
576504.3125 4178054.75 311.779998779
576504.375 4178054 312.079986572
576504.4375 4178053.75 311.720001221
576504.5 4178053 311.649993896
576504.5625 4178052.5 311.640014648
576504.625 4178052 311.75
576504.625 4178051.5 311.410003662
576504.6875 4178051 311.429992676
576504.75 4178050.25 311.399993896
576504.8125 4178049.75 311.399993896
576504.9375 4178049.25 311.790008545
576505 4178048.75 311.559997559
576505 4178048 311.510009766
576505.0625 4178047.5 311.450012207
576505.125 4178047 311.540008545
576505.1875 4178046.5 311.519989014
576505.25 4178045.75 311.480010986
576505.3125 4178045.25 311.480010986
576505.4375 4178044 311.649993896
576505.5 4178043.5 311.529998779
576505.5625 4178043 311.420013428
576505.625 4178042.5 311.220001221
576505.6875 4178042 311.480010986
576505.75 4178041.25 311.200012207
576505.8125 4178040.75 311.089996338
576505.875 4178040.25 311.209991455
576505.9375 4178039.75 311.320007324
576506 4178039 311.140014648
576506.0625 4178038.5 311.369995117
576506.125 4178038 311.450012207
576506.1875 4178037.5 311.239990234
576506.25 4178036.75 311.170013428
576506.3125 4178036.25 311.239990234
576506.375 4178035.75 311.470001221
576506.4375 4178035.25 311.359985352
576506.5 4178034.5 311.309997559
576506.5 4178034 311
576506.5625 4178033.5 310.959991455
576506.625 4178033 310.890014648
576506.6875 4178032.25 311.040008545
576506.75 4178031.75 310.959991455
576506.8125 4178031.25 310.929992676
576506.875 4178030.75 310.890014648
576506.9375 4178030.25 310.850006104
