# .PCD v.7 - Point Cloud Data file format
VERSION .7
FIELDS x y z
SIZE 4 4 4
TYPE F F F
COUNT 1 1 1
WIDTH 1406
HEIGHT 1
VIEWPOINT 0 0 0 1 0 0 0
POINTS 1406
DATA ascii
577609.1914 4180940.1592 296.42 
577609.1914 4180940.3564 296.39 
577609.1914 4180940.5537 296.38 
577609.1914 4180940.7510 296.39 
577609.1914 4180940.9483 296.41 
577609.1914 4180941.1456 296.46 
577609.1914 4180941.3429 296.46 
577609.1914 4180941.5402 296.47 
577609.1914 4180941.7375 296.42 
577609.1914 4180941.9347 296.46 
577609.1914 4180942.1320 296.44 
577609.1914 4180942.3293 296.50 
577609.1914 4180942.5266 296.40 
577609.1914 4180942.7239 296.38 
577609.1914 4180942.9212 296.37 
577609.1914 4180943.1185 296.40 
577609.1914 4180943.3158 296.43 
577609.1914 4180943.5130 296.47 
577609.1914 4180943.7103 296.51 
577609.1914 4180943.9076 296.55 
577609.1914 4180944.1049 296.58 
577609.1914 4180944.3022 296.58 
577609.1914 4180944.4995 296.56 
577609.1914 4180944.6968 296.51 
577609.1914 4180944.8941 296.44 
577609.1914 4180945.0913 296.37 
577609.1914 4180945.2886 296.31 
577609.1914 4180945.4859 296.28 
577609.1914 4180945.6832 296.31 
577609.1914 4180945.8805 296.41 
577609.1914 4180946.0778 296.59 
577609.1914 4180946.4724 296.37 
577609.1914 4180947.6561 299.65 
577609.1914 4180947.8534 299.90 
577609.1914 4180948.0507 300.08 
577609.1914 4180948.2479 300.18 
577609.1914 4180948.4452 300.20 
577609.1914 4180948.6425 300.23 
577609.1914 4180948.8398 300.20 
577609.1914 4180949.0371 300.08 
577609.1914 4180949.2344 300.12 
577609.1914 4180949.4317 300.10 
577609.1914 4180949.6290 300.32 
577609.1914 4180949.8263 300.12 
577609.1914 4180950.0235 300.15 
577609.1914 4180950.2208 300.43 
577609.1914 4180950.4181 300.25 
577609.1914 4180950.6154 300.31 
577609.1914 4180950.8127 300.36 
577609.1914 4180951.0100 300.41 
577609.1914 4180951.2073 300.45 
577609.1914 4180951.4046 300.49 
577609.1914 4180951.6018 300.52 
577609.1914 4180951.7991 300.55 
577609.1914 4180951.9964 300.58 
577609.1914 4180952.1937 300.60 
577609.1914 4180952.3910 300.63 
577609.1914 4180952.5883 300.65 
577609.1914 4180952.7856 300.68 
577609.1914 4180952.9829 300.72 
577609.1914 4180953.1801 300.76 
577609.1914 4180953.3774 300.81 
577609.1914 4180953.5747 300.86 
577609.1914 4180953.7720 300.92 
577609.1914 4180953.9693 300.98 
577609.1914 4180954.1666 301.03 
577609.1914 4180954.3639 301.08 
577609.1914 4180954.5612 301.12 
577609.1914 4180954.7584 301.15 
577609.1914 4180954.9557 301.16 
577609.1914 4180955.1530 301.17 
577609.1914 4180955.3503 301.16 
577609.1914 4180955.5476 301.15 
577609.1914 4180955.7449 301.15 
577609.1914 4180955.9422 301.16 
577609.1914 4180956.1395 301.17 
577609.1914 4180956.3367 301.20 
577609.1914 4180956.5340 301.23 
577609.1914 4180956.7313 301.25 
577609.1914 4180956.9286 301.26 
577609.1914 4180957.3232 301.19 
577609.1914 4180957.5205 301.10 
577609.1914 4180957.7178 300.99 
577609.1914 4180957.9150 300.86 
577609.1914 4180958.1123 300.75 
577609.1914 4180958.3096 300.93 
577609.1914 4180958.5069 300.67 
577609.1914 4180958.7042 300.76 
577609.1914 4180958.9015 300.73 
577609.1914 4180960.4798 305.79 
577609.1914 4180960.6771 306.23 
577609.1914 4180961.6635 305.84 
577609.1914 4180962.0581 304.48 
577609.1914 4180962.2554 304.17 
577609.1914 4180963.8337 299.89 
577609.1914 4180964.2283 299.83 
577609.1914 4180964.4255 299.59 
577609.1914 4180966.0038 296.87 
577609.1914 4180966.2011 296.80 
577609.1914 4180966.3984 296.80 
577609.1914 4180966.5957 296.83 
577609.1914 4180966.7930 296.88 
577609.1914 4180966.9903 296.94 
577609.1914 4180967.1876 296.98 
577609.3887 4180939.3700 296.48 
577609.3887 4180939.5673 296.65 
577609.3887 4180939.9619 296.44 
577609.3887 4180940.1592 296.44 
577609.3887 4180940.3564 296.41 
577609.3887 4180940.5537 296.50 
577609.3887 4180940.7510 296.40 
577609.3887 4180940.9483 296.42 
577609.3887 4180941.1456 296.44 
577609.3887 4180941.3429 296.45 
577609.3887 4180941.5402 296.47 
577609.3887 4180941.7375 296.47 
577609.3887 4180941.9347 296.46 
577609.3887 4180942.1320 296.45 
577609.3887 4180942.3293 296.43 
577609.3887 4180942.5266 296.41 
577609.3887 4180942.7239 296.40 
577609.3887 4180942.9212 296.40 
577609.3887 4180943.1185 296.41 
577609.3887 4180943.3158 296.44 
577609.3887 4180943.5130 296.47 
577609.3887 4180943.7103 296.51 
577609.3887 4180943.9076 296.54 
577609.3887 4180944.1049 296.56 
577609.3887 4180944.3022 296.56 
577609.3887 4180944.4995 296.53 
577609.3887 4180944.6968 296.47 
577609.3887 4180944.8941 296.42 
577609.3887 4180945.0913 296.35 
577609.3887 4180945.2886 296.59 
577609.3887 4180945.8805 296.64 
577609.3887 4180946.0778 296.51 
577609.3887 4180946.2751 296.75 
577609.3887 4180947.2615 299.74 
577609.3887 4180947.6561 299.52 
577609.3887 4180947.8534 299.73 
577609.3887 4180948.0507 300.02 
577609.3887 4180948.2479 300.16 
577609.3887 4180948.4452 300.24 
577609.3887 4180948.6425 300.27 
577609.3887 4180948.8398 300.26 
577609.3887 4180949.0371 300.24 
577609.3887 4180949.2344 300.22 
577609.3887 4180949.4317 300.20 
577609.3887 4180949.6290 300.21 
577609.3887 4180949.8263 300.23 
577609.3887 4180950.0235 300.26 
577609.3887 4180950.2208 300.32 
577609.3887 4180950.4181 300.38 
577609.3887 4180950.6154 300.44 
577609.3887 4180950.8127 300.50 
577609.3887 4180951.0100 300.56 
577609.3887 4180951.2073 300.60 
577609.3887 4180951.4046 300.64 
577609.3887 4180951.6018 300.67 
577609.3887 4180951.7991 300.69 
577609.3887 4180951.9964 300.71 
577609.3887 4180952.1937 300.72 
577609.3887 4180952.3910 300.73 
577609.3887 4180952.5883 300.75 
577609.3887 4180952.7856 300.77 
577609.3887 4180952.9829 300.79 
577609.3887 4180953.1801 300.83 
577609.3887 4180953.3774 300.87 
577609.3887 4180953.5747 300.92 
577609.3887 4180953.7720 300.98 
577609.3887 4180953.9693 301.03 
577609.3887 4180954.1666 301.09 
577609.3887 4180954.3639 301.14 
577609.3887 4180954.5612 301.17 
577609.3887 4180954.7584 301.20 
577609.3887 4180954.9557 301.21 
577609.3887 4180955.1530 301.21 
577609.3887 4180955.3503 301.20 
577609.3887 4180955.5476 301.20 
577609.3887 4180955.7449 301.19 
577609.3887 4180955.9422 301.19 
577609.3887 4180956.1395 301.20 
577609.3887 4180956.3367 301.21 
577609.3887 4180956.5340 301.07 
577609.3887 4180956.7313 301.22 
577609.3887 4180957.1259 300.90 
577609.3887 4180957.3232 301.08 
577609.3887 4180957.5205 300.98 
577609.3887 4180957.7178 301.03 
577609.3887 4180957.9150 300.74 
577609.3887 4180958.1123 300.65 
577609.3887 4180958.5069 300.66 
577609.3887 4180958.7042 300.80 
577609.3887 4180959.8879 305.48 
577609.3887 4180960.4798 305.99 
577609.3887 4180961.0717 305.77 
577609.3887 4180961.6635 306.03 
577609.3887 4180962.6500 299.89 
577609.3887 4180963.2418 299.67 
577609.3887 4180964.4255 299.74 
577609.3887 4180966.2011 296.79 
577609.3887 4180966.3984 296.77 
577609.3887 4180966.7930 296.82 
577609.5860 4180939.9619 296.50 
577609.5860 4180940.1592 296.47 
577609.5860 4180940.3564 296.44 
577609.5860 4180940.5537 296.43 
577609.5860 4180940.7510 296.43 
577609.5860 4180940.9483 296.44 
577609.5860 4180941.1456 296.45 
577609.5860 4180941.3429 296.46 
577609.5860 4180941.5402 296.47 
577609.5860 4180941.7375 296.47 
577609.5860 4180941.9347 296.47 
577609.5860 4180942.1320 296.46 
577609.5860 4180942.3293 296.64 
577609.5860 4180942.5266 296.43 
577609.5860 4180942.7239 296.42 
577609.5860 4180942.9212 296.32 
577609.5860 4180943.1185 296.43 
577609.5860 4180943.3158 296.45 
577609.5860 4180943.5130 296.58 
577609.5860 4180943.7103 296.51 
577609.5860 4180943.9076 296.53 
577609.5860 4180944.1049 296.55 
577609.5860 4180944.3022 296.55 
577609.5860 4180944.4995 296.52 
577609.5860 4180944.6968 296.48 
577609.5860 4180944.8941 296.42 
577609.5860 4180945.0913 296.36 
577609.5860 4180945.4859 296.26 
577609.5860 4180945.6832 296.26 
577609.5860 4180946.0778 296.44 
577609.5860 4180946.2751 296.64 
577609.5860 4180946.4724 296.92 
577609.5860 4180947.6561 299.33 
577609.5860 4180947.8534 299.66 
577609.5860 4180948.0507 299.92 
577609.5860 4180948.2479 300.11 
577609.5860 4180948.4452 300.24 
577609.5860 4180948.6425 300.31 
577609.5860 4180948.8398 300.34 
577609.5860 4180949.0371 300.35 
577609.5860 4180949.2344 300.34 
577609.5860 4180949.4317 300.33 
577609.5860 4180949.6290 300.33 
577609.5860 4180949.8263 300.35 
577609.5860 4180950.0235 300.39 
577609.5860 4180950.2208 300.44 
577609.5860 4180950.4181 300.50 
577609.5860 4180950.6154 300.57 
577609.5860 4180950.8127 300.64 
577609.5860 4180951.0100 300.70 
577609.5860 4180951.2073 300.75 
577609.5860 4180951.4046 300.79 
577609.5860 4180951.6018 300.82 
577609.5860 4180951.7991 300.83 
577609.5860 4180951.9964 300.84 
577609.5860 4180952.1937 300.84 
577609.5860 4180952.3910 300.84 
577609.5860 4180952.5883 300.84 
577609.5860 4180952.7856 300.85 
577609.5860 4180952.9829 300.87 
577609.5860 4180953.1801 300.90 
577609.5860 4180953.3774 300.94 
577609.5860 4180953.5747 300.98 
577609.5860 4180953.7720 301.03 
577609.5860 4180953.9693 301.09 
577609.5860 4180954.1666 301.14 
577609.5860 4180954.3639 301.09 
577609.5860 4180954.5612 301.21 
577609.5860 4180954.7584 301.23 
577609.5860 4180954.9557 301.43 
577609.5860 4180955.1530 301.24 
577609.5860 4180955.3503 301.23 
577609.5860 4180955.5476 301.34 
577609.5860 4180955.7449 301.21 
577609.5860 4180955.9422 301.21 
577609.5860 4180956.1395 301.44 
577609.5860 4180956.3367 301.20 
577609.5860 4180956.5340 301.19 
577609.5860 4180956.7313 301.16 
577609.5860 4180956.9286 301.11 
577609.5860 4180957.1259 301.04 
577609.5860 4180957.3232 300.94 
577609.5860 4180957.5205 300.83 
577609.5860 4180957.7178 300.71 
577609.5860 4180957.9150 300.62 
577609.5860 4180958.3096 300.57 
577609.5860 4180958.9015 301.22 
577609.5860 4180959.2961 300.48 
577609.5860 4180960.2825 305.48 
577609.5860 4180960.6771 306.33 
577609.5860 4180961.4662 306.39 
577609.5860 4180961.6635 306.10 
577609.5860 4180962.2554 304.85 
577609.5860 4180962.4527 305.03 
577609.5860 4180964.2283 300.24 
577609.5860 4180964.4255 299.74 
577609.5860 4180964.6228 299.23 
577609.5860 4180966.0038 296.38 
577609.5860 4180966.2011 296.63 
577609.5860 4180966.3984 296.60 
577609.5860 4180966.5957 296.47 
577609.5860 4180966.7930 296.64 
577609.5860 4180966.9903 296.69 
577609.5860 4180967.1876 296.44 
577609.5860 4180967.7794 296.40 
577609.7833 4180939.7646 296.52 
577609.7833 4180939.9619 296.51 
577609.7833 4180940.1592 296.51 
577609.7833 4180940.3564 296.49 
577609.7833 4180940.5537 296.48 
577609.7833 4180940.7510 296.49 
577609.7833 4180940.9483 296.48 
577609.7833 4180941.1456 296.48 
577609.7833 4180941.3429 296.44 
577609.7833 4180941.5402 296.48 
577609.7833 4180941.7375 296.36 
577609.7833 4180941.9347 296.47 
577609.7833 4180942.1320 296.46 
577609.7833 4180942.3293 296.45 
577609.7833 4180942.5266 296.44 
577609.7833 4180942.7239 296.44 
577609.7833 4180942.9212 296.44 
577609.7833 4180943.1185 296.45 
577609.7833 4180943.3158 296.47 
577609.7833 4180943.5130 296.49 
577609.7833 4180943.7103 296.51 
577609.7833 4180943.9076 296.53 
577609.7833 4180944.1049 296.54 
577609.7833 4180944.3022 296.54 
577609.7833 4180944.4995 296.53 
577609.7833 4180944.6968 296.49 
577609.7833 4180944.8941 296.44 
577609.7833 4180945.0913 296.38 
577609.7833 4180945.2886 296.32 
577609.7833 4180945.4859 296.28 
577609.7833 4180945.6832 296.26 
577609.7833 4180945.8805 296.28 
577609.7833 4180946.0778 296.37 
577609.7833 4180946.2751 296.52 
577609.7833 4180946.4724 296.75 
577609.7833 4180946.6696 297.04 
577609.7833 4180947.6561 299.09 
577609.7833 4180947.8534 299.47 
577609.7833 4180948.0507 299.79 
577609.7833 4180948.2479 300.05 
577609.7833 4180948.4452 300.24 
577609.7833 4180948.6425 300.36 
577609.7833 4180948.8398 300.44 
577609.7833 4180949.0371 300.47 
577609.7833 4180949.2344 300.48 
577609.7833 4180949.4317 300.48 
577609.7833 4180949.6290 300.48 
577609.7833 4180949.8263 300.50 
577609.7833 4180950.0235 300.52 
577609.7833 4180950.2208 300.57 
577609.7833 4180950.4181 300.63 
577609.7833 4180950.6154 300.70 
577609.7833 4180950.8127 300.77 
577609.7833 4180951.0100 300.84 
577609.7833 4180951.2073 300.89 
577609.7833 4180951.4046 300.94 
577609.7833 4180951.6018 300.96 
577609.7833 4180951.7991 300.97 
577609.7833 4180951.9964 301.00 
577609.7833 4180952.1937 300.96 
577609.7833 4180952.3910 300.95 
577609.7833 4180952.5883 300.97 
577609.7833 4180952.7856 300.94 
577609.7833 4180952.9829 300.95 
577609.7833 4180953.1801 300.90 
577609.7833 4180953.3774 301.01 
577609.7833 4180953.5747 301.05 
577609.7833 4180953.7720 301.04 
577609.7833 4180953.9693 301.14 
577609.7833 4180954.1666 301.18 
577609.7833 4180954.3639 301.21 
577609.7833 4180954.5612 301.24 
577609.7833 4180954.7584 301.25 
577609.7833 4180954.9557 301.25 
577609.7833 4180955.1530 301.24 
577609.7833 4180955.3503 301.23 
577609.7833 4180955.5476 301.22 
577609.7833 4180955.7449 301.21 
577609.7833 4180955.9422 301.20 
577609.7833 4180956.1395 301.19 
577609.7833 4180956.3367 301.17 
577609.7833 4180956.5340 301.13 
577609.7833 4180956.7313 301.08 
577609.7833 4180956.9286 301.00 
577609.7833 4180957.1259 300.91 
577609.7833 4180957.3232 300.79 
577609.7833 4180957.5205 300.67 
577609.7833 4180957.7178 300.57 
577609.7833 4180958.1123 300.94 
577609.7833 4180958.7042 301.10 
577609.7833 4180960.0852 305.23 
577609.7833 4180960.2825 305.51 
577609.7833 4180960.4798 305.91 
577609.7833 4180960.8744 305.82 
577609.7833 4180961.2689 306.38 
577609.7833 4180961.4662 306.37 
577609.7833 4180962.0581 306.38 
577609.7833 4180962.4527 304.80 
577609.7833 4180964.4255 299.57 
577609.7833 4180964.6228 298.98 
577609.7833 4180965.4120 296.58 
577609.7833 4180965.6093 296.81 
577609.7833 4180965.8066 296.59 
577609.7833 4180966.0038 296.44 
577609.7833 4180966.2011 296.36 
577609.7833 4180966.3984 296.33 
577609.7833 4180966.9903 296.42 
577609.9805 4180939.5673 296.43 
577609.9805 4180939.7646 296.47 
577609.9805 4180939.9619 296.50 
577609.9805 4180940.1592 296.52 
577609.9805 4180940.3564 296.54 
577609.9805 4180940.5537 296.54 
577609.9805 4180940.7510 296.54 
577609.9805 4180940.9483 296.54 
577609.9805 4180941.1456 296.53 
577609.9805 4180941.3429 296.51 
577609.9805 4180941.5402 296.50 
577609.9805 4180941.7375 296.48 
577609.9805 4180941.9347 296.47 
577609.9805 4180942.1320 296.46 
577609.9805 4180942.3293 296.45 
577609.9805 4180942.5266 296.45 
577609.9805 4180942.7239 296.46 
577609.9805 4180942.9212 296.46 
577609.9805 4180943.1185 296.47 
577609.9805 4180943.3158 296.49 
577609.9805 4180943.5130 296.50 
577609.9805 4180943.7103 296.52 
577609.9805 4180943.9076 296.54 
577609.9805 4180944.1049 296.55 
577609.9805 4180944.3022 296.55 
577609.9805 4180944.4995 296.54 
577609.9805 4180944.6968 296.51 
577609.9805 4180944.8941 296.48 
577609.9805 4180945.0913 296.42 
577609.9805 4180945.2886 296.37 
577609.9805 4180945.4859 296.31 
577609.9805 4180945.6832 296.28 
577609.9805 4180945.8805 296.27 
577609.9805 4180946.0778 296.31 
577609.9805 4180946.2751 296.41 
577609.9805 4180946.4724 296.57 
577609.9805 4180946.6696 296.81 
577609.9805 4180948.2479 299.96 
577609.9805 4180948.4452 300.22 
577609.9805 4180948.6425 300.41 
577609.9805 4180948.8398 300.53 
577609.9805 4180949.0371 300.60 
577609.9805 4180949.2344 300.63 
577609.9805 4180949.4317 300.64 
577609.9805 4180949.6290 300.50 
577609.9805 4180949.8263 300.65 
577609.9805 4180950.0235 300.67 
577609.9805 4180950.2208 300.60 
577609.9805 4180950.4181 300.76 
577609.9805 4180950.6154 300.83 
577609.9805 4180950.8127 300.92 
577609.9805 4180951.0100 300.97 
577609.9805 4180951.2073 301.02 
577609.9805 4180951.4046 300.95 
577609.9805 4180951.6018 301.09 
577609.9805 4180951.7991 301.10 
577609.9805 4180951.9964 301.10 
577609.9805 4180952.1937 301.08 
577609.9805 4180952.3910 301.06 
577609.9805 4180952.5883 301.05 
577609.9805 4180952.7856 301.04 
577609.9805 4180952.9829 301.04 
577609.9805 4180953.1801 301.06 
577609.9805 4180953.3774 301.08 
577609.9805 4180953.5747 301.12 
577609.9805 4180953.7720 301.15 
577609.9805 4180953.9693 301.19 
577609.9805 4180954.1666 301.22 
577609.9805 4180954.3639 301.24 
577609.9805 4180954.5612 301.24 
577609.9805 4180954.7584 301.24 
577609.9805 4180954.9557 301.24 
577609.9805 4180955.1530 301.22 
577609.9805 4180955.3503 301.21 
577609.9805 4180955.5476 301.19 
577609.9805 4180955.7449 301.18 
577609.9805 4180955.9422 300.96 
577609.9805 4180956.1395 301.14 
577609.9805 4180956.3367 300.95 
577609.9805 4180956.5340 301.06 
577609.9805 4180956.7313 300.98 
577609.9805 4180956.9286 300.99 
577609.9805 4180957.1259 300.77 
577609.9805 4180957.3232 300.64 
577609.9805 4180957.5205 300.83 
577609.9805 4180958.3096 300.59 
577609.9805 4180958.5069 300.84 
577609.9805 4180958.7042 301.20 
577609.9805 4180960.0852 305.09 
577609.9805 4180960.2825 305.49 
577609.9805 4180960.4798 305.78 
577609.9805 4180960.6771 305.98 
577609.9805 4180960.8744 306.08 
577609.9805 4180961.0717 306.12 
577609.9805 4180961.2689 306.09 
577609.9805 4180962.4527 305.24 
577609.9805 4180962.6500 304.95 
577609.9805 4180962.8472 304.57 
577609.9805 4180964.4255 299.39 
577609.9805 4180965.0174 299.44 
577609.9805 4180965.4120 296.64 
577609.9805 4180965.6093 296.39 
577609.9805 4180965.8066 296.21 
577609.9805 4180966.0038 296.10 
577609.9805 4180966.3984 296.03 
577610.1778 4180939.3700 296.22 
577610.1778 4180939.5673 296.31 
577610.1778 4180939.7646 296.40 
577610.1778 4180939.9619 296.48 
577610.1778 4180940.1592 296.54 
577610.1778 4180940.3564 296.58 
577610.1778 4180940.5537 296.61 
577610.1778 4180940.7510 296.61 
577610.1778 4180940.9483 296.60 
577610.1778 4180941.1456 296.58 
577610.1778 4180941.3429 296.55 
577610.1778 4180941.5402 296.52 
577610.1778 4180941.7375 296.49 
577610.1778 4180941.9347 296.47 
577610.1778 4180942.1320 296.46 
577610.1778 4180942.3293 296.46 
577610.1778 4180942.5266 296.46 
577610.1778 4180942.7239 296.47 
577610.1778 4180942.9212 296.48 
577610.1778 4180943.1185 296.49 
577610.1778 4180943.3158 296.50 
577610.1778 4180943.5130 296.52 
577610.1778 4180943.7103 296.53 
577610.1778 4180943.9076 296.54 
577610.1778 4180944.1049 296.55 
577610.1778 4180944.3022 296.56 
577610.1778 4180944.4995 296.55 
577610.1778 4180944.6968 296.54 
577610.1778 4180944.8941 296.52 
577610.1778 4180945.0913 296.48 
577610.1778 4180945.2886 296.49 
577610.1778 4180945.4859 296.36 
577610.1778 4180945.6832 296.31 
577610.1778 4180945.8805 296.43 
577610.1778 4180946.0778 296.27 
577610.1778 4180946.2751 296.31 
577610.1778 4180946.4724 296.40 
577610.1778 4180946.6696 296.60 
577610.1778 4180947.0642 296.36 
577610.1778 4180948.0507 300.32 
577610.1778 4180948.4452 300.39 
577610.1778 4180948.8398 300.62 
577610.1778 4180949.0371 300.41 
577610.1778 4180949.4317 300.81 
577610.1778 4180949.8263 300.80 
577610.1778 4180950.0235 300.81 
577610.1778 4180950.2208 300.84 
577610.1778 4180950.4181 300.88 
577610.1778 4180950.6154 300.94 
577610.1778 4180950.8127 301.01 
577610.1778 4180951.0100 301.08 
577610.1778 4180951.2073 301.14 
577610.1778 4180951.4046 301.19 
577610.1778 4180951.6018 301.21 
577610.1778 4180951.7991 301.22 
577610.1778 4180951.9964 301.21 
577610.1778 4180952.1937 301.20 
577610.1778 4180952.3910 301.17 
577610.1778 4180952.5883 301.15 
577610.1778 4180952.7856 301.14 
577610.1778 4180952.9829 301.13 
577610.1778 4180953.1801 301.14 
577610.1778 4180953.3774 301.16 
577610.1778 4180953.5747 301.33 
577610.1778 4180953.7720 301.21 
577610.1778 4180953.9693 301.23 
577610.1778 4180954.1666 301.22 
577610.1778 4180954.3639 301.24 
577610.1778 4180954.5612 301.24 
577610.1778 4180954.7584 301.42 
577610.1778 4180954.9557 301.20 
577610.1778 4180955.1530 301.18 
577610.1778 4180955.3503 301.00 
577610.1778 4180955.5476 301.14 
577610.1778 4180955.7449 301.12 
577610.1778 4180955.9422 301.10 
577610.1778 4180956.1395 301.07 
577610.1778 4180956.3367 301.02 
577610.1778 4180956.5340 300.96 
577610.1778 4180956.7313 300.87 
577610.1778 4180956.9286 300.76 
577610.1778 4180957.1259 300.64 
577610.1778 4180957.3232 300.52 
577610.1778 4180957.9150 300.36 
577610.1778 4180958.1123 300.46 
577610.1778 4180958.3096 300.66 
577610.1778 4180958.5069 300.98 
577610.1778 4180959.8879 304.76 
577610.1778 4180960.0852 305.15 
577610.1778 4180960.2825 305.44 
577610.1778 4180960.4798 305.63 
577610.1778 4180960.6771 305.73 
577610.1778 4180960.8744 305.78 
577610.1778 4180961.0717 305.79 
577610.1778 4180961.8608 305.82 
577610.1778 4180962.0581 305.83 
577610.1778 4180962.2554 305.80 
577610.1778 4180962.4527 305.70 
577610.1778 4180964.2283 299.72 
577610.1778 4180965.6093 296.57 
577610.1778 4180966.2011 296.43 
577610.1778 4180966.7930 296.56 
577610.1778 4180967.3849 295.94 
577610.3751 4180939.3700 296.04 
577610.3751 4180939.9619 296.44 
577610.3751 4180940.1592 296.54 
577610.3751 4180940.3564 296.62 
577610.3751 4180940.5537 296.66 
577610.3751 4180940.7510 296.67 
577610.3751 4180940.9483 296.66 
577610.3751 4180941.1456 296.62 
577610.3751 4180941.3429 296.58 
577610.3751 4180941.5402 296.54 
577610.3751 4180941.7375 296.50 
577610.3751 4180941.9347 296.47 
577610.3751 4180942.1320 296.46 
577610.3751 4180942.3293 296.46 
577610.3751 4180942.5266 296.47 
577610.3751 4180942.7239 296.48 
577610.3751 4180942.9212 296.49 
577610.3751 4180943.1185 296.51 
577610.3751 4180943.3158 296.52 
577610.3751 4180943.5130 296.44 
577610.3751 4180943.7103 296.54 
577610.3751 4180943.9076 296.55 
577610.3751 4180944.1049 296.48 
577610.3751 4180944.3022 296.57 
577610.3751 4180944.4995 296.57 
577610.3751 4180944.6968 296.38 
577610.3751 4180944.8941 296.55 
577610.3751 4180945.0913 296.53 
577610.3751 4180945.2886 296.48 
577610.3751 4180945.4859 296.42 
577610.3751 4180945.6832 296.35 
577610.3751 4180945.8805 296.29 
577610.3751 4180946.0778 296.24 
577610.3751 4180946.2751 296.23 
577610.3751 4180946.4724 296.28 
577610.3751 4180946.6696 296.41 
577610.3751 4180948.8398 300.69 
577610.3751 4180949.2344 300.93 
577610.3751 4180949.4317 300.96 
577610.3751 4180949.6290 300.97 
577610.3751 4180949.8263 300.96 
577610.3751 4180950.0235 300.96 
577610.3751 4180950.2208 300.97 
577610.3751 4180950.4181 301.00 
577610.3751 4180950.6154 301.05 
577610.3751 4180950.8127 301.11 
577610.3751 4180951.0100 301.18 
577610.3751 4180951.2073 301.24 
577610.3751 4180951.4046 301.21 
577610.3751 4180951.6018 301.32 
577610.3751 4180951.7991 301.37 
577610.3751 4180951.9964 301.32 
577610.3751 4180952.3910 300.96 
577610.3751 4180952.7856 301.23 
577610.3751 4180952.9829 301.08 
577610.3751 4180953.1801 301.22 
577610.3751 4180953.3774 301.23 
577610.3751 4180953.5747 301.24 
577610.3751 4180953.7720 301.25 
577610.3751 4180953.9693 301.26 
577610.3751 4180954.1666 301.25 
577610.3751 4180954.3639 301.23 
577610.3751 4180954.5612 301.21 
577610.3751 4180954.7584 301.18 
577610.3751 4180954.9557 301.14 
577610.3751 4180955.1530 301.11 
577610.3751 4180955.3503 301.08 
577610.3751 4180955.5476 301.05 
577610.3751 4180955.7449 301.03 
577610.3751 4180955.9422 301.00 
577610.3751 4180956.1395 300.97 
577610.3751 4180956.3367 300.92 
577610.3751 4180956.5340 300.85 
577610.3751 4180956.7313 300.76 
577610.3751 4180956.9286 300.65 
577610.3751 4180957.1259 300.53 
577610.3751 4180957.3232 300.42 
577610.3751 4180957.5205 300.35 
577610.3751 4180957.7178 300.32 
577610.3751 4180958.3096 300.78 
577610.3751 4180958.5069 301.15 
577610.3751 4180958.7042 301.63 
577610.3751 4180960.0852 305.20 
577610.3751 4180960.2825 305.39 
577610.3751 4180960.4798 305.48 
577610.3751 4180960.6771 305.51 
577610.3751 4180960.8744 305.50 
577610.3751 4180961.0717 305.49 
577610.3751 4180961.2689 305.52 
577610.3751 4180961.8608 305.85 
577610.3751 4180962.0581 306.01 
577610.3751 4180962.2554 306.13 
577610.3751 4180962.4527 306.16 
577610.3751 4180963.8337 307.09 
577610.3751 4180964.4255 306.70 
577610.3751 4180964.8201 296.85 
577610.3751 4180965.0174 296.74 
577610.3751 4180967.3849 295.71 
577610.5724 4180939.7646 296.23 
577610.5724 4180939.9619 296.39 
577610.5724 4180940.1592 296.53 
577610.5724 4180940.3564 296.64 
577610.5724 4180940.5537 296.70 
577610.5724 4180940.7510 296.72 
577610.5724 4180940.9483 296.71 
577610.5724 4180941.1456 296.67 
577610.5724 4180941.3429 296.61 
577610.5724 4180941.5402 296.56 
577610.5724 4180941.7375 296.51 
577610.5724 4180941.9347 296.45 
577610.5724 4180942.1320 296.47 
577610.5724 4180942.3293 296.44 
577610.5724 4180942.5266 296.48 
577610.5724 4180942.7239 296.49 
577610.5724 4180942.9212 296.56 
577610.5724 4180943.1185 296.53 
577610.5724 4180943.3158 296.54 
577610.5724 4180943.5130 296.54 
577610.5724 4180943.7103 296.55 
577610.5724 4180943.9076 296.55 
577610.5724 4180944.1049 296.56 
577610.5724 4180944.3022 296.57 
577610.5724 4180944.4995 296.58 
577610.5724 4180944.6968 296.59 
577610.5724 4180944.8941 296.59 
577610.5724 4180945.0913 296.57 
577610.5724 4180945.2886 296.53 
577610.5724 4180945.4859 296.47 
577610.5724 4180945.6832 296.40 
577610.5724 4180945.8805 296.31 
577610.5724 4180946.0778 296.23 
577610.5724 4180946.4724 296.18 
577610.5724 4180946.8669 296.72 
577610.5724 4180947.0642 296.68 
577610.5724 4180947.4588 296.37 
577610.5724 4180948.6425 300.44 
577610.5724 4180948.8398 300.73 
577610.5724 4180949.0371 300.91 
577610.5724 4180949.2344 301.05 
577610.5724 4180949.4317 301.11 
577610.5724 4180949.6290 300.96 
577610.5724 4180949.8263 301.11 
577610.5724 4180950.0235 301.10 
577610.5724 4180950.2208 300.99 
577610.5724 4180950.4181 301.11 
577610.5724 4180950.6154 301.30 
577610.5724 4180950.8127 301.20 
577610.5724 4180951.0100 301.26 
577610.5724 4180951.2073 301.32 
577610.5724 4180951.4046 301.37 
577610.5724 4180951.6018 301.40 
577610.5724 4180951.7991 301.41 
577610.5724 4180951.9964 301.41 
577610.5724 4180952.5883 301.34 
577610.5724 4180952.7856 301.32 
577610.5724 4180952.9829 301.30 
577610.5724 4180953.1801 301.29 
577610.5724 4180953.3774 301.29 
577610.5724 4180953.5747 301.29 
577610.5724 4180953.7720 301.28 
577610.5724 4180953.9693 301.27 
577610.5724 4180954.1666 301.24 
577610.5724 4180954.3639 301.21 
577610.5724 4180954.5612 301.17 
577610.5724 4180954.7584 301.12 
577610.5724 4180954.9557 301.07 
577610.5724 4180955.1530 301.02 
577610.5724 4180955.3503 300.98 
577610.5724 4180955.5476 300.95 
577610.5724 4180955.7449 300.92 
577610.5724 4180955.9422 300.89 
577610.5724 4180956.1395 300.85 
577610.5724 4180956.3367 300.80 
577610.5724 4180956.7313 300.65 
577610.5724 4180956.9286 300.55 
577610.5724 4180957.1259 300.46 
577610.5724 4180957.3232 300.38 
577610.5724 4180957.9150 300.45 
577610.5724 4180958.3096 301.05 
577610.5724 4180958.9015 301.31 
577610.5724 4180960.0852 305.22 
577610.5724 4180960.2825 305.34 
577610.5724 4180960.4798 305.38 
577610.5724 4180960.6771 305.35 
577610.5724 4180961.0717 305.75 
577610.5724 4180961.4662 304.84 
577610.5724 4180961.8608 305.95 
577610.5724 4180962.0581 305.98 
577610.5724 4180962.8472 306.99 
577610.5724 4180963.4391 307.05 
577610.5724 4180963.6364 299.51 
577610.5724 4180964.0310 299.30 
577610.5724 4180964.2283 299.21 
577610.5724 4180964.8201 296.43 
577610.5724 4180966.3984 295.82 
577610.7697 4180939.5673 296.52 
577610.7697 4180939.9619 296.34 
577610.7697 4180940.1592 296.60 
577610.7697 4180940.3564 296.63 
577610.7697 4180940.5537 296.71 
577610.7697 4180940.7510 296.73 
577610.7697 4180940.9483 296.73 
577610.7697 4180941.1456 296.69 
577610.7697 4180941.3429 296.63 
577610.7697 4180941.5402 296.58 
577610.7697 4180941.7375 296.53 
577610.7697 4180941.9347 296.49 
577610.7697 4180942.1320 296.48 
577610.7697 4180942.3293 296.48 
577610.7697 4180942.5266 296.49 
577610.7697 4180942.7239 296.51 
577610.7697 4180942.9212 296.53 
577610.7697 4180943.1185 296.55 
577610.7697 4180943.3158 296.55 
577610.7697 4180943.5130 296.56 
577610.7697 4180943.7103 296.55 
577610.7697 4180943.9076 296.55 
577610.7697 4180944.1049 296.56 
577610.7697 4180944.3022 296.57 
577610.7697 4180944.4995 296.58 
577610.7697 4180944.6968 296.60 
577610.7697 4180944.8941 296.61 
577610.7697 4180945.0913 296.45 
577610.7697 4180945.2886 296.57 
577610.7697 4180945.4859 296.52 
577610.7697 4180945.6832 296.53 
577610.7697 4180945.8805 296.34 
577610.7697 4180946.0778 296.24 
577610.7697 4180946.2751 296.48 
577610.7697 4180947.0642 296.49 
577610.7697 4180948.4452 300.39 
577610.7697 4180948.6425 300.40 
577610.7697 4180948.8398 300.74 
577610.7697 4180949.0371 300.99 
577610.7697 4180949.2344 301.15 
577610.7697 4180949.4317 301.23 
577610.7697 4180949.8263 301.25 
577610.7697 4180950.0235 301.23 
577610.7697 4180950.2208 301.22 
577610.7697 4180950.4181 301.22 
577610.7697 4180950.6154 301.24 
577610.7697 4180950.8127 301.28 
577610.7697 4180951.0100 301.33 
577610.7697 4180951.2073 301.38 
577610.7697 4180951.4046 301.42 
577610.7697 4180951.6018 301.46 
577610.7697 4180951.7991 301.47 
577610.7697 4180951.9964 301.47 
577610.7697 4180952.1937 301.46 
577610.7697 4180952.3910 301.44 
577610.7697 4180952.5883 301.41 
577610.7697 4180952.7856 301.39 
577610.7697 4180952.9829 301.37 
577610.7697 4180953.1801 301.35 
577610.7697 4180953.3774 301.33 
577610.7697 4180953.5747 301.32 
577610.7697 4180953.7720 301.29 
577610.7697 4180953.9693 301.26 
577610.7697 4180954.1666 301.22 
577610.7697 4180954.3639 301.17 
577610.7697 4180954.5612 301.11 
577610.7697 4180954.7584 301.05 
577610.7697 4180954.9557 300.98 
577610.7697 4180955.1530 300.93 
577610.7697 4180955.3503 300.87 
577610.7697 4180955.5476 300.83 
577610.7697 4180955.7449 300.79 
577610.7697 4180955.9422 300.75 
577610.7697 4180956.1395 300.71 
577610.7697 4180956.3367 300.67 
577610.7697 4180956.5340 300.43 
577610.7697 4180956.7313 300.55 
577610.7697 4180956.9286 300.48 
577610.7697 4180957.1259 300.37 
577610.7697 4180957.3232 300.39 
577610.7697 4180957.7178 300.80 
577610.7697 4180957.9150 300.60 
577610.7697 4180958.1123 300.84 
577610.7697 4180959.2961 303.79 
577610.7697 4180959.8879 305.48 
577610.7697 4180960.0852 305.23 
577610.7697 4180960.2825 305.22 
577610.7697 4180960.4798 305.32 
577610.7697 4180960.6771 305.29 
577610.7697 4180961.8608 306.14 
577610.7697 4180962.6500 307.08 
577610.7697 4180962.8472 306.87 
577610.7697 4180964.2283 299.13 
577610.7697 4180964.8201 296.25 
577610.7697 4180966.2011 296.17 
577610.7697 4180966.3984 296.23 
577610.7697 4180966.5957 296.21 
577610.7697 4180966.7930 296.13 
577610.9670 4180939.9619 296.30 
577610.9670 4180940.1592 296.47 
577610.9670 4180940.3564 296.60 
577610.9670 4180940.5537 296.69 
577610.9670 4180940.7510 296.73 
577610.9670 4180940.9483 296.73 
577610.9670 4180941.1456 296.70 
577610.9670 4180941.3429 296.64 
577610.9670 4180941.5402 296.59 
577610.9670 4180941.7375 296.54 
577610.9670 4180941.9347 296.51 
577610.9670 4180942.1320 296.57 
577610.9670 4180942.3293 296.50 
577610.9670 4180942.5266 296.52 
577610.9670 4180942.7239 296.54 
577610.9670 4180942.9212 296.70 
577610.9670 4180943.1185 296.56 
577610.9670 4180943.3158 296.69 
577610.9670 4180943.5130 296.56 
577610.9670 4180943.7103 296.55 
577610.9670 4180943.9076 296.63 
577610.9670 4180944.1049 296.55 
577610.9670 4180944.3022 296.56 
577610.9670 4180944.4995 296.57 
577610.9670 4180944.6968 296.59 
577610.9670 4180944.8941 296.61 
577610.9670 4180945.0913 296.62 
577610.9670 4180945.2886 296.60 
577610.9670 4180945.4859 296.55 
577610.9670 4180945.6832 296.48 
577610.9670 4180945.8805 296.38 
577610.9670 4180946.0778 296.27 
577610.9670 4180946.4724 296.10 
577610.9670 4180946.6696 296.09 
577610.9670 4180946.8669 296.17 
577610.9670 4180947.0642 296.35 
577610.9670 4180947.2615 296.65 
577610.9670 4180948.6425 300.33 
577610.9670 4180948.8398 300.73 
577610.9670 4180949.0371 301.02 
577610.9670 4180949.2344 301.22 
577610.9670 4180949.4317 301.33 
577610.9670 4180949.6290 301.38 
577610.9670 4180949.8263 301.38 
577610.9670 4180950.0235 301.36 
577610.9670 4180950.2208 301.33 
577610.9670 4180950.4181 301.32 
577610.9670 4180950.6154 301.32 
577610.9670 4180950.8127 301.34 
577610.9670 4180951.0100 301.37 
577610.9670 4180951.2073 301.41 
577610.9670 4180951.4046 301.45 
577610.9670 4180951.6018 301.49 
577610.9670 4180951.7991 301.51 
577610.9670 4180951.9964 301.51 
577610.9670 4180952.1937 301.50 
577610.9670 4180952.3910 301.49 
577610.9670 4180952.5883 301.47 
577610.9670 4180952.7856 301.44 
577610.9670 4180952.9829 301.41 
577610.9670 4180953.1801 301.39 
577610.9670 4180953.3774 301.36 
577610.9670 4180953.5747 301.32 
577610.9670 4180953.7720 301.28 
577610.9670 4180953.9693 301.23 
577610.9670 4180954.1666 301.18 
577610.9670 4180954.3639 301.26 
577610.9670 4180954.5612 301.04 
577610.9670 4180954.7584 300.79 
577610.9670 4180954.9557 300.89 
577610.9670 4180955.1530 300.82 
577610.9670 4180955.3503 300.76 
577610.9670 4180955.5476 300.70 
577610.9670 4180955.7449 300.65 
577610.9670 4180955.9422 300.61 
577610.9670 4180956.1395 300.57 
577610.9670 4180956.3367 300.53 
577610.9670 4180956.5340 300.49 
577610.9670 4180956.7313 300.46 
577610.9670 4180956.9286 300.44 
577610.9670 4180957.1259 300.43 
577610.9670 4180957.3232 300.45 
577610.9670 4180957.5205 300.51 
577610.9670 4180959.4934 304.35 
577610.9670 4180960.4798 305.34 
577610.9670 4180960.8744 305.32 
577610.9670 4180961.4662 305.71 
577610.9670 4180961.6635 306.04 
577610.9670 4180962.2554 307.21 
577610.9670 4180962.8472 307.31 
577610.9670 4180963.4391 305.56 
577610.9670 4180964.8201 296.42 
577610.9670 4180965.0174 296.03 
577610.9670 4180965.8066 296.47 
577610.9670 4180966.0038 296.53 
577610.9670 4180966.5957 296.48 
577610.9670 4180966.9903 296.56 
577610.9670 4180967.1876 296.59 
577610.9670 4180967.7794 296.54 
577611.1643 4180939.9619 296.62 
577611.1643 4180940.1592 296.42 
577611.1643 4180940.3564 296.55 
577611.1643 4180940.5537 296.49 
577611.1643 4180940.7510 296.68 
577611.1643 4180940.9483 296.70 
577611.1643 4180941.1456 296.44 
577611.1643 4180941.3429 296.64 
577611.1643 4180941.5402 296.60 
577611.1643 4180941.7375 296.45 
577611.1643 4180941.9347 296.54 
577611.1643 4180942.1320 296.53 
577611.1643 4180942.3293 296.54 
577611.1643 4180942.5266 296.55 
577611.1643 4180942.7239 296.56 
577611.1643 4180942.9212 296.57 
577611.1643 4180943.1185 296.58 
577611.1643 4180943.3158 296.57 
577611.1643 4180943.5130 296.56 
577611.1643 4180943.7103 296.54 
577611.1643 4180943.9076 296.53 
577611.1643 4180944.1049 296.53 
577611.1643 4180944.3022 296.53 
577611.1643 4180944.4995 296.55 
577611.1643 4180944.6968 296.58 
577611.1643 4180944.8941 296.60 
577611.1643 4180945.0913 296.62 
577611.1643 4180945.2886 296.61 
577611.1643 4180945.4859 296.58 
577611.1643 4180945.6832 296.51 
577611.1643 4180945.8805 296.41 
577611.1643 4180946.0778 296.30 
577611.1643 4180946.2751 296.19 
577611.1643 4180946.4724 296.10 
577611.1643 4180946.6696 296.07 
577611.1643 4180946.8669 296.11 
577611.1643 4180947.0642 296.26 
577611.1643 4180947.2615 296.52 
577611.1643 4180947.4588 296.89 
577611.1643 4180948.8398 300.68 
577611.1643 4180949.0371 301.03 
577611.1643 4180949.2344 301.27 
577611.1643 4180949.4317 301.41 
577611.1643 4180949.6290 301.48 
577611.1643 4180949.8263 301.49 
577611.1643 4180950.0235 301.47 
577611.1643 4180950.2208 301.44 
577611.1643 4180950.4181 301.40 
577611.1643 4180950.6154 301.39 
577611.1643 4180950.8127 301.38 
577611.1643 4180951.0100 301.40 
577611.1643 4180951.2073 301.43 
577611.1643 4180951.4046 301.46 
577611.1643 4180951.7991 301.51 
577611.1643 4180951.9964 301.52 
577611.1643 4180952.1937 301.52 
577611.1643 4180952.3910 301.51 
577611.1643 4180952.5883 301.50 
577611.1643 4180952.7856 301.46 
577611.1643 4180952.9829 301.43 
577611.1643 4180953.1801 301.61 
577611.1643 4180953.3774 301.35 
577611.1643 4180953.5747 301.30 
577611.1643 4180953.7720 301.49 
577611.1643 4180954.1666 301.12 
577611.1643 4180954.3639 301.04 
577611.1643 4180954.5612 300.96 
577611.1643 4180954.7584 300.88 
577611.1643 4180954.9557 300.80 
577611.1643 4180955.1530 300.72 
577611.1643 4180955.3503 300.65 
577611.1643 4180955.5476 300.58 
577611.1643 4180955.7449 300.52 
577611.1643 4180955.9422 300.47 
577611.1643 4180956.1395 300.43 
577611.1643 4180956.3367 300.40 
577611.1643 4180956.5340 300.39 
577611.1643 4180956.7313 300.39 
577611.1643 4180956.9286 300.41 
577611.1643 4180957.1259 300.46 
577611.1643 4180957.3232 300.36 
577611.1643 4180957.9150 300.37 
577611.1643 4180959.2961 304.34 
577611.1643 4180959.4934 304.32 
577611.1643 4180959.8879 305.07 
577611.1643 4180960.2825 305.33 
577611.1643 4180960.6771 305.73 
577611.1643 4180960.8744 305.55 
577611.1643 4180961.2689 305.99 
577611.1643 4180961.4662 306.08 
577611.1643 4180961.6635 305.94 
577611.1643 4180962.4527 306.95 
577611.1643 4180962.8472 307.68 
577611.1643 4180963.0445 307.60 
577611.1643 4180963.4391 305.31 
577611.1643 4180964.2283 296.43 
577611.1643 4180964.8201 296.41 
577611.1643 4180965.0174 296.67 
577611.1643 4180965.2147 296.62 
577611.1643 4180965.4120 296.70 
577611.3616 4180939.3700 296.60 
577611.3616 4180939.7646 296.24 
577611.3616 4180940.1592 296.37 
577611.3616 4180940.3564 296.46 
577611.3616 4180940.5537 296.54 
577611.3616 4180940.7510 296.60 
577611.3616 4180940.9483 296.63 
577611.3616 4180941.1456 296.63 
577611.3616 4180941.3429 296.62 
577611.3616 4180941.5402 296.60 
577611.3616 4180941.7375 296.59 
577611.3616 4180941.9347 296.58 
577611.3616 4180942.1320 296.58 
577611.3616 4180942.3293 296.58 
577611.3616 4180942.5266 296.59 
577611.3616 4180942.7239 296.60 
577611.3616 4180942.9212 296.60 
577611.3616 4180943.1185 296.59 
577611.3616 4180943.3158 296.57 
577611.3616 4180943.5130 296.55 
577611.3616 4180943.7103 296.53 
577611.3616 4180943.9076 296.51 
577611.3616 4180944.1049 296.50 
577611.3616 4180944.3022 296.50 
577611.3616 4180944.4995 296.52 
577611.3616 4180944.6968 296.55 
577611.3616 4180944.8941 296.58 
577611.3616 4180945.0913 296.61 
577611.3616 4180945.2886 296.61 
577611.3616 4180945.4859 296.59 
577611.3616 4180945.6832 296.54 
577611.3616 4180945.8805 296.45 
577611.3616 4180946.0778 296.34 
577611.3616 4180946.2751 296.22 
577611.3616 4180946.4724 296.13 
577611.3616 4180946.6696 296.07 
577611.3616 4180947.0642 296.42 
577611.3616 4180947.2615 296.42 
577611.3616 4180947.4588 296.76 
577611.3616 4180947.6561 296.54 
577611.3616 4180948.8398 300.62 
577611.3616 4180949.0371 301.01 
577611.3616 4180949.2344 301.29 
577611.3616 4180949.4317 301.47 
577611.3616 4180949.6290 301.57 
577611.3616 4180949.8263 301.60 
577611.3616 4180950.0235 301.58 
577611.3616 4180950.2208 301.53 
577611.3616 4180950.4181 301.66 
577611.3616 4180950.6154 301.44 
577611.3616 4180950.8127 301.41 
577611.3616 4180951.0100 301.65 
577611.3616 4180951.2073 301.41 
577611.3616 4180951.6018 301.81 
577611.3616 4180951.9964 301.50 
577611.3616 4180952.1937 301.68 
577611.3616 4180952.3910 301.50 
577611.3616 4180952.5883 301.48 
577611.3616 4180952.7856 301.45 
577611.3616 4180952.9829 301.42 
577611.3616 4180953.1801 301.37 
577611.3616 4180953.3774 301.31 
577611.3616 4180953.5747 301.25 
577611.3616 4180953.9693 301.12 
577611.3616 4180954.1666 301.04 
577611.3616 4180954.3639 300.96 
577611.3616 4180954.5612 300.88 
577611.3616 4180954.7584 300.80 
577611.3616 4180954.9557 300.71 
577611.3616 4180955.1530 300.48 
577611.3616 4180955.3503 300.55 
577611.3616 4180955.5476 300.61 
577611.3616 4180955.7449 300.40 
577611.3616 4180955.9422 300.35 
577611.3616 4180956.1395 300.56 
577611.3616 4180956.3367 300.28 
577611.3616 4180956.5340 300.29 
577611.3616 4180956.7313 300.39 
577611.3616 4180956.9286 300.40 
577611.3616 4180957.1259 300.52 
577611.3616 4180958.7042 303.94 
577611.3616 4180959.4934 304.25 
577611.3616 4180959.8879 304.90 
577611.3616 4180960.0852 305.17 
577611.3616 4180960.2825 305.39 
577611.3616 4180960.4798 305.57 
577611.3616 4180960.6771 305.74 
577611.3616 4180960.8744 305.90 
577611.3616 4180961.0717 306.08 
577611.3616 4180962.8472 307.96 
577611.3616 4180963.0445 307.49 
577611.3616 4180963.4391 305.74 
577611.3616 4180967.7794 296.51 
577611.5588 4180939.5673 296.58 
577611.5588 4180939.7646 296.41 
577611.5588 4180939.9619 296.34 
577611.5588 4180940.1592 296.33 
577611.5588 4180940.3564 296.36 
577611.5588 4180940.5537 296.42 
577611.5588 4180940.7510 296.47 
577611.5588 4180940.9483 296.52 
577611.5588 4180941.1456 296.56 
577611.5588 4180941.3429 296.59 
577611.5588 4180941.5402 296.61 
577611.5588 4180941.7375 296.62 
577611.5588 4180941.9347 296.62 
577611.5588 4180942.1320 296.63 
577611.5588 4180942.3293 296.63 
577611.5588 4180942.5266 296.63 
577611.5588 4180942.7239 296.63 
577611.5588 4180942.9212 296.61 
577611.5588 4180943.1185 296.59 
577611.5588 4180943.3158 296.56 
577611.5588 4180943.5130 296.53 
577611.5588 4180943.7103 296.50 
577611.5588 4180943.9076 296.48 
577611.5588 4180944.1049 296.47 
577611.5588 4180944.3022 296.47 
577611.5588 4180944.4995 296.49 
577611.5588 4180944.6968 296.52 
577611.5588 4180944.8941 296.56 
577611.5588 4180945.0913 296.59 
577611.5588 4180945.2886 296.61 
577611.5588 4180945.4859 296.60 
577611.5588 4180945.6832 296.56 
577611.5588 4180945.8805 296.48 
577611.5588 4180946.0778 296.38 
577611.5588 4180946.2751 296.27 
577611.5588 4180946.4724 296.34 
577611.5588 4180946.6696 296.10 
577611.5588 4180946.8669 296.09 
577611.5588 4180947.0642 296.17 
577611.5588 4180947.2615 296.35 
577611.5588 4180947.4588 296.65 
577611.5588 4180948.6425 300.68 
577611.5588 4180948.8398 300.53 
577611.5588 4180949.2344 301.42 
577611.5588 4180949.4317 301.52 
577611.5588 4180949.6290 301.64 
577611.5588 4180949.8263 301.42 
577611.5588 4180950.0235 301.66 
577611.5588 4180950.2208 301.61 
577611.5588 4180950.4181 301.54 
577611.5588 4180950.6154 301.47 
577611.5588 4180950.8127 301.42 
577611.5588 4180951.0100 301.38 
577611.5588 4180951.2073 301.37 
577611.5588 4180951.7991 301.42 
577611.5588 4180951.9964 301.44 
577611.5588 4180952.1937 301.45 
577611.5588 4180952.3910 301.45 
577611.5588 4180952.9829 301.37 
577611.5588 4180953.1801 301.31 
577611.5588 4180953.3774 301.13 
577611.5588 4180953.5747 301.18 
577611.5588 4180953.7720 301.10 
577611.5588 4180953.9693 300.94 
577611.5588 4180954.1666 300.95 
577611.5588 4180954.3639 300.87 
577611.5588 4180954.5612 300.62 
577611.5588 4180954.7584 300.72 
577611.5588 4180954.9557 300.64 
577611.5588 4180955.1530 300.55 
577611.5588 4180955.3503 300.47 
577611.5588 4180955.5476 300.38 
577611.5588 4180955.7449 300.31 
577611.5588 4180955.9422 300.24 
577611.5588 4180956.3367 300.19 
577611.5588 4180956.5340 300.21 
577611.5588 4180956.7313 300.28 
577611.5588 4180956.9286 300.41 
577611.5588 4180957.1259 300.58 
577611.5588 4180957.3232 300.79 
577611.5588 4180959.2961 303.82 
577611.5588 4180959.4934 304.16 
577611.5588 4180959.6906 304.49 
577611.5588 4180959.8879 304.83 
577611.5588 4180960.0852 305.17 
577611.5588 4180960.2825 305.49 
577611.5588 4180960.4798 305.79 
577611.5588 4180960.6771 306.08 
577611.5588 4180960.8744 306.35 
577611.5588 4180961.0717 306.62 
577611.5588 4180962.8472 308.18 
577611.5588 4180963.0445 307.75 
577611.5588 4180963.2418 307.08 
577611.5588 4180967.1876 296.71 
577611.7561 4180939.7646 296.67 
577611.7561 4180939.9619 296.43 
577611.7561 4180940.1592 296.30 
577611.7561 4180940.3564 296.25 
577611.7561 4180940.5537 296.27 
577611.7561 4180940.7510 296.32 
577611.7561 4180940.9483 296.40 
577611.7561 4180941.1456 296.48 
577611.7561 4180941.3429 296.55 
577611.7561 4180941.5402 296.61 
577611.7561 4180941.7375 296.65 
577611.7561 4180941.9347 296.68 
577611.7561 4180942.1320 296.69 
577611.7561 4180942.3293 296.69 
577611.7561 4180942.5266 296.68 
577611.7561 4180942.7239 296.66 
577611.7561 4180942.9212 296.44 
577611.7561 4180943.1185 296.59 
577611.7561 4180943.3158 296.55 
577611.7561 4180943.5130 296.53 
577611.7561 4180943.7103 296.47 
577611.7561 4180943.9076 296.44 
577611.7561 4180944.1049 296.47 
577611.7561 4180944.3022 296.43 
577611.7561 4180944.4995 296.46 
577611.7561 4180944.6968 296.36 
577611.7561 4180944.8941 296.53 
577611.7561 4180945.0913 296.57 
577611.7561 4180945.2886 296.60 
577611.7561 4180945.4859 296.60 
577611.7561 4180945.6832 296.57 
577611.7561 4180945.8805 296.51 
577611.7561 4180946.0778 296.42 
577611.7561 4180946.2751 296.32 
577611.7561 4180946.4724 296.21 
577611.7561 4180947.0642 296.15 
577611.7561 4180947.2615 296.30 
577611.7561 4180949.2344 301.28 
577611.7561 4180949.6290 301.70 
577611.7561 4180950.2208 301.67 
577611.7561 4180950.4181 301.58 
577611.7561 4180950.6154 301.48 
577611.7561 4180950.8127 301.40 
577611.7561 4180951.0100 301.34 
577611.7561 4180951.2073 301.31 
577611.7561 4180951.4046 301.30 
577611.7561 4180951.6018 301.20 
577611.7561 4180951.7991 301.33 
577611.7561 4180951.9964 301.36 
577611.7561 4180952.1937 301.19 
577611.7561 4180952.3910 301.38 
577611.7561 4180952.7856 300.98 
577611.7561 4180953.1801 301.23 
577611.7561 4180953.3774 301.16 
577611.7561 4180953.5747 301.08 
577611.7561 4180953.7720 301.00 
577611.7561 4180953.9693 300.93 
577611.7561 4180954.1666 300.85 
577611.7561 4180954.3639 300.78 
577611.7561 4180954.5612 300.72 
577611.7561 4180954.7584 300.65 
577611.7561 4180954.9557 300.57 
577611.7561 4180955.1530 300.50 
577611.7561 4180955.3503 300.41 
577611.7561 4180955.5476 300.32 
577611.7561 4180955.7449 300.24 
577611.7561 4180955.9422 300.17 
577611.7561 4180956.1395 300.12 
577611.7561 4180956.3367 300.11 
577611.7561 4180956.5340 300.15 
577611.7561 4180956.7313 300.24 
577611.7561 4180956.9286 300.40 
577611.7561 4180957.1259 300.62 
577611.7561 4180959.8879 304.81 
577611.7561 4180960.4798 306.07 
577611.7561 4180960.6771 306.48 
577611.7561 4180962.6500 308.54 
577611.7561 4180962.8472 308.33 
577611.7561 4180963.0445 307.96 
577611.7561 4180964.4255 296.73 
577611.7561 4180964.8201 296.34 
577611.9534 4180939.9619 296.56 
577611.9534 4180940.7510 296.38 
577611.9534 4180940.9483 296.26 
577611.9534 4180941.1456 296.38 
577611.9534 4180941.3429 296.48 
577611.9534 4180941.5402 296.61 
577611.9534 4180941.7375 296.69 
577611.9534 4180941.9347 296.80 
577611.9534 4180942.1320 296.76 
577611.9534 4180942.3293 296.59 
577611.9534 4180942.5266 296.72 
577611.9534 4180942.7239 296.68 
577611.9534 4180942.9212 296.63 
577611.9534 4180943.1185 296.57 
577611.9534 4180943.3158 296.52 
577611.9534 4180943.5130 296.47 
577611.9534 4180943.7103 296.43 
577611.9534 4180943.9076 296.41 
577611.9534 4180944.1049 296.40 
577611.9534 4180944.3022 296.40 
577611.9534 4180944.4995 296.43 
577611.9534 4180944.6968 296.46 
577611.9534 4180944.8941 296.51 
