# .PCD v.7 - Point Cloud Data file format
VERSION .7
FIELDS x y z
SIZE 4 4 4
TYPE F F F
COUNT 1 1 1
WIDTH 1389
HEIGHT 1
VIEWPOINT 0 0 0 1 0 0 0
POINTS 1389
DATA ascii
577594.5625 4180941.25 296.239990234
577594.5625 4180941.5 296.279998779
577594.5625 4180942 296.709991455
577594.5625 4180942.25 296.489990234
577594.5625 4180942.25 296.660003662
577594.5625 4180942.75 296.25
577594.5625 4180943 296.309997559
577594.5625 4180943 296.209991455
577594.5625 4180943.25 296.5
577594.5625 4180943.75 296.100006104
577594.5625 4180944 296.119995117
577594.5625 4180944 296.149993896
577594.5625 4180944.25 296.179992676
577594.5625 4180944.5 296.200012207
577594.5625 4180944.75 296.220001221
577594.5625 4180945 296.220001221
577594.5625 4180945 296.209991455
577594.5625 4180945.25 296.190002441
577594.5625 4180945.5 296.160003662
577594.5625 4180945.75 296.140014648
577594.5625 4180946 296.109985352
577594.5625 4180946 296.089996338
577594.5625 4180946.25 296.079986572
577594.5625 4180946.5 296.079986572
577594.5625 4180946.75 296.089996338
577594.5625 4180946.75 296.119995117
577594.5625 4180947 296.140014648
577594.5625 4180947.25 296.179992676
577594.5625 4180947.5 296.220001221
577594.5625 4180947.75 296.260009766
577594.5625 4180947.75 296.299987793
577594.5625 4180948.25 296.359985352
577594.5625 4180948.5 296.380004883
577594.5625 4180948.75 296.390014648
577594.5625 4180948.75 296.390014648
577594.5625 4180949 296.390014648
577594.5625 4180949.25 296.369995117
577594.5625 4180949.5 296.359985352
577594.5625 4180949.75 296.339996338
577594.5625 4180949.75 296.320007324
577594.5625 4180950 296.309997559
577594.5625 4180950.25 296.290008545
577594.5625 4180950.5 296.399993896
577594.5625 4180950.5 296.260009766
577594.5625 4180950.75 296.25
577594.5625 4180951 296.260009766
577594.5625 4180951.25 296.230010986
577594.5625 4180951.5 296.220001221
577594.5625 4180951.5 296.130004883
577594.5625 4180951.75 296.220001221
577594.5625 4180952 296.220001221
577594.5625 4180952.25 296.230010986
577594.5625 4180952.5 296.230010986
577594.5625 4180952.5 296.239990234
577594.5625 4180952.75 296.25
577594.5625 4180953 296.25
577594.5625 4180953.25 296.260009766
577594.5625 4180953.5 296.25
577594.5625 4180953.5 296.25
577594.5625 4180953.75 296.230010986
577594.5625 4180954 296.220001221
577594.5625 4180954.25 296.200012207
577594.5625 4180954.5 296.160003662
577594.5625 4180954.75 296.149993896
577594.5625 4180955 296.140014648
577594.5625 4180955.25 296.140014648
577594.5625 4180955.5 296.160003662
577594.5625 4180955.75 296.179992676
577594.5625 4180956 296.119995117
577594.5625 4180956.25 296.25
577594.5625 4180956.25 296.279998779
577594.5625 4180956.5 296.040008545
577594.5625 4180956.75 296.329986572
577594.5625 4180957 296.350006104
577594.5625 4180957.25 296.200012207
577594.5625 4180957.5 296.350006104
577594.5625 4180957.75 296.209991455
577594.5625 4180958 296.309997559
577594.5625 4180958 296.290008545
577594.5625 4180958.25 296.279998779
577594.5625 4180958.5 296.269989014
577594.5625 4180958.75 296.279998779
577594.5625 4180959 296.309997559
577594.5625 4180959 296.350006104
577594.5625 4180959.25 296.390014648
577594.5625 4180959.5 296.429992676
577594.5625 4180959.75 296.470001221
577594.5625 4180960 296.480010986
577594.5625 4180960 296.470001221
577594.5625 4180960.25 296.440002441
577594.5625 4180960.5 296.369995117
577594.5625 4180960.75 296.290008545
577594.5625 4180960.75 296.209991455
577594.5625 4180961 296.149993896
577594.5625 4180961.25 296.140014648
577594.5625 4180961.5 296.209991455
577594.5625 4180961.75 296.369995117
577594.5625 4180961.75 296.649993896
577594.5625 4180962 297.059997559
577594.8125 4180940.25 296.299987793
577594.8125 4180941.25 295.980010986
577594.8125 4180941.25 296.25
577594.8125 4180941.5 296.480010986
577594.8125 4180941.75 296.640014648
577594.8125 4180942 296.709991455
577594.8125 4180942.25 296.700012207
577594.8125 4180942.25 296.640014648
577594.8125 4180942.5 296.529998779
577594.8125 4180942.75 296.399993896
577594.8125 4180943 296.279998779
577594.8125 4180943 296.190002441
577594.8125 4180943.5 296.100006104
577594.8125 4180943.75 296.100006104
577594.8125 4180944 296.119995117
577594.8125 4180944 296.149993896
577594.8125 4180944.25 296.179992676
577594.8125 4180944.5 296.209991455
577594.8125 4180944.75 296.220001221
577594.8125 4180945 296.220001221
577594.8125 4180945 296.209991455
577594.8125 4180945.25 296.200012207
577594.8125 4180945.5 296.170013428
577594.8125 4180945.75 296.149993896
577594.8125 4180946 296.130004883
577594.8125 4180946 296.119995117
577594.8125 4180946.25 296.109985352
577594.8125 4180946.5 296.109985352
577594.8125 4180946.75 296.130004883
577594.8125 4180946.75 296.140014648
577594.8125 4180947 296.170013428
577594.8125 4180947.25 296.200012207
577594.8125 4180947.5 296.230010986
577594.8125 4180947.75 296.260009766
577594.8125 4180947.75 296.279998779
577594.8125 4180948 296.019989014
577594.8125 4180948.5 296.329986572
577594.8125 4180948.75 296.339996338
577594.8125 4180948.75 296.339996338
577594.8125 4180949 296.329986572
577594.8125 4180949.25 296.350006104
577594.8125 4180949.5 296.309997559
577594.8125 4180949.75 296.299987793
577594.8125 4180949.75 296.260009766
577594.8125 4180950 296.279998779
577594.8125 4180950.25 296.279998779
577594.8125 4180950.5 296.269989014
577594.8125 4180950.5 296.269989014
577594.8125 4180950.75 296.269989014
577594.8125 4180951 296.260009766
577594.8125 4180951.25 296.260009766
577594.8125 4180951.5 296.25
577594.8125 4180951.5 296.25
577594.8125 4180951.75 296.239990234
577594.8125 4180952 296.239990234
577594.8125 4180952.25 296.239990234
577594.8125 4180952.5 296.239990234
577594.8125 4180952.5 296.239990234
577594.8125 4180952.75 296.25
577594.8125 4180953 296.260009766
577594.8125 4180953.25 296.260009766
577594.8125 4180953.5 296.269989014
577594.8125 4180953.5 296.269989014
577594.8125 4180953.75 296.329986572
577594.8125 4180954 296.25
577594.8125 4180954.25 296.239990234
577594.8125 4180954.25 296.109985352
577594.8125 4180954.5 296.209991455
577594.8125 4180954.75 296.200012207
577594.8125 4180955.75 296.230010986
577594.8125 4180956 296.260009766
577594.8125 4180956.25 296.279998779
577594.8125 4180956.25 296.309997559
577594.8125 4180956.5 296.329986572
577594.8125 4180956.75 296.339996338
577594.8125 4180957 296.350006104
577594.8125 4180957.25 296.350006104
577594.8125 4180957.25 296.350006104
577594.8125 4180957.5 296.329986572
577594.8125 4180957.75 296.320007324
577594.8125 4180958 296.309997559
577594.8125 4180958 296.299987793
577594.8125 4180958.25 296.299987793
577594.8125 4180958.5 296.309997559
577594.8125 4180958.75 296.329986572
577594.8125 4180959 296.369995117
577594.8125 4180959 296.410003662
577594.8125 4180959.25 296.459991455
577594.8125 4180959.5 296.5
577594.8125 4180959.75 296.529998779
577594.8125 4180960 296.529998779
577594.8125 4180960 296.510009766
577594.8125 4180960.25 296.450012207
577594.8125 4180960.5 296.369995117
577594.8125 4180960.75 296.279998779
577594.8125 4180960.75 296.200012207
577594.8125 4180961 296.149993896
577594.8125 4180961.75 296.480010986
577594.8125 4180961.75 296.839996338
577595 4180940 296.380004883
577595 4180941.25 295.980010986
577595 4180941.25 296.260009766
577595 4180941.5 296.480010986
577595 4180941.75 296.640014648
577595 4180942 296.700012207
577595 4180942.25 296.690002441
577595 4180942.25 296.609985352
577595 4180942.5 296.5
577595 4180942.75 296.369995117
577595 4180943 296.260009766
577595 4180943 296.170013428
577595 4180943.25 296.109985352
577595 4180943.5 296.089996338
577595 4180943.75 296.100006104
577595 4180944 296.119995117
577595 4180944 296.160003662
577595 4180944.25 296.190002441
577595 4180944.5 296.220001221
577595 4180944.75 296.239990234
577595 4180945 296.239990234
577595 4180945 296.230010986
577595 4180945.25 296.209991455
577595 4180945.5 296.190002441
577595 4180945.75 296.170013428
577595 4180946 296.049987793
577595 4180946 296.149993896
577595 4180946.25 296.190002441
577595 4180946.5 296.149993896
577595 4180946.75 296.160003662
577595 4180946.75 296.029998779
577595 4180947 296.190002441
577595 4180947.25 296.209991455
577595 4180947.5 296.230010986
577595 4180947.75 296.320007324
577595 4180947.75 296.25
577595 4180948 296.260009766
577595 4180948.25 296.260009766
577595 4180948.5 296.260009766
577595 4180948.75 296.260009766
577595 4180948.75 296.25
577595 4180949 296.25
577595 4180949.25 296.239990234
577595 4180949.5 296.239990234
577595 4180949.75 296.239990234
577595 4180949.75 296.239990234
577595 4180950 296.25
577595 4180950.25 296.25
577595 4180950.5 296.260009766
577595 4180950.5 296.269989014
577595 4180950.75 296.279998779
577595 4180951 296.279998779
577595 4180951.25 296.279998779
577595 4180951.5 296.329986572
577595 4180951.5 296.269989014
577595 4180951.75 296.260009766
577595 4180952 296.179992676
577595 4180952.25 296.239990234
577595 4180952.5 296.239990234
577595 4180952.5 296.010009766
577595 4180952.75 296.239990234
577595 4180953 296.25
577595 4180953.25 296.369995117
577595 4180953.5 296.260009766
577595 4180953.5 296.269989014
577595 4180953.75 296.269989014
577595 4180954 296.260009766
577595 4180954.25 296.25
577595 4180954.25 296.25
577595 4180954.5 296.239990234
577595 4180954.75 296.230010986
577595 4180956.5 296.329986572
577595 4180956.75 296.329986572
577595 4180957 296.320007324
577595 4180957.25 296.309997559
577595 4180957.25 296.290008545
577595 4180957.5 296.269989014
577595 4180957.75 296.260009766
577595 4180958 296.25
577595 4180958 296.25
577595 4180958.25 296.269989014
577595 4180958.5 296.299987793
577595 4180958.75 296.339996338
577595 4180959 296.399993896
577595 4180959 296.459991455
577595 4180959.25 296.510009766
577595 4180959.5 296.549987793
577595 4180959.75 296.570007324
577595 4180960 296.559997559
577595 4180960 296.519989014
577595 4180960.25 296.450012207
577595 4180960.5 296.279998779
577595 4180960.75 296.25
577595 4180960.75 296.170013428
577595 4180961 296.380004883
577595 4180961.25 296.170013428
577595 4180961.5 296.589996338
577595 4180961.75 296.589996338
577595 4180962 296.529998779
577595.1875 4180940 296.239990234
577595.1875 4180940.25 295.670013428
577595.1875 4180941 295.690002441
577595.1875 4180941.25 295.980010986
577595.1875 4180941.25 296.260009766
577595.1875 4180941.5 296.489990234
577595.1875 4180941.75 296.630004883
577595.1875 4180942 296.690002441
577595.1875 4180942.25 296.660003662
577595.1875 4180942.25 296.579986572
577595.1875 4180942.5 296.470001221
577595.1875 4180942.75 296.350006104
577595.1875 4180943 296.239990234
577595.1875 4180943 296.149993896
577595.1875 4180943.25 296.109985352
577595.1875 4180943.5 296.089996338
577595.1875 4180943.75 296.109985352
577595.1875 4180944 296.140014648
577595.1875 4180944 296.309997559
577595.1875 4180944.25 296.220001221
577595.1875 4180944.5 296.25
577595.1875 4180944.75 296.160003662
577595.1875 4180945 296.269989014
577595.1875 4180945 296.260009766
577595.1875 4180945.25 296.079986572
577595.1875 4180945.5 296.220001221
577595.1875 4180945.75 296.209991455
577595.1875 4180946 296.190002441
577595.1875 4180946 296.179992676
577595.1875 4180946.25 296.179992676
577595.1875 4180946.5 296.179992676
577595.1875 4180946.75 296.190002441
577595.1875 4180946.75 296.200012207
577595.1875 4180947 296.209991455
577595.1875 4180947.25 296.209991455
577595.1875 4180947.5 296.209991455
577595.1875 4180947.75 296.209991455
577595.1875 4180947.75 296.209991455
577595.1875 4180948 296.200012207
577595.1875 4180948.25 296.190002441
577595.1875 4180948.5 296.179992676
577595.1875 4180948.75 296.170013428
577595.1875 4180948.75 296.160003662
577595.1875 4180949 296.380004883
577595.1875 4180949.25 296.149993896
577595.1875 4180949.5 296.160003662
577595.1875 4180949.75 296.029998779
577595.1875 4180949.75 296.179992676
577595.1875 4180950 296.200012207
577595.1875 4180950.25 295.989990234
577595.1875 4180950.5 296.239990234
577595.1875 4180950.5 296.260009766
577595.1875 4180950.75 296.029998779
577595.1875 4180951 296.279998779
577595.1875 4180951.25 296.290008545
577595.1875 4180951.5 296.279998779
577595.1875 4180951.5 296.269989014
577595.1875 4180951.75 296.260009766
577595.1875 4180952 296.25
577595.1875 4180952.25 296.239990234
577595.1875 4180952.5 296.239990234
577595.1875 4180952.5 296.230010986
577595.1875 4180952.75 296.230010986
577595.1875 4180953 296.239990234
577595.1875 4180953.25 296.239990234
577595.1875 4180953.5 296.239990234
577595.1875 4180953.5 296.25
577595.1875 4180953.75 296.25
577595.1875 4180954 296.25
577595.1875 4180954.25 296.25
577595.1875 4180954.25 296.25
577595.1875 4180954.5 296.25
577595.1875 4180955 296.269989014
577595.1875 4180956.25 296.339996338
577595.1875 4180956.25 296.329986572
577595.1875 4180956.5 296.320007324
577595.1875 4180956.75 296.290008545
577595.1875 4180957.25 296.230010986
577595.1875 4180957.25 296.190002441
577595.1875 4180957.5 296.170013428
577595.1875 4180957.75 296.149993896
577595.1875 4180958 296.149993896
577595.1875 4180958 296.179992676
577595.1875 4180958.25 296.200012207
577595.1875 4180958.5 296.25
577595.1875 4180958.75 296.290008545
577595.1875 4180959 296.390014648
577595.1875 4180959 296.470001221
577595.1875 4180959.25 296.279998779
577595.1875 4180959.75 296.600006104
577595.1875 4180960 296.309997559
577595.1875 4180960 296.529998779
577595.1875 4180960.25 296.440002441
577595.1875 4180960.5 296.329986572
577595.1875 4180960.75 296.209991455
577595.1875 4180960.75 296.130004883
577595.1875 4180961 296.100006104
577595.1875 4180961.5 296.350006104
577595.1875 4180961.75 296.670013428
577595.375 4180940 296.230010986
577595.375 4180941.25 296.260009766
577595.375 4180941.5 296.480010986
577595.375 4180941.75 296.339996338
577595.375 4180942.25 296.369995117
577595.375 4180942.5 296.450012207
577595.375 4180942.75 296.329986572
577595.375 4180943 296.079986572
577595.375 4180943 296.149993896
577595.375 4180943.25 296.109985352
577595.375 4180943.5 296.059997559
577595.375 4180943.75 296.130004883
577595.375 4180944 296.170013428
577595.375 4180944 296.209991455
577595.375 4180944.25 296.25
577595.375 4180944.5 296.290008545
577595.375 4180944.75 296.299987793
577595.375 4180945 296.309997559
577595.375 4180945 296.299987793
577595.375 4180945.25 296.279998779
577595.375 4180945.5 296.260009766
577595.375 4180945.75 296.239990234
577595.375 4180946 296.220001221
577595.375 4180946 296.209991455
577595.375 4180946.25 296.209991455
577595.375 4180946.5 296.200012207
577595.375 4180946.75 296.209991455
577595.375 4180946.75 296.209991455
577595.375 4180947 296.209991455
577595.375 4180947.25 296.200012207
577595.375 4180947.5 296.220001221
577595.375 4180947.75 296.179992676
577595.375 4180947.75 296.160003662
577595.375 4180948 296.269989014
577595.375 4180948.25 296.119995117
577595.375 4180948.5 296.269989014
577595.375 4180948.75 296.079986572
577595.375 4180948.75 296.070007324
577595.375 4180949.25 296.059997559
577595.375 4180949.5 296.079986572
577595.375 4180949.75 296.100006104
577595.375 4180949.75 296.119995117
577595.375 4180950 296.149993896
577595.375 4180950.25 296.179992676
577595.375 4180950.5 296.209991455
577595.375 4180950.5 296.239990234
577595.375 4180950.75 296.260009766
577595.375 4180951 296.279998779
577595.375 4180951.25 296.279998779
577595.375 4180951.5 296.279998779
577595.375 4180951.5 296.279998779
577595.375 4180951.75 296.269989014
577595.375 4180952 296.260009766
577595.375 4180952.25 296.239990234
577595.375 4180952.5 296.230010986
577595.375 4180952.75 296.220001221
577595.375 4180953 296.220001221
577595.375 4180953.25 296.220001221
577595.375 4180953.5 296.220001221
577595.375 4180953.5 296.220001221
577595.375 4180953.75 296.220001221
577595.375 4180954 296.230010986
577595.375 4180954.25 296.230010986
577595.375 4180954.25 296.239990234
577595.375 4180954.5 296.25
577595.375 4180954.75 296.269989014
577595.375 4180955 296.290008545
577595.375 4180955.25 296.320007324
577595.375 4180955.25 296.339996338
577595.375 4180955.75 296.369995117
577595.375 4180956 296.369995117
577595.375 4180956.25 296.359985352
577595.375 4180956.25 296.5
577595.375 4180956.5 296.290008545
577595.375 4180957 296.589996338
577595.375 4180957.25 296.089996338
577595.375 4180957.5 296.140014648
577595.375 4180957.75 296.029998779
577595.375 4180958 296.029998779
577595.375 4180958 296.059997559
577595.375 4180958.25 296.109985352
577595.375 4180958.5 296.179992676
577595.375 4180958.75 296.260009766
577595.375 4180959 296.359985352
577595.375 4180959 296.459991455
577595.375 4180959.25 296.540008545
577595.375 4180959.5 296.589996338
577595.375 4180959.75 296.609985352
577595.375 4180960 296.589996338
577595.375 4180960 296.519989014
577595.375 4180960.25 296.420013428
577595.375 4180960.5 296.299987793
577595.375 4180960.75 296.179992676
577595.375 4180961.5 296.359985352
577595.375 4180961.75 296.730010986
577595.375 4180961.75 296.600006104
577595.5625 4180940.5 296.209991455
577595.5625 4180941.25 296.290008545
577595.5625 4180941.25 296.260009766
577595.5625 4180941.5 296.470001221
577595.5625 4180941.75 296.609985352
577595.5625 4180942 296.660003662
577595.5625 4180942.25 296.640014648
577595.5625 4180942.25 296.559997559
577595.5625 4180942.5 296.440002441
577595.5625 4180942.75 296.329986572
577595.5625 4180943 296.230010986
577595.5625 4180943 296.149993896
577595.5625 4180943.5 296.119995117
577595.5625 4180943.75 296.149993896
577595.5625 4180944 296.190002441
577595.5625 4180944 296.239990234
577595.5625 4180944.25 296.290008545
577595.5625 4180944.5 296.329986572
577595.5625 4180944.75 296.350006104
577595.5625 4180945 296.350006104
577595.5625 4180945 296.350006104
577595.5625 4180945.25 296.320007324
577595.5625 4180945.5 296.299987793
577595.5625 4180945.75 296.190002441
577595.5625 4180946 296.25
577595.5625 4180946 296.230010986
577595.5625 4180946.25 296.339996338
577595.5625 4180946.5 296.209991455
577595.5625 4180946.75 296.209991455
577595.5625 4180946.75 296.160003662
577595.5625 4180947 296.190002441
577595.5625 4180947.25 296.179992676
577595.5625 4180947.5 296.170013428
577595.5625 4180947.75 296.149993896
577595.5625 4180947.75 296.119995117
577595.5625 4180948 296.089996338
577595.5625 4180948.25 296.059997559
577595.5625 4180948.5 296.029998779
577595.5625 4180948.75 296.010009766
577595.5625 4180948.75 296
577595.5625 4180949 295.989990234
577595.5625 4180949.25 296
577595.5625 4180949.5 296.010009766
577595.5625 4180949.75 296.040008545
577595.5625 4180949.75 296.070007324
577595.5625 4180950 296.109985352
577595.5625 4180950.25 296.149993896
577595.5625 4180950.5 296.179992676
577595.5625 4180950.5 296.220001221
577595.5625 4180950.75 296.25
577595.5625 4180951 296.260009766
577595.5625 4180951.25 296.279998779
577595.5625 4180951.5 296.279998779
577595.5625 4180951.5 296.279998779
577595.5625 4180951.75 296.269989014
577595.5625 4180952 296.260009766
577595.5625 4180952.25 296.25
577595.5625 4180952.5 296.230010986
577595.5625 4180952.5 296.220001221
577595.5625 4180952.75 296.209991455
577595.5625 4180953.25 296.200012207
577595.5625 4180953.5 296.190002441
577595.5625 4180953.5 296.049987793
577595.5625 4180953.75 296.190002441
577595.5625 4180954 296.190002441
577595.5625 4180954.25 296.130004883
577595.5625 4180954.25 296.220001221
577595.5625 4180954.5 296.25
577595.5625 4180954.75 296.269989014
577595.5625 4180955 296.309997559
577595.5625 4180955.25 296.209991455
577595.5625 4180955.25 296.369995117
577595.5625 4180955.5 296.390014648
577595.5625 4180955.75 296.399993896
577595.5625 4180956 296.570007324
577595.5625 4180956.25 296.369995117
577595.5625 4180956.25 296.329986572
577595.5625 4180956.5 296.269989014
577595.5625 4180956.75 296.200012207
577595.5625 4180957.25 296
577595.5625 4180957.5 295.950012207
577595.5625 4180957.75 295.920013428
577595.5625 4180958 295.929992676
577595.5625 4180958 295.950012207
577595.5625 4180958.25 296.010009766
577595.5625 4180958.5 296.100006104
577595.5625 4180958.75 296.200012207
577595.5625 4180959 296.309997559
577595.5625 4180959 296.420013428
577595.5625 4180959.25 296.510009766
577595.5625 4180959.5 296.579986572
577595.5625 4180959.75 296.600006104
577595.5625 4180960 296.579986572
577595.5625 4180960 296.519989014
577595.5625 4180960.25 296.339996338
577595.5625 4180960.5 296.279998779
577595.5625 4180960.75 296.5
577595.5625 4180961.5 296.549987793
577595.5625 4180961.75 296.75
577595.75 4180940.25 295.899993896
577595.75 4180941.25 296.239990234
577595.75 4180941.5 296.450012207
577595.75 4180941.75 296.600006104
577595.75 4180942 296.649993896
577595.75 4180942.25 296.559997559
577595.75 4180942.5 296.450012207
577595.75 4180942.75 296.220001221
577595.75 4180943 296.239990234
577595.75 4180943.25 296.459991455
577595.75 4180943.75 296.170013428
577595.75 4180944 296.390014648
577595.75 4180944 296.279998779
577595.75 4180944.25 296.329986572
577595.75 4180944.5 296.260009766
577595.75 4180944.75 296.390014648
577595.75 4180945 296.399993896
577595.75 4180945 296.390014648
577595.75 4180945.25 296.359985352
577595.75 4180945.5 296.329986572
577595.75 4180945.75 296.290008545
577595.75 4180946 296.260009766
577595.75 4180946 296.230010986
577595.75 4180946.25 296.209991455
577595.75 4180946.5 296.200012207
577595.75 4180946.75 296.190002441
577595.75 4180946.75 296.179992676
577595.75 4180947 296.170013428
577595.75 4180947.25 296.160003662
577595.75 4180947.5 296.140014648
577595.75 4180947.75 296.119995117
577595.75 4180947.75 296.100006104
577595.75 4180948 296.070007324
577595.75 4180948.25 296.040008545
577595.75 4180948.5 296.010009766
577595.75 4180948.75 295.980010986
577595.75 4180948.75 295.959991455
577595.75 4180949 295.959991455
577595.75 4180949.25 295.959991455
577595.75 4180949.5 295.980010986
577595.75 4180949.75 296
577595.75 4180949.75 296.040008545
577595.75 4180950 296.070007324
577595.75 4180950.25 296.119995117
577595.75 4180950.5 296.160003662
577595.75 4180950.5 296.200012207
577595.75 4180950.75 296.230010986
577595.75 4180951 296.25
577595.75 4180951.5 296.279998779
577595.75 4180951.5 296.279998779
577595.75 4180951.75 296.380004883
577595.75 4180952 296.269989014
577595.75 4180952.25 296.25
577595.75 4180952.5 296.290008545
577595.75 4180952.5 296.220001221
577595.75 4180952.75 296.209991455
577595.75 4180953.5 296.160003662
577595.75 4180953.75 296.160003662
577595.75 4180954 296.160003662
577595.75 4180954.25 296.179992676
577595.75 4180954.25 296.200012207
577595.75 4180954.5 296.230010986
577595.75 4180954.75 296.269989014
577595.75 4180955 296.309997559
577595.75 4180955.25 296.350006104
577595.75 4180955.25 296.390014648
577595.75 4180955.5 296.410003662
577595.75 4180955.75 296.420013428
577595.75 4180956 296.410003662
577595.75 4180956.25 296.380004883
577595.75 4180956.25 296.329986572
577595.75 4180956.5 296.260009766
577595.75 4180956.75 296.190002441
577595.75 4180957 296.109985352
577595.75 4180957.25 296.029998779
577595.75 4180957.25 296.070007324
577595.75 4180957.5 295.910003662
577595.75 4180957.75 295.869995117
577595.75 4180958 296.089996338
577595.75 4180958 295.890014648
577595.75 4180958.5 296.390014648
577595.75 4180958.75 296.140014648
577595.75 4180959 296.25
577595.75 4180959 296.510009766
577595.75 4180959.25 296.470001221
577595.75 4180959.5 296.549987793
577595.75 4180959.75 296.410003662
577595.75 4180960 296.570007324
577595.75 4180960 296.510009766
577595.75 4180960.25 296.399993896
577595.75 4180960.5 296.269989014
577595.75 4180960.75 296.140014648
577595.75 4180961.5 296.329986572
577595.75 4180961.75 296.739990234
577596 4180940.25 296.109985352
577596 4180941 296.209991455
577596 4180941.25 295.959991455
577596 4180941.25 296.209991455
577596 4180941.5 296.399993896
577596 4180941.75 296.579986572
577596 4180942.25 296.279998779
577596 4180942.5 296.480010986
577596 4180942.75 296.359985352
577596 4180943 296.260009766
577596 4180943 296.190002441
577596 4180943.5 296.160003662
577596 4180943.75 296.190002441
577596 4180944 296.239990234
577596 4180944 296.309997559
577596 4180944.25 296.359985352
577596 4180944.5 296.410003662
577596 4180944.75 296.429992676
577596 4180945 296.440002441
577596 4180945 296.420013428
577596 4180945.25 296.390014648
577596 4180945.5 296.350006104
577596 4180945.75 296.299987793
577596 4180946 296.260009766
577596 4180946 296.220001221
577596 4180946.25 296.190002441
577596 4180946.5 296.170013428
577596 4180946.75 296.149993896
577596 4180946.75 296.149993896
577596 4180947 296.140014648
577596 4180947.25 296.140014648
577596 4180947.5 296.130004883
577596 4180947.75 296.119995117
577596 4180948.25 296.059997559
577596 4180948.5 296.029998779
577596 4180948.75 296.010009766
577596 4180948.75 295.989990234
577596 4180949 295.980010986
577596 4180949.25 295.970001221
577596 4180949.5 295.980010986
577596 4180949.75 296
577596 4180949.75 296.029998779
577596 4180950 296.230010986
577596 4180950.25 296.100006104
577596 4180950.5 296.140014648
577596 4180950.5 296.309997559
577596 4180950.75 296.209991455
577596 4180951 296.239990234
577596 4180951.25 296.399993896
577596 4180951.5 296.279998779
577596 4180951.5 296.279998779
577596 4180951.75 296.279998779
577596 4180952 296.279998779
577596 4180952.25 296.260009766
577596 4180952.5 296.25
577596 4180952.5 296.230010986
577596 4180952.75 296.209991455
577596 4180953.75 296.140014648
577596 4180954 296.140014648
577596 4180954.25 296.160003662
577596 4180954.25 296.190002441
577596 4180954.5 296.220001221
577596 4180954.75 296.260009766
577596 4180955 296.309997559
577596 4180955.25 296.350006104
577596 4180955.25 296.380004883
577596 4180955.5 296.519989014
577596 4180955.75 296.420013428
577596 4180956 296.410003662
577596 4180956.25 296.359985352
577596 4180956.25 296.339996338
577596 4180956.5 296.290008545
577596 4180956.75 296.339996338
577596 4180957 296.149993896
577596 4180957.25 296.070007324
577596 4180957.25 296.010009766
577596 4180957.5 295.950012207
577596 4180957.75 295.910003662
577596 4180958 295.890014648
577596 4180958 295.899993896
577596 4180958.75 296.100006104
577596 4180959 296.209991455
577596 4180959 296.320007324
577596 4180959.25 296.420013428
577596 4180959.5 296.510009766
577596 4180959.75 296.549987793
577596 4180960 296.559997559
577596 4180960 296.5
577596 4180960.25 296.410003662
577596 4180960.5 296.279998779
577596 4180960.75 296.140014648
577596 4180960.75 296.040008545
577596 4180961 296
577596 4180961.25 296.070007324
577596 4180961.5 296.290008545
577596 4180961.75 296.679992676
577596.1875 4180940.25 296.350006104
577596.1875 4180940.5 296.450012207
577596.1875 4180941.25 295.929992676
577596.1875 4180941.25 296.179992676
577596.1875 4180941.5 296.399993896
577596.1875 4180941.75 296.570007324
577596.1875 4180942 296.649993896
577596.1875 4180942.25 296.609985352
577596.1875 4180942.5 296.510009766
577596.1875 4180942.75 296.399993896
577596.1875 4180943 296.299987793
577596.1875 4180943 296.220001221
577596.1875 4180943.25 296.179992676
577596.1875 4180943.5 296.179992676
577596.1875 4180943.75 296.209991455
577596.1875 4180944 296.260009766
577596.1875 4180944 296.329986572
577596.1875 4180944.25 296.390014648
577596.1875 4180944.5 296.429992676
577596.1875 4180944.75 296.459991455
577596.1875 4180945 296.470001221
577596.1875 4180945 296.450012207
577596.1875 4180945.25 296.410003662
577596.1875 4180945.5 296.359985352
577596.1875 4180945.75 296.299987793
577596.1875 4180946 296.239990234
577596.1875 4180946 296.190002441
577596.1875 4180946.25 296.149993896
577596.1875 4180946.5 296.130004883
577596.1875 4180946.75 296.119995117
577596.1875 4180946.75 296.109985352
577596.1875 4180947 296.119995117
577596.1875 4180947.25 296.140014648
577596.1875 4180947.5 296.149993896
577596.1875 4180947.75 296.519989014
577596.1875 4180948.25 296.260009766
577596.1875 4180948.5 296.119995117
577596.1875 4180948.75 296.100006104
577596.1875 4180948.75 295.929992676
577596.1875 4180949 296.049987793
577596.1875 4180949.25 296.040008545
577596.1875 4180949.5 296.119995117
577596.1875 4180949.75 296.029998779
577596.1875 4180949.75 296.049987793
577596.1875 4180950 296.070007324
577596.1875 4180950.25 296.100006104
577596.1875 4180950.5 296.130004883
577596.1875 4180950.75 296.200012207
577596.1875 4180951.5 296.279998779
577596.1875 4180951.5 296.290008545
577596.1875 4180951.75 296.299987793
577596.1875 4180952 296.290008545
577596.1875 4180952.25 296.279998779
577596.1875 4180952.5 296.260009766
577596.1875 4180952.5 296.239990234
577596.1875 4180952.75 296.209991455
577596.1875 4180953 296.190002441
577596.1875 4180953.25 296.160003662
577596.1875 4180953.5 296.329986572
577596.1875 4180953.5 296.130004883
577596.1875 4180953.75 296.089996338
577596.1875 4180954 296.140014648
577596.1875 4180954.25 296.149993896
577596.1875 4180954.25 296.100006104
577596.1875 4180954.5 296.220001221
577596.1875 4180954.75 296.260009766
577596.1875 4180955 296.209991455
577596.1875 4180955.25 296.339996338
577596.1875 4180955.25 296.369995117
577596.1875 4180955.5 296.390014648
577596.1875 4180955.75 296.410003662
577596.1875 4180956 296.410003662
577596.1875 4180956.25 296.399993896
577596.1875 4180956.25 296.380004883
577596.1875 4180956.5 296.350006104
577596.1875 4180956.75 296.309997559
577596.1875 4180957 296.269989014
577596.1875 4180957.25 296.209991455
577596.1875 4180957.25 296.160003662
577596.1875 4180957.5 296.109985352
577596.1875 4180957.75 296.059997559
577596.1875 4180958 296.029998779
577596.1875 4180958 296.010009766
577596.1875 4180958.25 296.010009766
577596.1875 4180958.5 296.040008545
577596.1875 4180958.75 296.100006104
577596.1875 4180959 296.179992676
577596.1875 4180959 296.279998779
577596.1875 4180959.25 296.369995117
577596.1875 4180959.5 296.459991455
577596.1875 4180959.75 296.519989014
577596.1875 4180960 296.529998779
577596.1875 4180960 296.5
577596.1875 4180960.25 296.420013428
577596.1875 4180960.5 296.299987793
577596.1875 4180960.75 296.170013428
577596.1875 4180960.75 296.049987793
577596.1875 4180961.5 296.230010986
577596.1875 4180961.75 296.589996338
577596.375 4180940.25 296.589996338
577596.375 4180941 295.690002441
577596.375 4180941.25 295.890014648
577596.375 4180941.25 296.140014648
577596.375 4180941.5 296.369995117
577596.375 4180941.75 296.549987793
577596.375 4180942 296.660003662
577596.375 4180942.25 296.679992676
577596.375 4180942.25 296.649993896
577596.375 4180942.5 296.559997559
577596.375 4180942.75 296.450012207
577596.375 4180943 296.350006104
577596.375 4180943 296.260009766
577596.375 4180943.25 296.220001221
577596.375 4180943.5 296.209991455
577596.375 4180943.75 296.230010986
577596.375 4180944 296.279998779
577596.375 4180944 296.339996338
577596.375 4180944.25 296.399993896
577596.375 4180944.5 296.450012207
577596.375 4180944.75 296.470001221
577596.375 4180945 296.480010986
577596.375 4180945 296.450012207
577596.375 4180945.25 296.410003662
577596.375 4180945.5 296.420013428
577596.375 4180945.75 296.279998779
577596.375 4180946 296.220001221
577596.375 4180946 296.220001221
577596.375 4180946.25 296.119995117
577596.375 4180946.5 296.089996338
577596.375 4180946.75 296.25
577596.375 4180946.75 296.100006104
577596.375 4180947 296.119995117
577596.375 4180947.25 296.160003662
577596.375 4180947.5 296.200012207
577596.375 4180947.75 296.239990234
577596.375 4180947.75 296.260009766
577596.375 4180948 296.279998779
577596.375 4180948.25 296.279998779
577596.375 4180948.5 296.269989014
577596.375 4180948.75 296.25
577596.375 4180949 296.179992676
577596.375 4180949.25 296.149993896
577596.375 4180949.5 296.119995117
577596.375 4180949.75 296.100006104
577596.375 4180949.75 296.100006104
577596.375 4180950 296.100006104
577596.375 4180950.25 296.119995117
577596.375 4180950.75 296.209991455
577596.375 4180951 296.239990234
577596.375 4180951.25 296.269989014
577596.375 4180951.75 296.309997559
577596.375 4180952 296.309997559
577596.375 4180952.25 296.329986572
577596.375 4180952.5 296.269989014
577596.375 4180952.5 296.25
577596.375 4180952.75 296.179992676
577596.375 4180953 296.190002441
577596.375 4180953.25 296.170013428
577596.375 4180953.5 296.149993896
577596.375 4180953.5 296.140014648
577596.375 4180953.75 296.140014648
577596.375 4180954 296.140014648
577596.375 4180954.25 296.160003662
577596.375 4180954.25 296.190002441
577596.375 4180954.5 296.220001221
577596.375 4180954.75 296.25
577596.375 4180955 296.279998779
577596.375 4180955.25 296.309997559
577596.375 4180955.25 296.339996338
577596.375 4180955.5 296.369995117
577596.375 4180955.75 296.390014648
577596.375 4180956 296.420013428
577596.375 4180956.25 296.440002441
577596.375 4180956.25 296.459991455
577596.375 4180956.5 296.470001221
577596.375 4180956.75 296.480010986
577596.375 4180957 296.480010986
577596.375 4180957.25 296.459991455
577596.375 4180957.25 296.429992676
577596.375 4180957.5 296.390014648
577596.375 4180957.75 296.329986572
577596.375 4180958 296.279998779
577596.375 4180958 296.220001221
577596.375 4180958.25 296.179992676
577596.375 4180958.5 296.160003662
577596.375 4180958.75 296.160003662
577596.375 4180959 296.200012207
577596.375 4180959 296.260009766
577596.375 4180959.25 296.329986572
577596.375 4180959.5 296.269989014
577596.375 4180959.75 296.470001221
577596.375 4180960 296.5
577596.375 4180960 296.410003662
577596.375 4180960.25 296.429992676
577596.375 4180960.5 296.329986572
577596.375 4180960.75 296.390014648
577596.375 4180961.25 296.600006104
577596.375 4180961.75 296.470001221
577596.375 4180961.75 296.640014648
577596.5625 4180940.25 296.820007324
577596.5625 4180940.25 296.140014648
577596.5625 4180941.5 296.329986572
577596.5625 4180941.75 296.529998779
577596.5625 4180942 296.660003662
577596.5625 4180942.25 296.709991455
577596.5625 4180942.25 296.679992676
577596.5625 4180942.5 296.609985352
577596.5625 4180942.75 296.510009766
577596.5625 4180943 296.399993896
577596.5625 4180943 296.309997559
577596.5625 4180943.25 296.25
577596.5625 4180943.5 296.230010986
577596.5625 4180943.75 296.239990234
577596.5625 4180944 296.290008545
577596.5625 4180944 296.339996338
577596.5625 4180944.25 296.519989014
577596.5625 4180944.5 296.440002441
577596.5625 4180944.75 296.470001221
577596.5625 4180945 296.420013428
577596.5625 4180945 296.440002441
577596.5625 4180945.25 296.390014648
577596.5625 4180945.5 296.329986572
577596.5625 4180945.75 296.260009766
577596.5625 4180946 296.190002441
577596.5625 4180946 296.130004883
577596.5625 4180946.25 296.089996338
577596.5625 4180946.5 296.070007324
577596.5625 4180946.75 296.079986572
577596.5625 4180946.75 296.109985352
577596.5625 4180947 296.160003662
577596.5625 4180947.25 296.230010986
577596.5625 4180947.5 296.299987793
577596.5625 4180947.75 296.359985352
577596.5625 4180947.75 296.420013428
577596.5625 4180948 296.459991455
577596.5625 4180948.25 296.470001221
577596.5625 4180948.5 296.470001221
577596.5625 4180948.75 296.230010986
577596.5625 4180948.75 296.410003662
577596.5625 4180949 296.359985352
577596.5625 4180949.25 296.089996338
577596.5625 4180949.5 296.25
577596.5625 4180949.75 296.200012207
577596.5625 4180949.75 296.200012207
577596.5625 4180950 296.160003662
577596.5625 4180950.25 296.149993896
577596.5625 4180950.5 296.200012207
577596.5625 4180950.5 296.190002441
577596.5625 4180950.75 296.220001221
577596.5625 4180951 296.25
577596.5625 4180952 296.320007324
577596.5625 4180952.25 296.309997559
577596.5625 4180952.5 296.279998779
577596.5625 4180952.5 296.260009766
577596.5625 4180952.75 296.230010986
577596.5625 4180953 296.200012207
577596.5625 4180953.25 296.179992676
577596.5625 4180953.5 296.160003662
577596.5625 4180953.5 296.160003662
577596.5625 4180953.75 296.160003662
577596.5625 4180954 296.170013428
577596.5625 4180954.25 296.179992676
577596.5625 4180954.25 296.200012207
577596.5625 4180954.5 296.220001221
577596.5625 4180954.75 296.239990234
577596.5625 4180955 296.260009766
577596.5625 4180955.25 296.279998779
577596.5625 4180955.25 296.299987793
577596.5625 4180955.5 296.329986572
577596.5625 4180955.75 296.380004883
577596.5625 4180956 296.429992676
577596.5625 4180956.25 296.5
577596.5625 4180956.25 296.570007324
577596.5625 4180957.75 296.290008545
577596.5625 4180958 296.540008545
577596.5625 4180958.25 296.350006104
577596.5625 4180958.5 296.350006104
577596.5625 4180958.75 296.279998779
577596.5625 4180959 296.190002441
577596.5625 4180959 296.260009766
577596.5625 4180959.25 296.299987793
577596.5625 4180959.5 296.359985352
577596.5625 4180959.75 296.420013428
577596.5625 4180960 296.470001221
577596.5625 4180960 296.480010986
577596.5625 4180960.25 296.450012207
577596.5625 4180960.5 296.359985352
577596.5625 4180960.75 296.25
577596.5625 4180960.75 296.119995117
577596.5625 4180961.75 296.339996338
577596.5625 4180961.75 296.769989014
577596.75 4180940.25 296.269989014
577596.75 4180941.5 296.619995117
577596.75 4180941.75 296.510009766
577596.75 4180942 296.540008545
577596.75 4180942.25 296.730010986
577596.75 4180942.25 296.720001221
577596.75 4180942.5 296.450012207
577596.75 4180942.75 296.559997559
577596.75 4180943 296.450012207
577596.75 4180943 296.450012207
577596.75 4180943.25 296.290008545
577596.75 4180943.5 296.260009766
577596.75 4180943.75 296.260009766
577596.75 4180944 296.290008545
577596.75 4180944 296.339996338
577596.75 4180944.25 296.380004883
577596.75 4180944.5 296.420013428
577596.75 4180944.75 296.440002441
577596.75 4180945 296.440002441
577596.75 4180945 296.410003662
577596.75 4180945.25 296.359985352
577596.75 4180945.5 296.299987793
577596.75 4180945.75 296.230010986
577596.75 4180946 296.170013428
577596.75 4180946 296.119995117
577596.75 4180946.25 296.089996338
577596.75 4180946.5 296.320007324
577596.75 4180946.75 296.119995117
577596.75 4180946.75 296.170013428
577596.75 4180947 296.160003662
577596.75 4180947.25 296.339996338
577596.75 4180947.5 296.440002441
577596.75 4180947.75 296.220001221
577596.75 4180948 296.670013428
577596.75 4180948.25 296.410003662
577596.75 4180948.5 296.700012207
577596.75 4180948.75 296.619995117
577596.75 4180949.5 296.390014648
577596.75 4180949.75 296.320007324
577596.75 4180949.75 296.269989014
577596.75 4180950 296.230010986
577596.75 4180950.25 296.200012207
577596.75 4180950.5 296.200012207
577596.75 4180950.5 296.209991455
577596.75 4180950.75 296.239990234
577596.75 4180951 296.269989014
577596.75 4180952.75 296.230010986
577596.75 4180953 296.209991455
577596.75 4180953.25 296.200012207
577596.75 4180953.5 296.190002441
577596.75 4180953.5 296.190002441
577596.75 4180953.75 296.200012207
577596.75 4180954 296.209991455
577596.75 4180954.25 296.220001221
577596.75 4180954.25 296.230010986
577596.75 4180954.5 296.230010986
577596.75 4180954.75 296.230010986
577596.75 4180955 296.230010986
577596.75 4180955.25 296.239990234
577596.75 4180955.25 296.260009766
577596.75 4180955.5 296.290008545
577596.75 4180955.75 296.359985352
577596.75 4180956 296.230010986
577596.75 4180956.5 296.269989014
577596.75 4180957.25 296.320007324
577596.75 4180958.5 296.609985352
577596.75 4180958.75 296.459991455
577596.75 4180959 296.359985352
577596.75 4180959 296.299987793
577596.75 4180959.25 296.290008545
577596.75 4180959.5 296.320007324
577596.75 4180959.75 296.380004883
577596.75 4180960 296.429992676
577596.75 4180960 296.459991455
577596.75 4180960.25 296.450012207
577596.75 4180960.5 296.399993896
577596.75 4180960.75 296.299987793
577596.75 4180960.75 296.179992676
577596.75 4180961.25 296.429992676
577596.75 4180961.75 296.200012207
577596.75 4180961.75 296.390014648
577596.9375 4180940.25 296.260009766
577596.9375 4180941 296.350006104
577596.9375 4180942 296.660003662
577596.9375 4180942.5 296.700012207
577596.9375 4180942.75 296.609985352
577596.9375 4180943 296.5
577596.9375 4180943 296.399993896
577596.9375 4180943.25 296.320007324
577596.9375 4180943.5 296.279998779
577596.9375 4180943.75 296.269989014
577596.9375 4180944 296.279998779
577596.9375 4180944 296.320007324
577596.9375 4180944.25 296.359985352
577596.9375 4180944.5 296.390014648
577596.9375 4180944.75 296.380004883
577596.9375 4180945 296.399993896
577596.9375 4180945 296.369995117
577596.9375 4180945.25 296.380004883
577596.9375 4180945.5 296.269989014
577596.9375 4180945.75 296.209991455
577596.9375 4180946 296.149993896
577596.9375 4180946 296.130004883
577596.9375 4180946.25 296.130004883
577596.9375 4180946.5 296.149993896
577596.9375 4180946.75 296.209991455
577596.9375 4180946.75 296.290008545
577596.9375 4180947 296.390014648
577596.9375 4180947.25 296.510009766
577596.9375 4180947.5 296.630004883
577596.9375 4180948.75 296.829986572
577596.9375 4180949 296.739990234
577596.9375 4180949.25 296.640014648
577596.9375 4180949.5 296.540008545
577596.9375 4180949.75 296.450012207
577596.9375 4180949.75 296.369995117
577596.9375 4180950 296.309997559
577596.9375 4180950.25 296.269989014
577596.9375 4180950.5 296.25
577596.9375 4180950.5 296.25
577596.9375 4180950.75 296.260009766
577596.9375 4180951 296.290008545
577596.9375 4180951.25 296.309997559
577596.9375 4180951.5 296.329986572
577596.9375 4180952 296.320007324
577596.9375 4180952.5 296.260009766
577596.9375 4180952.75 296.239990234
577596.9375 4180953 296.220001221
577596.9375 4180953.25 296.170013428
577596.9375 4180953.5 296.230010986
577596.9375 4180953.5 296.239990234
577596.9375 4180953.75 296.290008545
577596.9375 4180954 296.260009766
577596.9375 4180954.25 296.269989014
577596.9375 4180954.25 296.269989014
577596.9375 4180954.5 296.239990234
577596.9375 4180954.75 296.220001221
577596.9375 4180955 296.480010986
577596.9375 4180955.25 296.190002441
577596.9375 4180955.25 296.209991455
577596.9375 4180955.5 296.390014648
577596.9375 4180955.75 296.350006104
577596.9375 4180956 296.489990234
577596.9375 4180958.75 296.690002441
577596.9375 4180959 296.5
577596.9375 4180959 296.390014648
577596.9375 4180959.25 296.299987793
577596.9375 4180959.5 296.299987793
577596.9375 4180959.75 296.359985352
577596.9375 4180960 296.390014648
577596.9375 4180960 296.440002441
577596.9375 4180960.25 296.309997559
577596.9375 4180960.5 296.429992676
577596.9375 4180960.75 296.350006104
577596.9375 4180960.75 296.329986572
577596.9375 4180961 296.100006104
577596.9375 4180961.75 296.070007324
577596.9375 4180961.75 296.329986572
577596.9375 4180962 296.790008545
577597.1875 4180940.25 296.429992676
577597.1875 4180940.5 295.910003662
577597.1875 4180941.25 295.980010986
577597.1875 4180941.5 296.239990234
577597.1875 4180941.75 296.149993896
577597.1875 4180942.25 296.290008545
577597.1875 4180942.75 296.640014648
577597.1875 4180943 296.459991455
577597.1875 4180943 296.429992676
577597.1875 4180943.25 296.350006104
577597.1875 4180943.5 296.410003662
577597.1875 4180943.75 296.269989014
577597.1875 4180944 296.269989014
577597.1875 4180944 296.290008545
577597.1875 4180944.25 296.320007324
577597.1875 4180944.5 296.339996338
577597.1875 4180944.75 296.350006104
577597.1875 4180945 296.350006104
577597.1875 4180945 296.329986572
577597.1875 4180945.25 296.290008545
577597.1875 4180945.5 296.25
577597.1875 4180945.75 296.220001221
577597.1875 4180946 296.200012207
577597.1875 4180946 296.190002441
577597.1875 4180946.25 296.220001221
577597.1875 4180946.5 296.269989014
577597.1875 4180946.75 296.350006104
577597.1875 4180946.75 296.459991455
577597.1875 4180947 296.589996338
577597.1875 4180947.25 296.720001221
577597.1875 4180947.5 296.850006104
577597.1875 4180948.75 297.079986572
577597.1875 4180948.75 297
577597.1875 4180949 296.899993896
577597.1875 4180949.25 296.779998779
577597.1875 4180949.75 296.459991455
577597.1875 4180950 296.380004883
577597.1875 4180950.25 296.329986572
577597.1875 4180950.5 296.299987793
577597.1875 4180950.5 296.290008545
577597.1875 4180950.75 296.290008545
577597.1875 4180951 296.299987793
577597.1875 4180951.25 296.309997559
577597.1875 4180951.5 296.200012207
577597.1875 4180951.5 296.320007324
577597.1875 4180951.75 296.320007324
577597.1875 4180952 296.059997559
577597.1875 4180952.25 296.279998779
577597.1875 4180952.5 296.260009766
577597.1875 4180952.5 296.230010986
577597.1875 4180952.75 296.239990234
577597.1875 4180953 296.239990234
577597.1875 4180953.25 296.25
577597.1875 4180953.5 296.269989014
577597.1875 4180953.5 296.290008545
577597.1875 4180953.75 296.309997559
577597.1875 4180954 296.320007324
577597.1875 4180954.25 296.320007324
577597.1875 4180954.25 296.299987793
577597.1875 4180954.5 296.260009766
577597.1875 4180954.75 296.220001221
577597.1875 4180955 296.170013428
577597.1875 4180955.25 296.149993896
577597.1875 4180955.25 296.160003662
577597.1875 4180955.5 296.220001221
577597.1875 4180955.75 296.350006104
577597.1875 4180956.25 296.790008545
577597.1875 4180958.5 296.369995117
577597.1875 4180959 296.679992676
577597.1875 4180959 296.470001221
577597.1875 4180959.25 296.339996338
577597.1875 4180959.5 296.290008545
577597.1875 4180959.75 296.299987793
577597.1875 4180960 296.350006104
577597.1875 4180960 296.410003662
577597.1875 4180960.25 296.450012207
577597.1875 4180960.5 296.450012207
577597.1875 4180960.75 296.399993896
577597.1875 4180960.75 296.290008545
577597.1875 4180961 296.160003662
577597.1875 4180961.25 296.029998779
577597.1875 4180961.5 295.950012207
577597.1875 4180961.75 295.970001221
577597.1875 4180961.75 296.140014648
577597.1875 4180962 296.489990234
577597.1875 4180962.25 297.040008545
577597.375 4180940.25 296.369995117
577597.375 4180940.25 296.459991455
577597.375 4180940.75 296.279998779
577597.375 4180941.25 296.269989014
577597.375 4180941.25 295.970001221
577597.375 4180941.5 296.220001221
577597.375 4180942.75 296.660003662
577597.375 4180943 296.559997559
577597.375 4180943 296.450012207
577597.375 4180943.25 296.359985352
577597.375 4180943.5 296.299987793
577597.375 4180943.75 296.269989014
577597.375 4180944 296.260009766
577597.375 4180944 296.260009766
577597.375 4180944.25 296.279998779
577597.375 4180944.5 296.290008545
577597.375 4180944.75 296.299987793
577597.375 4180945 296.299987793
577597.375 4180945 296.290008545
577597.375 4180945.25 296.269989014
577597.375 4180945.5 296.260009766
577597.375 4180945.75 296.25
577597.375 4180946 296.269989014
577597.375 4180946 296.299987793
577597.375 4180946.25 296.359985352
577597.375 4180946.5 296.450012207
577597.375 4180946.75 296.559997559
577597.375 4180946.75 296.690002441
577597.375 4180947 296.820007324
577597.375 4180947.25 296.959991455
577597.375 4180948 297.290008545
577597.375 4180948.25 297.299987793
577597.375 4180948.5 297.260009766
577597.375 4180949 296.989990234
577597.375 4180949.75 296.529998779
577597.375 4180950 296.450012207
577597.375 4180950.25 296.359985352
577597.375 4180950.5 296.350006104
577597.375 4180950.5 296.320007324
577597.375 4180950.75 296.149993896
577597.375 4180951 296.299987793
577597.375 4180951.25 296.299987793
577597.375 4180951.5 296.290008545
577597.375 4180951.5 296.290008545
577597.375 4180951.75 296.269989014
577597.375 4180952 296.260009766
577597.375 4180952.25 296.239990234
577597.375 4180952.5 296.230010986
577597.375 4180952.5 296.230010986
577597.375 4180952.75 296.230010986
577597.375 4180953 296.25
577597.375 4180953.25 296.290008545
577597.375 4180953.5 296.320007324
577597.375 4180953.5 296.359985352
577597.375 4180953.75 296.380004883
577597.375 4180954 296.390014648
577597.375 4180954.25 296.369995117
577597.375 4180954.25 296.339996338
577597.375 4180954.5 296.279998779
577597.375 4180954.75 296.209991455
577597.375 4180955 296.369995117
577597.375 4180955.25 296.109985352
577597.375 4180955.25 296.119995117
577597.375 4180955.5 296.329986572
577597.375 4180955.75 296.350006104
577597.375 4180956 296.589996338
577597.375 4180956.25 296.510009766
577597.375 4180959 296.869995117
577597.375 4180959 296.589996338
577597.375 4180959.25 296.390014648
577597.375 4180959.5 296.290008545
577597.375 4180959.75 296.269989014
