# .PCD v.7 - Point Cloud Data file format
VERSION .7
FIELDS x y z
SIZE 4 4 4
TYPE F F F
COUNT 1 1 1
WIDTH 56
HEIGHT 1
VIEWPOINT 0 0 0 1 0 0 0
POINTS 56
DATA ascii
577589.6875 4180940.5 297.720001221
577589.6875 4180940.75 297.679992676
577589.6875 4180941.25 297.420013428
577589.875 4180940 297.690002441
577589.875 4180940.25 297.459991455
577589.875 4180940.25 297.670013428
577589.875 4180940.5 297.760009766
577589.875 4180940.75 297.730010986
577589.875 4180941 297.589996338
577589.875 4180941.25 297.100006104
577590.0625 4180940.25 297.339996338
577590.0625 4180940.25 297.570007324
577590.0625 4180940.5 297.670013428
577590.0625 4180940.75 297.660003662
577590.0625 4180941 297.540008545
577590.0625 4180941.25 297.339996338
577590.0625 4180941.25 297.089996338
577590.0625 4180941.5 296.820007324
577590.0625 4180941.75 296.570007324
577590.25 4180939.75 296.559997559
577590.25 4180940.25 297.190002441
577590.25 4180940.25 297.399993896
577590.25 4180940.5 297.5
577590.25 4180940.75 297.489990234
577590.25 4180941 297.399993896
577590.25 4180941.25 297.220001221
577590.25 4180941.25 297.010009766
577590.25 4180941.5 296.769989014
577590.25 4180941.75 296.510009766
577590.4375 4180939.75 296.549987793
577590.4375 4180940.25 297.429992676
577590.4375 4180940.25 297.179992676
577590.4375 4180940.5 297.260009766
577590.4375 4180940.75 297.529998779
577590.4375 4180941.25 296.950012207
577590.4375 4180941.25 296.869995117
577590.4375 4180941.5 296.679992676
577590.4375 4180941.75 296.489990234
577590.625 4180940.25 296.940002441
577590.625 4180941.25 296.829986572
577590.8125 4180940 296.630004883
577590.8125 4180940.25 296.579986572
577590.8125 4180940.25 296.720001221
577590.8125 4180940.5 296.720001221
577590.8125 4180940.75 296.700012207
577590.8125 4180941.25 296.589996338
577591.0625 4180939.25 296.529998779
577591.0625 4180939.5 296.570007324
577591.0625 4180940.25 296.549987793
577591.0625 4180940.25 296.529998779
577591.25 4180939.5 296.660003662
577591.25 4180940 296.559997559
577591.4375 4180939.75 296.709991455
577591.4375 4180940 296.609985352
577592 4180940.25 296.709991455
577592.625 4180940.5 297
