# .PCD v.7 - Point Cloud Data file format
VERSION .7
FIELDS x y z
SIZE 4 4 4
TYPE F F F
COUNT 1 1 1
WIDTH 531
HEIGHT 1
VIEWPOINT 0 0 0 1 0 0 0
POINTS 531
DATA ascii
577592 4180942 295.91
577592.2 4180942 295.92
577591.8 4180941 295.93
577591.8 4180942 295.93
577592.2 4180942 295.93
577592.2 4180941 295.95
577592.4 4180942 295.95
577592.4 4180942 295.95
577591.8 4180941 295.96
577591.6 4180941 295.97
577591.8 4180942 295.97
577591.8 4180943 295.97
577592 4180941 295.98
577592 4180942 295.98
577592.2 4180942 295.98
577591.8 4180945 295.98
577592.4 4180941 295.99
577592.6 4180942 295.99
577592.6 4180942 295.99
577592.4 4180942 295.99
577591.8 4180942 296.01
577591.6 4180941 296.03
577591.8 4180941 296.03
577592.2 4180941 296.03
577592.6 4180942 296.03
577592 4180942 296.03
577591.4 4180941 296.05
577592.6 4180941 296.04
577594 4180941 296.04
577592.8 4180942 296.05
577592 4180942 296.04
577592 4180942 296.04
577592.2 4180942 296.04
577592.4 4180942 296.05
577591.4 4180943 296.05
577590.8 4180941 296.06
577591.4 4180941 296.06
577591.4 4180942 296.06
577591.6 4180942 296.06
577591.8 4180942 296.06
577591.4 4180942 296.07
577591.8 4180944 296.08
577591.6 4180946 296.07
577591.4 4180941 296.09
577592 4180941 296.09
577591.4 4180942 296.09
577592.8 4180942 296.09
577591.6 4180942 296.09
577592.6 4180942 296.09
577591.4 4180943 296.09
577594.4 4180940 296.1
577591.6 4180941 296.11
577592.4 4180941 296.1
577592.8 4180941 296.1
577593 4180942 296.11
577591.4 4180942 296.11
577591.8 4180942 296.11
577592.2 4180942 296.1
577592.4 4180942 296.11
577593 4180942 296.12
577591.6 4180942 296.12
577591.1 4180943 296.12
577591.4 4180947 296.12
577592 4180941 296.13
577591.4 4180942 296.13
577591.1 4180943 296.13
577591.2 4180943 296.13
577591.2 4180943 296.13
577591.4 4180943 296.13
577591.2 4180943 296.13
577591.4 4180946 296.13
577591.4 4180947 296.13
577591.6 4180947 296.13
577591.2 4180942 296.14
577591.4 4180942 296.14
577591.6 4180942 296.14
577591.8 4180942 296.14
577592 4180942 296.14
577592.8 4180942 296.14
577591.4 4180943 296.14
577591.4 4180944 296.14
577591.4 4180946 296.14
577591.6 4180946 296.14
577591.8 4180946 296.14
577591.8 4180946 296.14
577591.8 4180947 296.14
577591.4 4180947 296.14
577592.2 4180948 296.14
577592 4180948 296.14
577595.6 4180940 296.15
577591.4 4180941 296.15
577591.8 4180941 296.15
577593 4180941 296.15
577593.8 4180941 296.15
577591.2 4180942 296.15
577592.2 4180942 296.15
577592.6 4180942 296.15
577591.6 4180943 296.15
577591.6 4180943 296.15
577591.2 4180944 296.15
577591.6 4180944 296.15
577591.4 4180944 296.15
577591.6 4180946 296.15
577591.8 4180946 296.15
577592 4180946 296.15
577592 4180946 296.15
577591.8 4180947 296.15
577591.6 4180947 296.15
577592 4180948 296.15
577592.2 4180948 296.15
577593.8 4180941 296.16
577591.2 4180942 296.16
577591.8 4180943 296.16
577591.6 4180944 296.16
577592 4180946 296.16
577592.2 4180946 296.16
577591.8 4180946 296.16
577592 4180946 296.16
577592.2 4180946 296.16
577592 4180946 296.16
577592 4180947 296.16
577591.8 4180947 296.16
577591.6 4180948 296.16
577591.8 4180948 296.16
577592 4180948 296.16
577592 4180948 296.16
577592 4180941 296.17
577592.2 4180941 296.17
577592.6 4180941 296.17
577591.2 4180942 296.17
577591.2 4180942 296.17
577591.2 4180942 296.17
577593 4180942 296.17
577592.8 4180942 296.17
577591.8 4180946 296.17
577592 4180946 296.17
577592.2 4180946 296.17
577592.4 4180946 296.17
577592.4 4180946 296.17
577592.2 4180946 296.17
577592.2 4180946 296.17
577592 4180947 296.17
577592 4180947 296.17
577591.9 4180948 296.17
577591.8 4180948 296.17
577591.6 4180941 296.18
577593.2 4180941 296.18
577593.2 4180942 296.18
577592.4 4180942 296.18
577592 4180943 296.18
577591.8 4180943 296.18
577591.8 4180943 296.18
577591.8 4180944 296.18
577591.8 4180944 296.18
577592 4180945 296.18
577592.2 4180945 296.18
577591.6 4180946 296.18
577591.8 4180946 296.18
577592.4 4180946 296.18
577592.6 4180946 296.18
577593 4180946 296.18
577592.6 4180946 296.18
577593 4180946 296.18
577593 4180946 296.18
577592.2 4180947 296.18
577592.2 4180947 296.18
577592.4 4180947 296.18
577592.6 4180947 296.18
577592.2 4180948 296.18
577591.8 4180948 296.18
577594 4180944 296.19
577591.6 4180944 296.19
577592 4180945 296.19
577592.2 4180945 296.19
577592.4 4180945 296.19
577592.6 4180946 296.19
577592.8 4180946 296.19
577592.8 4180946 296.19
577593 4180946 296.19
577592.6 4180946 296.19
577592.4 4180946 296.19
577592.4 4180947 296.19
577591.6 4180940 296.2
577593.6 4180941 296.2
577592.8 4180942 296.2
577592.2 4180943 296.2
577592 4180943 296.2
577594 4180944 296.2
577591.8 4180944 296.2
577592 4180945 296.2
577592.2 4180945 296.2
577592.4 4180945 296.2
577593 4180945 296.2
577592.8 4180946 296.2
577593.2 4180946 296.2
577592.6 4180946 296.2
577592.8 4180946 296.2
577592.4 4180947 296.2
577592.6 4180947 296.2
577592.8 4180947 296.2
577595.6 4180940 296.21
577593.4 4180941 296.21
577593.2 4180942 296.21
577592.6 4180942 296.21
577592 4180943 296.21
577594.6 4180943 296.21
577594.2 4180943 296.21
577592 4180944 296.21
577592 4180944 296.21
577592 4180944 296.21
577591.8 4180944 296.21
577592 4180944 296.21
577591.8 4180945 296.21
577592.4 4180946 296.21
577593.6 4180941 296.22
577593 4180942 296.22
577592 4180944 296.22
577592.2 4180945 296.22
577592.4 4180945 296.22
577592.6 4180945 296.22
577591.8 4180945 296.22
577592.8 4180945 296.22
577593 4180946 296.22
577593.2 4180946 296.22
577593.4 4180946 296.22
577595.4 4180940 296.23
577593.8 4180941 296.23
577592.4 4180943 296.23
577592.2 4180943 296.23
577592.2 4180944 296.23
577592.4 4180945 296.23
577592.6 4180945 296.23
577595.2 4180940 296.24
577594.4 4180941 296.24
577594.6 4180941 296.24
577595.8 4180941 296.24
577593.4 4180942 296.24
577594.4 4180943 296.24
577594 4180943 296.24
577593.8 4180944 296.24
577592.2 4180944 296.24
577593.8 4180944 296.24
577592.2 4180944 296.24
577594 4180944 296.24
577592.8 4180945 296.24
577592.6 4180945 296.24
577593 4180941 296.25
577594.8 4180941 296.25
577593.2 4180942 296.25
577594.6 4180943 296.25
577592.2 4180943 296.25
577593.8 4180944 296.25
577592.2 4180944 296.25
577593.8 4180944 296.25
577592.4 4180944 296.25
577594 4180945 296.25
577593.2 4180945 296.25
577593.4 4180945 296.25
577593.6 4180945 296.25
577593.8 4180945 296.25
577594.6 4180940 296.27
577593.4 4180940 296.26
577592.4 4180941 296.27
577593.2 4180941 296.26
577593.6 4180941 296.27
577595 4180941 296.26
577595.2 4180941 296.26
577595.4 4180941 296.26
577595.6 4180941 296.26
577593.2 4180942 296.26
577592.8 4180942 296.26
577593 4180942 296.27
577592.6 4180943 296.26
577592.4 4180943 296.27
577592.2 4180944 296.26
577592.2 4180944 296.26
577592.4 4180944 296.26
577593.8 4180944 296.27
577592.6 4180944 296.27
577594 4180944 296.265
577592.8 4180945 296.26
577593 4180945 296.26
577593.2 4180945 296.27
577593.8 4180945 296.27
577594 4180945 296.27
577594.6 4180942 296.28
577594.2 4180943 296.28
577594.8 4180943 296.28
577593.8 4180943 296.28
577594 4180944 296.28
577593.6 4180944 296.28
577592.4 4180944 296.28
577593.6 4180944 296.28
577592.8 4180945 296.28
577593.8 4180944 296.28
577593 4180945 296.28
577593.4 4180945 296.28
577593.6 4180945 296.28
577593.8 4180945 296.28
577592.8 4180948 296.28
577594.8 4180940 296.3
577593.8 4180941 296.29
577592.8 4180941 296.29
577595.6 4180941 296.29
577593.6 4180942 296.29
577592.8 4180943 296.3
577592.4 4180943 296.29
577592.6 4180943 296.3
577592.8 4180943 296.29
577592.4 4180944 296.3
577593.2 4180944 296.3
577593.6 4180944 296.29
577592.4 4180944 296.3
577592.4 4180944 296.29
577593.6 4180944 296.29
577594.4 4180944 296.3
577592.6 4180944 296.29
577593.6 4180944 296.3
577592.8 4180944 296.3
577593.6 4180944 296.3
577593.2 4180945 296.29
577593.4 4180945 296.3
577593.6 4180945 296.3
577592.8 4180947 296.3
577595.6 4180939 296.31
577594.2 4180940 296.31
577593.2 4180942 296.31
577593.2 4180943 296.31
577594 4180943 296.31
577594.6 4180943 296.31
577593.4 4180944 296.31
577592.8 4180944 296.31
577593 4180944 296.31
577593.2 4180945 296.31
577593.4 4180945 296.31
577594 4180940 296.32
577594.6 4180941 296.33
577593 4180942 296.32
577595.4 4180943 296.33
577595.6 4180943 296.33
577592.6 4180943 296.32
577594 4180943 296.32
577593.4 4180944 296.33
577593.6 4180943 296.32
577592.6 4180944 296.33
577593.4 4180944 296.32
577592.6 4180944 296.32
577592.8 4180944 296.33
577593.4 4180944 296.32
577593 4180944 296.33
577593.2 4180944 296.33
577593.4 4180944 296.32
577592.6 4180945 296.33
577593.2 4180944 296.32
577593.4 4180944 296.32
577592.2 4180940 296.34
577593.8 4180942 296.34
577595.4 4180942 296.34
577593.8 4180943 296.34
577594.4 4180943 296.34
577592.6 4180943 296.34
577593.2 4180944 296.34
577592.8 4180944 296.34
577593 4180944 296.34
577593.2 4180944 296.34
577596.2 4180940 296.35
577592.6 4180941 296.36
577593.4 4180942 296.35
577593.4 4180942 296.35
577593 4180943 296.35
577595.2 4180943 296.35
577592.8 4180943 296.35
577593 4180943 296.36
577593.6 4180943 296.36
577592.8 4180944 296.36
577593 4180944 296.36
577593.2 4180943 296.36
577593.4 4180943 296.35
577592.8 4180944 296.35
577593 4180944 296.36
577592.6 4180944 296.35
577593 4180944 296.35
577593.4 4180941 296.37
577596.4 4180942 296.37
577595.4 4180942 296.37
577595 4180943 296.37
577593 4180943 296.37
577593.4 4180943 296.37
577594.2 4180943 296.37
577593 4180943 296.37
577593 4180945 296.37
577595 4180940 296.38
577594 4180942 296.38
577593.6 4180942 296.38
577593.2 4180942 296.38
577593.2 4180943 296.38
577593.2 4180943 296.39
577596 4180942 296.4
577596.2 4180942 296.4
577593.4 4180942 296.4
577594 4180942 296.4
577594.8 4180943 296.4
577593.4 4180943 296.4
577593.8 4180943 296.4
577593.6 4180948 296.4
577593.6 4180943 296.41
577594.2 4180940 296.42
577594.2 4180942 296.42
577597.2 4180940 296.43
577593.2 4180941 296.43
577593.4 4180942 296.43
577593.4 4180943 296.43
577596.9 4180940 296.44
577594.4 4180942 296.44
577593.4 4180942 296.44
577595.6 4180942 296.44
577596.2 4180940 296.45
577594.2 4180941 296.45
577593 4180941 296.45
577595.8 4180942 296.45
577593.8 4180942 296.45
577593.6 4180942 296.45
577595.4 4180942 296.45
577595.8 4180942 296.45
577597.4 4180940 296.46
577593.6 4180943 296.46
577594.4 4180943 296.46
577595.8 4180943 296.46
577593.6 4180941 296.47
577593.4 4180941 296.47
577595.6 4180942 296.47
577595.2 4180942 296.47
577594.8 4180942 296.48
577595 4180942 296.48
577595.4 4180942 296.48
577596 4180942 296.48
577593.8 4180943 296.48
577594 4180943 296.48
577594.2 4180943 296.48
577595.2 4180942 296.49
577594.2 4180942 296.49
577593.6 4180942 296.49
577594.6 4180942 296.49
577593.6 4180942 296.5
577595 4180942 296.5
577594.6 4180943 296.5
577594 4180942 296.52
577596.8 4180942 296.51
577593.6 4180942 296.51
577596.2 4180942 296.51
577596.6 4180943 296.51
577594.2 4180941 296.53
577596.6 4180942 296.53
577594.8 4180942 296.53
577594.8 4180940 296.55
577596.2 4180940 296.54
577596.4 4180942 296.55
577593.8 4180942 296.54
577596.8 4180942 296.54
577593.8 4180942 296.54
577595.6 4180942 296.56
577595.8 4180942 296.56
577596.4 4180942 296.56
577596.8 4180943 296.56
577598.3 4180940 296.58
577594.2 4180942 296.57
577596 4180942 296.58
577596.2 4180942 296.57
577594.2 4180942 296.58
577594.4 4180942 296.57
577595.2 4180942 296.58
577596.4 4180940 296.59
577594.4 4180942 296.6
577595.6 4180942 296.61
577595.8 4180942 296.6
577597.8 4180942 296.61
577595 4180942 296.61
577596.2 4180942 296.61
577596.6 4180942 296.61
577596.9 4180943 296.61
577596.8 4180942 296.62
577597.6 4180942 296.62
577595.2 4180942 296.63
577594.8 4180942 296.64
577595 4180942 296.64
577594.8 4180942 296.64
577595.6 4180942 296.64
577597.2 4180943 296.64
577594.8 4180940 296.65
577595.8 4180942 296.65
577596.2 4180942 296.65
577596.4 4180942 296.65
577597.8 4180943 296.65
577595.6 4180942 296.66
577596.4 4180942 296.66
577596.6 4180942 296.66
577596.9 4180942 296.66
577594.6 4180942 296.66
577595.2 4180942 296.66
577597.4 4180943 296.66
577597.6 4180943 296.66
577596.4 4180942 296.68
577596.6 4180942 296.68
577595.2 4180942 296.69
577595 4180942 296.69
577597.9 4180942 296.69
577595 4180942 296.7
577594.8 4180942 296.7
577596.9 4180942 296.7
577594.8 4180942 296.71
577596.6 4180942 296.71
577597.8 4180942 296.71
577596.8 4180942 296.72
577597.8 4180942 296.72
577597.9 4180942 296.72
577596.8 4180942 296.73
577597.6 4180942 296.73
577597.6 4180942 296.74
577597.8 4180942 296.75
577597.6 4180942 296.77
577596 4180940 296.82
577596.6 4180940 296.82
577590.2 4180941 297.01
577590.1 4180941 297.09
577589.9 4180941 297.1
577590.4 4180940 297.18
577590.2 4180940 297.19
577590.2 4180941 297.22
577590.4 4180940 297.26
577590.1 4180940 297.34
577590.1 4180941 297.34
