# .PCD v.7 - Point Cloud Data file format
VERSION .7
FIELDS x y z
SIZE 4 4 4
TYPE F F F
COUNT 1 1 1
WIDTH 78
HEIGHT 1
VIEWPOINT 0 0 0 1 0 0 0
POINTS 78
DATA ascii
577608.4 4180948 299.38
577598.8 4180957 298.01
577591.8 4180940 298.17
577598.9 4180957 298.31
577599.9 4180957 298.34
577603.2 4180952 298.38
577605.2 4180952 298.44
577600.1 4180957 298.45
577599.9 4180958 298.47
577597.6 4180958 298.48
577599.9 4180958 298.49
577601.7 4180960 298.5
577603.1 4180952 298.51
577603.2 4180952 298.53
577601.9 4180959 298.57
577602.3 4180959 298.63
577593.2 4180940 298.68
577606.4 4180950 298.68
577592.8 4180940 298.69
577593.8 4180940 298.7
577600.1 4180958 298.71
577601.7 4180960 298.71
577593.6 4180940 298.75
577616.3 4180952 298.77
577616.1 4180952 298.78
577592.6 4180940 298.8
577605.1 4180954 298.79
577592.4 4180940 298.81
577593.6 4180940 298.81
577602.1 4180959 298.81
577593.2 4180940 298.83
577606.4 4180951 298.84
577601.9 4180960 298.84
577607.6 4180948 298.85
577607.4 4180949 298.85
577601.7 4180960 298.85
577601.7 4180960 298.87
577602.3 4180959 298.88
577602.1 4180959 298.88
577604.9 4180954 298.92
577606.8 4180950 298.97
577606.2 4180951 298.97
577605.1 4180954 298.97
577615.1 4180955 298.98
577616.3 4180952 299
577614.7 4180955 299
577607.4 4180949 299.01
577606.4 4180951 299.01
577604.1 4180956 299.01
577605.4 4180953 299.03
577603.7 4180947 299.05
577615.3 4180955 299.05
577614.3 4180957 299.04
577604.1 4180947 299.06
577616.1 4180952 299.06
577615.9 4180952 299.08
577605.2 4180954 299.08
577609.8 4180948 299.09
577607 4180950 299.11
577606.6 4180950 299.1
577614.3 4180957 299.12
577608.2 4180948 299.13
577606.8 4180950 299.13
577605.8 4180952 299.13
577605.4 4180954 299.13
577607.8 4180948 299.16
577606.4 4180951 299.17
577605.6 4180952 299.18
577607.8 4180948 299.21
577607.2 4180949 299.21
577607.6 4180949 299.21
577607.2 4180950 299.23
577607 4180950 299.25
577606.6 4180951 299.25
577607.4 4180949 299.26
577608 4180948 299.33
577609.6 4180948 299.33
577607.6 4180949 299.34
