# .PCD v.7 - Point Cloud Data file format
VERSION .7
FIELDS x y z
SIZE 4 4 4
TYPE F F F
COUNT 1 1 1
WIDTH 156
HEIGHT 1
VIEWPOINT 0 0 0 1 0 0 0
POINTS 156
DATA ascii
577602.7 4180948 303.87
577603.2 4180949 303.93
577602.9 4180949 303.94
577602.7 4180948 303.95
577602.7 4180948 303.97
577604.9 4180950 299.52
577603.1 4180949 304
577602.9 4180948 304.02
577604.9 4180950 299.54
577601.1 4180950 304.03
577601.1 4180949 304.05
577600.3 4180951 299.58
577603.1 4180948 304.07
577603.2 4180948 304.07
577602.9 4180948 304.09
577603.5 4180949 304.09
577603.1 4180949 304.11
577603.2 4180947 299.67
577603.2 4180949 304.15
577600.7 4180951 299.7
577603.1 4180949 304.2
577601.5 4180952 299.74
577604.4 4180948 299.76
577602.5 4180948 304.24
577603.2 4180950 304.24
577603.2 4180947 299.86
577601.5 4180952 299.9
577603.9 4180947 299.92
577604.6 4180947 300
577602.1 4180950 300.02
577601.3 4180952 300.02
577603.5 4180948 304.49
577601.7 4180952 300.07
577603.2 4180950 304.58
577603.9 4180951 300.16
577603.1 4180947 300.17
577604.2 4180948 300.23
577602.5 4180949 304.8
577601.9 4180950 304.79
577604.4 4180948 300.4
577605.1 4180948 300.41
577603.5 4180949 304.89
577603.5 4180951 300.44
577600.5 4180950 300.46
577601.5 4180952 300.47
577604.9 4180949 300.5
577604.9 4180948 300.52
577600.3 4180950 300.56
577602.1 4180952 300.56
577604.9 4180949 300.58
577603.2 4180951 300.64
577603.7 4180951 300.65
577604.1 4180950 300.68
577600.5 4180950 300.7
577605.1 4180949 300.72
577604.4 4180950 300.72
577603.5 4180951 300.72
577601.7 4180951 300.73
577601.7 4180951 300.76
577604.2 4180950 300.8
577602.9 4180951 300.79
577603.5 4180952 300.79
577601.9 4180950 305.3
577604.6 4180948 300.82
577602.7 4180951 300.83
577604.2 4180952 300.87
577602.5 4180951 300.88
577600.1 4180952 300.94
577604.2 4180948 300.95
577604.4 4180950 300.99
577604.4 4180948 301
577602.9 4180951 301
577604.4 4180950 301.02
577601.1 4180951 301.08
577604.1 4180950 301.09
577603.9 4180948 301.22
577600.7 4180952 301.24
577603.2 4180951 301.27
577602.5 4180946 301.33
577604.1 4180948 301.42
577600.3 4180952 301.45
577603.1 4180951 301.48
577604.1 4180950 301.52
577602.9 4180951 301.51
577600.7 4180952 301.53
577602.7 4180951 301.56
577603.7 4180950 301.58
577603.9 4180950 301.75
577603.9 4180948 301.83
577601.9 4180949 301.9
577602.1 4180946 301.92
577600.9 4180948 302.01
577601.1 4180948 302.11
577602.9 4180947 302.13
577602.3 4180950 302.29
577601.3 4180950 302.31
577600.7 4180949 302.32
577602.5 4180947 302.35
577603.9 4180949 302.39
577601.1 4180950 302.47
577604.4 4180951 302.48
577602.5 4180947 302.5
577602.5 4180948 302.5
577600.9 4180950 302.52
577602.7 4180947 302.54
577600.9 4180950 302.55
577601.3 4180950 302.63
577600.5 4180950 302.7
577601.1 4180950 302.7
577602.9 4180948 302.73
577602.7 4180950 302.75
577604.1 4180949 302.79
577602.5 4180950 302.83
577604.2 4180949 302.85
577600.9 4180950 302.85
577601.3 4180950 302.92
577601.7 4180947 302.93
577603.9 4180950 302.93
577602.3 4180949 302.94
577603.7 4180949 303.05
577602.3 4180950 303.05
577602.1 4180947 303.09
577601.3 4180950 303.16
577602.7 4180950 303.16
577601.9 4180947 303.2
577603.7 4180950 303.21
577602.5 4180950 303.24
577601.7 4180948 303.25
577603.9 4180949 303.29
577602.3 4180950 303.32
577601.9 4180948 303.51
577602.5 4180950 303.53
577602.1 4180948 303.59
577600.5 4180949 303.59
577602.3 4180950 303.59
577601.7 4180948 303.62
577601.5 4180949 303.62
577601.7 4180948 303.63
577601.7 4180948 303.63
577601.3 4180949 303.63
577603.5 4180950 303.63
577601.9 4180948 303.67
577601.9 4180948 303.68
577601.5 4180949 303.68
577601.9 4180948 303.71
577601.5 4180949 303.73
577602.1 4180948 303.74
577601.9 4180948 303.75
577601.5 4180949 303.76
577601.5 4180950 303.77
577603.2 4180950 303.79
577601.9 4180950 303.8
577602.1 4180948 303.82
577602.9 4180948 303.86
577602.9 4180950 303.85
577603.1 4180950 303.85
