# .PCD v.7 - Point Cloud Data file format
VERSION .7
FIELDS x y z
SIZE 4 4 4
TYPE F F F
COUNT 1 1 1
WIDTH 150
HEIGHT 1
VIEWPOINT 0 0 0 1 0 0 0
POINTS 150
DATA ascii
577604.875 4180963.25 296.5
577605.0625 4180962.75 296.559997559
577605.8125 4180963.5 296.609985352
577606.0625 4180967.75 296.619995117
577606.25 4180963.75 296.630004883
577606.25 4180964.25 296.410003662
577606.8125 4180967 296.459991455
577606.8125 4180967.5 296.600006104
577606.8125 4180968 296.880004883
577607 4180964.25 296.489990234
577607 4180964.75 296.450012207
577607.1875 4180967.5 296.950012207
577607.1875 4180967.5 296.649993896
577607.1875 4180967.75 296.429992676
577607.4375 4180965 296.730010986
577607.4375 4180965.25 296.809997559
577607.4375 4180966 296.450012207
577607.4375 4180966.5 296.609985352
577607.4375 4180967.25 296.640014648
577607.4375 4180967.5 296.480010986
577607.4375 4180967.5 296.309997559
577607.4375 4180967.75 296.200012207
577607.625 4180964.25 296.529998779
577607.625 4180964.75 296.470001221
577607.625 4180965 296.279998779
577607.625 4180965.25 296.190002441
577607.625 4180965.5 296.429992676
577607.625 4180965.5 296.290008545
577607.625 4180965.75 296.410003662
577607.625 4180966 296.529998779
577607.625 4180966.25 296.609985352
577607.625 4180966.5 296.640014648
577607.625 4180966.5 296.609985352
577607.625 4180966.75 296.529998779
577607.625 4180967 296.420013428
577607.625 4180967.5 296.109985352
577607.8125 4180964.5 296.859985352
577607.8125 4180964.75 296.390014648
577607.8125 4180966 295.880004883
577607.8125 4180966.25 295.980010986
577607.8125 4180966.5 296.059997559
577607.8125 4180966.5 296.109985352
577607.8125 4180966.75 296.130004883
577607.8125 4180967 296.119995117
577607.8125 4180967.25 296.089996338
577607.8125 4180967.5 296.070007324
577607.8125 4180967.5 296.059997559
577608 4180964.5 297
577608 4180964.75 296.470001221
577608 4180965 296.040008545
577608.1875 4180964.75 296.709991455
577608.1875 4180965 296.25
577608.1875 4180966.5 296.730010986
577608.1875 4180967.25 296.660003662
577608.1875 4180967.5 296.269989014
577608.1875 4180967.75 296.579986572
577608.375 4180964.75 296.480010986
577608.375 4180965 296.609985352
577608.375 4180965.25 296.230010986
577608.375 4180965.5 296.420013428
577608.375 4180966 296.570007324
577608.375 4180967 296.279998779
577608.375 4180967.25 296.369995117
577608.625 4180965.25 296.679992676
577608.625 4180965.5 296.380004883
577608.625 4180965.5 296.170013428
577608.625 4180966.5 296.279998779
577608.625 4180966.75 296.410003662
577608.625 4180967 296.510009766
577608.625 4180967.25 296.600006104
577608.8125 4180965.5 296.839996338
577608.8125 4180965.5 296.609985352
577608.8125 4180965.75 296.459991455
577608.8125 4180966 296.390014648
577608.8125 4180966.25 296.390014648
577608.8125 4180966.5 296.600006104
577608.8125 4180966.5 296.540008545
577608.8125 4180966.75 296.640014648
577608.8125 4180967 296.390014648
577608.8125 4180967.5 296.529998779
577608.8125 4180967.75 296.790008545
577609 4180964.5 296.450012207
577609 4180965.25 296.670013428
577609 4180965.75 296.589996338
577609 4180966 296.690002441
577609 4180966.25 296.660003662
577609 4180966.5 296.679992676
577609 4180966.5 296.739990234
577609 4180967.75 296.890014648
577609.1875 4180966 296.869995117
577609.1875 4180966.25 296.799987793
577609.1875 4180966.5 296.799987793
577609.1875 4180966.5 296.829986572
577609.1875 4180966.75 296.880004883
577609.1875 4180967 296.940002441
577609.1875 4180967.25 296.980010986
577609.375 4180966.25 296.790008545
577609.375 4180966.5 296.769989014
577609.375 4180966.75 296.820007324
577609.5625 4180966 296.380004883
577609.5625 4180966.25 296.630004883
577609.5625 4180966.5 296.600006104
577609.5625 4180966.5 296.470001221
577609.5625 4180966.75 296.640014648
577609.5625 4180967 296.690002441
577609.5625 4180967.25 296.440002441
577609.5625 4180967.75 296.399993896
577609.8125 4180965.5 296.579986572
577609.8125 4180965.5 296.809997559
577609.8125 4180965.75 296.589996338
577609.8125 4180966 296.440002441
577609.8125 4180966.25 296.359985352
577609.8125 4180966.5 296.329986572
577609.8125 4180967 296.420013428
577610 4180965.5 296.640014648
577610 4180965.5 296.390014648
577610 4180965.75 296.209991455
577610 4180966 296.100006104
577610 4180966.5 296.029998779
577610.1875 4180965.5 296.570007324
577610.1875 4180966.25 296.429992676
577610.1875 4180966.75 296.559997559
577610.1875 4180967.5 295.940002441
577610.375 4180964.75 296.850006104
577610.375 4180965 296.739990234
577610.375 4180967.5 295.709991455
577610.5625 4180964.75 296.429992676
577610.5625 4180966.5 295.820007324
577610.75 4180964.75 296.25
577610.75 4180966.25 296.170013428
577610.75 4180966.5 296.230010986
577610.75 4180966.5 296.209991455
577610.75 4180966.75 296.130004883
577610.9375 4180964.75 296.420013428
577610.9375 4180965 296.029998779
577610.9375 4180965.75 296.470001221
577610.9375 4180966 296.529998779
577610.9375 4180966.5 296.480010986
577610.9375 4180967 296.559997559
577610.9375 4180967.25 296.589996338
577610.9375 4180967.75 296.540008545
577611.1875 4180964.25 296.429992676
577611.1875 4180964.75 296.410003662
577611.1875 4180965 296.670013428
577611.1875 4180965.25 296.619995117
577611.1875 4180965.5 296.700012207
577611.375 4180967.75 296.510009766
577611.5625 4180967.25 296.709991455
577611.75 4180964.5 296.730010986
577611.75 4180964.75 296.339996338
