# .PCD v.7 - Point Cloud Data file format
VERSION .7
FIELDS x y z
SIZE 4 4 4
TYPE F F F
COUNT 1 1 1
WIDTH 1377
HEIGHT 1
VIEWPOINT 0 0 0 1 0 0 0
POINTS 1377
DATA ascii
577613.125 4180946.75 296.279998779
577613.125 4180946.75 296.160003662
577613.125 4180947 296.070007324
577613.125 4180947.75 296.160003662
577613.125 4180947.75 296.390014648
577613.125 4180948.25 296.440002441
577613.3125 4180941.25 296.630004883
577613.3125 4180941.5 296.690002441
577613.3125 4180942 296.459991455
577613.3125 4180942.25 296.420013428
577613.3125 4180942.5 296.700012207
577613.3125 4180942.75 296.559997559
577613.3125 4180943 296.440002441
577613.3125 4180943 296.339996338
577613.3125 4180943.25 296.290008545
577613.3125 4180943.5 296.279998779
577613.3125 4180943.75 296.290008545
577613.3125 4180944 296.329986572
577613.3125 4180944 296.380004883
577613.3125 4180944.25 296.429992676
577613.3125 4180944.5 296.470001221
577613.3125 4180944.75 296.510009766
577613.3125 4180945 296.529998779
577613.3125 4180945 296.559997559
577613.3125 4180945.25 296.579986572
577613.3125 4180945.5 296.589996338
577613.3125 4180945.75 296.600006104
577613.3125 4180946 296.359985352
577613.3125 4180946 296.559997559
577613.3125 4180946.25 296.5
577613.3125 4180946.5 296.350006104
577613.3125 4180946.75 296.309997559
577613.3125 4180946.75 296.200012207
577613.3125 4180947 296.339996338
577613.3125 4180947.75 296.440002441
577613.3125 4180947.75 296.299987793
577613.3125 4180948 296.609985352
577613.5625 4180939.5 296.480010986
577613.5625 4180940.25 296.679992676
577613.5625 4180940.75 296.619995117
577613.5625 4180941.25 296.470001221
577613.5625 4180941.5 296.709991455
577613.5625 4180941.75 296.859985352
577613.5625 4180942.5 296.670013428
577613.5625 4180942.75 296.529998779
577613.5625 4180943 296.410003662
577613.5625 4180943 296.329986572
577613.5625 4180943.25 296.290008545
577613.5625 4180943.5 296.279998779
577613.5625 4180943.75 296.309997559
577613.5625 4180944 296.350006104
577613.5625 4180944 296.399993896
577613.5625 4180944.25 296.5
577613.5625 4180944.5 296.489990234
577613.5625 4180944.75 296.519989014
577613.5625 4180945 296.459991455
577613.5625 4180945 296.559997559
577613.5625 4180945.25 296.570007324
577613.5625 4180945.5 296.679992676
577613.5625 4180945.75 296.579986572
577613.5625 4180946 296.579986572
577613.5625 4180946 296.559997559
577613.5625 4180946.25 296.510009766
577613.5625 4180946.5 296.440002441
577613.5625 4180946.75 296.350006104
577613.5625 4180946.75 296.25
577613.5625 4180947 296.149993896
577613.5625 4180947.25 296.079986572
577613.5625 4180947.5 296.049987793
577613.5625 4180947.75 296.230010986
577613.5625 4180948 296.480010986
577613.5625 4180948.25 296.839996338
577613.75 4180940 296.970001221
577613.75 4180941.25 296.239990234
577613.75 4180941.25 296.5
577613.75 4180941.5 296.720001221
577613.75 4180941.75 296.850006104
577613.75 4180942.25 296.859985352
577613.75 4180942.5 296.410003662
577613.75 4180942.75 296.510009766
577613.75 4180943 296.399993896
577613.75 4180943 296.450012207
577613.75 4180943.25 296.290008545
577613.75 4180943.5 296.299987793
577613.75 4180943.75 296.459991455
577613.75 4180944 296.369995117
577613.75 4180944 296.420013428
577613.75 4180944.25 296.459991455
577613.75 4180944.5 296.5
577613.75 4180944.75 296.519989014
577613.75 4180945 296.540008545
577613.75 4180945 296.549987793
577613.75 4180945.25 296.559997559
577613.75 4180945.5 296.559997559
577613.75 4180945.75 296.570007324
577613.75 4180946 296.570007324
577613.75 4180946 296.549987793
577613.75 4180946.25 296.519989014
577613.75 4180946.5 296.470001221
577613.75 4180946.75 296.399993896
577613.75 4180946.75 296.309997559
577613.75 4180947 296.220001221
577613.75 4180947.25 296.140014648
577613.75 4180947.5 296.089996338
577613.75 4180947.75 296.100006104
577613.75 4180947.75 296.190002441
577613.75 4180948 296.369995117
577613.75 4180948.25 296.649993896
577613.9375 4180940 296.839996338
577613.9375 4180940.25 296.899993896
577613.9375 4180940.75 296.709991455
577613.9375 4180941.25 296.619995117
577613.9375 4180941.5 296.730010986
577613.9375 4180942 296.510009766
577613.9375 4180942.25 296.730010986
577613.9375 4180942.5 296.609985352
577613.9375 4180942.75 296.489990234
577613.9375 4180943 296.399993896
577613.9375 4180943 296.329986572
577613.9375 4180943.25 296.299987793
577613.9375 4180943.5 296.309997559
577613.9375 4180943.75 296.339996338
577613.9375 4180944 296.380004883
577613.9375 4180944 296.429992676
577613.9375 4180944.25 296.470001221
577613.9375 4180944.5 296.5
577613.9375 4180944.75 296.519989014
577613.9375 4180945 296.529998779
577613.9375 4180945 296.540008545
577613.9375 4180945.25 296.540008545
577613.9375 4180945.5 296.540008545
577613.9375 4180945.75 296.549987793
577613.9375 4180946 296.549987793
577613.9375 4180946 296.549987793
577613.9375 4180946.25 296.540008545
577613.9375 4180946.5 296.5
577613.9375 4180946.75 296.450012207
577613.9375 4180946.75 296.380004883
577613.9375 4180947 296.299987793
577613.9375 4180947.25 296.220001221
577613.9375 4180947.5 296.149993896
577613.9375 4180947.75 296.160003662
577613.9375 4180948 296.269989014
577613.9375 4180948.25 296.480010986
577614.125 4180939.5 296.649993896
577614.125 4180940 296.730010986
577614.125 4180941.25 296.339996338
577614.125 4180941.25 296.570007324
577614.125 4180941.5 296.75
577614.125 4180941.75 296.839996338
577614.125 4180942.25 296.809997559
577614.125 4180942.25 296.720001221
577614.125 4180942.5 296.609985352
577614.125 4180942.75 296.489990234
577614.125 4180943 296.399993896
577614.125 4180943 296.339996338
577614.125 4180943.25 296.320007324
577614.125 4180943.5 296.320007324
577614.125 4180943.75 296.350006104
577614.125 4180944 296.390014648
577614.125 4180944 296.429992676
577614.125 4180944.25 296.470001221
577614.125 4180944.5 296.5
577614.125 4180944.75 296.510009766
577614.125 4180945 296.519989014
577614.125 4180945 296.519989014
577614.125 4180945.25 296.519989014
577614.125 4180945.5 296.519989014
577614.125 4180945.75 296.529998779
577614.125 4180946 296.540008545
577614.125 4180946 296.540008545
577614.125 4180946.25 296.549987793
577614.125 4180946.5 296.529998779
577614.125 4180946.75 296.5
577614.125 4180946.75 296.450012207
577614.125 4180947 296.549987793
577614.125 4180947.25 296.299987793
577614.125 4180947.5 296.220001221
577614.125 4180947.75 296.440002441
577614.125 4180947.75 296.149993896
577614.125 4180948 296.200012207
577614.125 4180948.25 296.260009766
577614.125 4180948.5 296.549987793
577614.125 4180948.75 296.390014648
577614.3125 4180940 296.670013428
577614.3125 4180941 296.140014648
577614.3125 4180941.25 296.380004883
577614.3125 4180941.25 296.600006104
577614.3125 4180941.5 296.760009766
577614.3125 4180941.75 296.850006104
577614.3125 4180942 296.869995117
577614.3125 4180942.25 296.820007324
577614.3125 4180942.25 296.730010986
577614.3125 4180942.5 296.619995117
577614.3125 4180942.75 296.510009766
577614.3125 4180943.5 296.329986572
577614.3125 4180943.75 296.359985352
577614.3125 4180944 296.390014648
577614.3125 4180944 296.429992676
577614.3125 4180944.25 296.470001221
577614.3125 4180944.5 296.489990234
577614.3125 4180944.75 296.369995117
577614.3125 4180945 296.510009766
577614.3125 4180945 296.5
577614.3125 4180945.25 296.579986572
577614.3125 4180945.5 296.5
577614.3125 4180945.75 296.510009766
577614.3125 4180946 296.440002441
577614.3125 4180946 296.540008545
577614.3125 4180946.25 296.549987793
577614.3125 4180946.5 296.339996338
577614.3125 4180946.75 296.549987793
577614.3125 4180946.75 296.510009766
577614.3125 4180947 296.459991455
577614.3125 4180947.25 296.380004883
577614.3125 4180947.5 296.299987793
577614.3125 4180947.75 296.209991455
577614.3125 4180947.75 296.149993896
577614.3125 4180948.25 296.200012207
577614.3125 4180948.5 296.350006104
577614.5 4180940 296.670013428
577614.5 4180940.25 296.160003662
577614.5 4180941.25 296.399993896
577614.5 4180941.25 296.619995117
577614.5 4180941.5 296.790008545
577614.5 4180941.75 296.880004883
577614.5 4180942.25 296.850006104
577614.5 4180942.25 296.760009766
577614.5 4180942.5 296.640014648
577614.5 4180942.75 296.529998779
577614.5 4180943 296.899993896
577614.5 4180943.5 296.339996338
577614.5 4180943.75 296.420013428
577614.5 4180944 296.390014648
577614.5 4180944 296.309997559
577614.5 4180944.25 296.459991455
577614.5 4180944.5 296.480010986
577614.5 4180944.75 296.489990234
577614.5 4180945 296.5
577614.5 4180945 296.489990234
577614.5 4180945.25 296.480010986
577614.5 4180945.5 296.480010986
577614.5 4180945.75 296.489990234
577614.5 4180946 296.5
577614.5 4180946 296.519989014
577614.5 4180946.25 296.549987793
577614.5 4180946.5 296.570007324
577614.5 4180946.75 296.579986572
577614.5 4180946.75 296.559997559
577614.5 4180947 296.519989014
577614.5 4180947.25 296.450012207
577614.5 4180947.5 296.359985352
577614.5 4180947.75 296.260009766
577614.5 4180947.75 296.160003662
577614.5 4180948 296.450012207
577614.5 4180948.75 296.619995117
577614.5 4180948.75 296.670013428
577614.5 4180949.25 296.429992676
577614.6875 4180940 296.75
577614.6875 4180940.75 296.779998779
577614.6875 4180941.25 296.420013428
577614.6875 4180941.25 296.660003662
577614.6875 4180941.5 296.820007324
577614.6875 4180942 296.579986572
577614.6875 4180942.25 296.799987793
577614.6875 4180942.5 296.660003662
577614.6875 4180942.75 296.570007324
577614.6875 4180943 296.470001221
577614.6875 4180943.5 296.339996338
577614.6875 4180943.75 296.350006104
577614.6875 4180944 296.380004883
577614.6875 4180944 296.420013428
577614.6875 4180944.25 296.450012207
577614.6875 4180944.5 296.470001221
577614.6875 4180944.75 296.489990234
577614.6875 4180945 296.489990234
577614.6875 4180945 296.480010986
577614.6875 4180945.25 296.470001221
577614.6875 4180945.5 296.470001221
577614.6875 4180945.75 296.470001221
577614.6875 4180946 296.480010986
577614.6875 4180946 296.510009766
577614.6875 4180946.25 296.540008545
577614.6875 4180946.5 296.549987793
577614.6875 4180946.75 296.589996338
577614.6875 4180946.75 296.489990234
577614.6875 4180947 296.559997559
577614.6875 4180947.25 296.5
577614.6875 4180947.5 296.410003662
577614.6875 4180947.75 296.429992676
577614.6875 4180947.75 296.179992676
577614.6875 4180948.25 296.040008545
577614.6875 4180948.75 296.429992676
577614.6875 4180949 296.779998779
577614.9375 4180939.5 296.410003662
577614.9375 4180940 296.899993896
577614.9375 4180940.25 296.709991455
577614.9375 4180941.25 296.440002441
577614.9375 4180941.25 296.679992676
577614.9375 4180941.5 296.859985352
577614.9375 4180941.75 296.970001221
577614.9375 4180942.25 296.959991455
577614.9375 4180942.5 296.739990234
577614.9375 4180942.75 296.609985352
577614.9375 4180943 296.489990234
577614.9375 4180943 296.399993896
577614.9375 4180943.25 296.350006104
577614.9375 4180943.5 296.329986572
577614.9375 4180943.75 296.339996338
577614.9375 4180944 296.369995117
577614.9375 4180944 296.269989014
577614.9375 4180944.25 296.440002441
577614.9375 4180944.5 296.470001221
577614.9375 4180944.75 296.5
577614.9375 4180945 296.489990234
577614.9375 4180945 296.480010986
577614.9375 4180945.25 296.619995117
577614.9375 4180945.5 296.459991455
577614.9375 4180945.75 296.450012207
577614.9375 4180946 296.470001221
577614.9375 4180946 296.489990234
577614.9375 4180946.25 296.519989014
577614.9375 4180946.5 296.559997559
577614.9375 4180946.75 296.589996338
577614.9375 4180946.75 296.600006104
577614.9375 4180947 296.579986572
577614.9375 4180947.25 296.529998779
577614.9375 4180947.5 296.440002441
577614.9375 4180947.75 296.329986572
577614.9375 4180947.75 296.200012207
577614.9375 4180948 296.089996338
577614.9375 4180948.25 296.010009766
577614.9375 4180948.5 295.989990234
577614.9375 4180948.75 296.070007324
577614.9375 4180948.75 296.260009766
577614.9375 4180949 296.559997559
577614.9375 4180949.25 296.980010986
577615.125 4180940 297.109985352
577615.125 4180941.25 296.459991455
577615.125 4180941.25 296.709991455
577615.125 4180941.5 296.920013428
577615.125 4180942 297.079986572
577615.125 4180942.25 296.540008545
577615.125 4180942.5 296.799987793
577615.125 4180942.75 296.649993896
577615.125 4180943 296.540008545
577615.125 4180943 296.420013428
577615.125 4180943.25 296.350006104
577615.125 4180943.5 296.450012207
577615.125 4180943.75 296.329986572
577615.125 4180944 296.359985352
577615.125 4180944 296.399993896
577615.125 4180944.25 296.440002441
577615.125 4180944.5 296.470001221
577615.125 4180944.75 296.489990234
577615.125 4180945 296.489990234
577615.125 4180945 296.480010986
577615.125 4180945.25 296.459991455
577615.125 4180945.5 296.450012207
577615.125 4180945.75 296.440002441
577615.125 4180946 296.440002441
577615.125 4180946 296.459991455
577615.125 4180946.25 296.489990234
577615.125 4180946.5 296.529998779
577615.125 4180946.75 296.559997559
577615.125 4180946.75 296.579986572
577615.125 4180947 296.579986572
577615.125 4180947.25 296.540008545
577615.125 4180947.5 296.459991455
577615.125 4180947.75 296.350006104
577615.125 4180947.75 296.230010986
577615.125 4180948 296.100006104
577615.125 4180948.25 296
577615.125 4180948.5 295.959991455
577615.125 4180948.75 296
577615.125 4180948.75 296.149993896
577615.125 4180949 296.410003662
577615.125 4180949.25 296.779998779
577615.3125 4180940.25 297.070007324
577615.3125 4180940.75 297.010009766
577615.3125 4180941.25 296.5
577615.3125 4180941.25 296.760009766
577615.3125 4180941.5 296.989990234
577615.3125 4180941.75 296.720001221
577615.3125 4180942.5 296.859985352
577615.3125 4180942.75 296.690002441
577615.3125 4180943 296.540008545
577615.3125 4180943 296.429992676
577615.3125 4180943.25 296.350006104
577615.3125 4180943.5 296.320007324
577615.3125 4180943.75 296.329986572
577615.3125 4180944 296.359985352
577615.3125 4180944 296.410003662
577615.3125 4180944.25 296.450012207
577615.3125 4180944.5 296.480010986
577615.3125 4180944.75 296.5
577615.3125 4180945 296.5
577615.3125 4180945 296.489990234
577615.3125 4180945.25 296.470001221
577615.3125 4180945.5 296.440002441
577615.3125 4180945.75 296.429992676
577615.3125 4180946 296.420013428
577615.3125 4180946 296.440002441
577615.3125 4180946.25 296.459991455
577615.3125 4180946.5 296.489990234
577615.3125 4180946.75 296.529998779
577615.3125 4180946.75 296.549987793
577615.3125 4180947 296.549987793
577615.3125 4180947.25 296.529998779
577615.3125 4180947.5 296.459991455
577615.3125 4180947.75 296.369995117
577615.3125 4180947.75 296.25
577615.3125 4180948 296.130004883
577615.3125 4180948.25 296.029998779
577615.3125 4180948.5 295.970001221
577615.3125 4180948.75 296.299987793
577615.3125 4180949 296.309997559
577615.3125 4180949.25 296.630004883
577615.3125 4180949.5 296.369995117
577615.5 4180939.5 296.790008545
577615.5 4180941.25 296.549987793
577615.5 4180941.25 296.829986572
577615.5 4180941.5 297.059997559
577615.5 4180942.25 297.200012207
577615.5 4180942.25 297.070007324
577615.5 4180942.5 296.910003662
577615.5 4180942.75 296.730010986
577615.5 4180943 296.559997559
577615.5 4180943 296.440002441
577615.5 4180943.25 296.359985352
577615.5 4180943.5 296.320007324
577615.5 4180943.75 296.329986572
577615.5 4180944 296.369995117
577615.5 4180944 296.420013428
577615.5 4180944.25 296.459991455
577615.5 4180944.5 296.5
577615.5 4180944.75 296.519989014
577615.5 4180945 296.519989014
577615.5 4180945 296.5
577615.5 4180945.25 296.470001221
577615.5 4180945.5 296.440002441
577615.5 4180945.75 296.420013428
577615.5 4180946 296.410003662
577615.5 4180946 296.410003662
577615.5 4180946.25 296.420013428
577615.5 4180946.5 296.450012207
577615.5 4180946.75 296.480010986
577615.5 4180946.75 296.510009766
577615.5 4180947 296.309997559
577615.5 4180947.25 296.5
577615.5 4180947.5 296.450012207
577615.5 4180947.75 296.299987793
577615.5 4180947.75 296.279998779
577615.5 4180948 296.170013428
577615.5 4180948.25 296.299987793
577615.5 4180948.5 296.010009766
577615.5 4180948.75 296.010009766
577615.5 4180948.75 296.079986572
577615.5 4180949 296.25
577615.5 4180949.25 296.519989014
577615.6875 4180940.25 296.890014648
577615.6875 4180941 296.339996338
577615.6875 4180941.25 296.619995117
577615.6875 4180941.25 296.910003662
577615.6875 4180941.5 297.140014648
577615.6875 4180941.75 297.279998779
577615.6875 4180942 297.320007324
577615.6875 4180942.25 297.260009766
577615.6875 4180942.75 296.75
577615.6875 4180943 296.579986572
577615.6875 4180943 296.450012207
577615.6875 4180943.25 296.359985352
577615.6875 4180943.5 296.329986572
577615.6875 4180943.75 296.339996338
577615.6875 4180944 296.380004883
577615.6875 4180944 296.429992676
577615.6875 4180944.25 296.480010986
577615.6875 4180944.5 296.519989014
577615.6875 4180944.75 296.540008545
577615.6875 4180945 296.540008545
577615.6875 4180945 296.510009766
577615.6875 4180945.25 296.480010986
577615.6875 4180945.5 296.489990234
577615.6875 4180945.75 296.410003662
577615.6875 4180946 296.350006104
577615.6875 4180946 296.380004883
577615.6875 4180946.25 296.390014648
577615.6875 4180946.5 296.410003662
577615.6875 4180946.75 296.429992676
577615.6875 4180946.75 296.459991455
577615.6875 4180947 296.470001221
577615.6875 4180947.25 296.470001221
577615.6875 4180947.5 296.440002441
577615.6875 4180947.75 296.390014648
577615.6875 4180947.75 296.309997559
577615.6875 4180948 296.220001221
577615.6875 4180948.25 296.140014648
577615.6875 4180948.5 296.079986572
577615.6875 4180948.75 296.059997559
577615.6875 4180948.75 296.109985352
577615.6875 4180949 296.230010986
577615.6875 4180949.5 296.75
577615.875 4180940.25 297
577615.875 4180942.5 296.519989014
577615.875 4180942.75 296.769989014
577615.875 4180943 296.589996338
577615.875 4180943 296.609985352
577615.875 4180943.25 296.380004883
577615.875 4180943.5 296.350006104
577615.875 4180943.75 296.489990234
577615.875 4180944 296.399993896
577615.875 4180944 296.459991455
577615.875 4180944.25 296.540008545
577615.875 4180944.5 296.549987793
577615.875 4180944.75 296.559997559
577615.875 4180945 296.510009766
577615.875 4180945 296.529998779
577615.875 4180945.25 296.489990234
577615.875 4180945.5 296.440002441
577615.875 4180945.75 296.399993896
577615.875 4180946 296.369995117
577615.875 4180946 296.350006104
577615.875 4180946.25 296.350006104
577615.875 4180946.5 296.369995117
577615.875 4180946.75 296.390014648
577615.875 4180946.75 296.410003662
577615.875 4180947 296.429992676
577615.875 4180947.25 296.440002441
577615.875 4180947.5 296.420013428
577615.875 4180947.75 296.390014648
577615.875 4180947.75 296.339996338
577615.875 4180948 296.279998779
577615.875 4180948.25 296.209991455
577615.875 4180948.5 296.149993896
577615.875 4180948.75 296.260009766
577615.875 4180948.75 296.149993896
577615.875 4180949 296.429992676
577615.875 4180949.25 296.390014648
577615.875 4180949.5 296.619995117
577615.875 4180949.75 296.480010986
577615.875 4180954.25 297.049987793
577615.875 4180954.25 297.119995117
577616.125 4180942 296.809997559
577616.125 4180942.75 296.769989014
577616.125 4180943 296.589996338
577616.125 4180943 296.470001221
577616.125 4180943.25 296.390014648
577616.125 4180943.5 296.369995117
577616.125 4180943.75 296.390014648
577616.125 4180944 296.429992676
577616.125 4180944 296.489990234
577616.125 4180944.25 296.540008545
577616.125 4180944.5 296.570007324
577616.125 4180944.75 296.579986572
577616.125 4180945 296.570007324
577616.125 4180945 296.540008545
577616.125 4180945.25 296.489990234
577616.125 4180945.5 296.440002441
577616.125 4180945.75 296.390014648
577616.125 4180946 296.359985352
577616.125 4180946 296.329986572
577616.125 4180946.25 296.459991455
577616.125 4180946.5 296.329986572
577616.125 4180946.75 296.339996338
577616.125 4180946.75 296.320007324
577616.125 4180947 296.390014648
577616.125 4180947.25 296.399993896
577616.125 4180947.5 296.359985352
577616.125 4180947.75 296.399993896
577616.125 4180947.75 296.369995117
577616.125 4180948 296.510009766
577616.125 4180948.25 296.279998779
577616.125 4180948.5 296.230010986
577616.125 4180948.75 296.200012207
577616.125 4180948.75 296.200012207
577616.125 4180949 296.25
577616.125 4180949.25 296.350006104
577616.125 4180949.5 296.510009766
577616.125 4180949.75 296.739990234
577616.125 4180953.75 296.829986572
577616.125 4180954 296.679992676
577616.125 4180954.25 296.660003662
577616.125 4180954.25 296.799987793
577616.3125 4180942.5 296.950012207
577616.3125 4180942.75 296.760009766
577616.3125 4180943 296.589996338
577616.3125 4180943 296.470001221
577616.3125 4180943.25 296.399993896
577616.3125 4180943.75 296.410003662
577616.3125 4180944 296.600006104
577616.3125 4180944 296.510009766
577616.3125 4180944.25 296.559997559
577616.3125 4180944.5 296.350006104
577616.3125 4180944.75 296.600006104
577616.3125 4180945 296.579986572
577616.3125 4180945 296.459991455
577616.3125 4180945.25 296.489990234
577616.3125 4180945.5 296.440002441
577616.3125 4180945.75 296.339996338
577616.3125 4180946 296.339996338
577616.3125 4180946 296.309997559
577616.3125 4180946.25 296.299987793
577616.3125 4180946.5 296.299987793
577616.3125 4180946.75 296.309997559
577616.3125 4180946.75 296.329986572
577616.3125 4180947 296.359985352
577616.3125 4180947.25 296.380004883
577616.3125 4180947.5 296.399993896
577616.3125 4180947.75 296.410003662
577616.3125 4180947.75 296.399993896
577616.3125 4180948 296.380004883
577616.3125 4180948.25 296.339996338
577616.3125 4180948.5 296.309997559
577616.3125 4180948.75 296.269989014
577616.3125 4180948.75 296.25
577616.3125 4180949 296.260009766
577616.3125 4180949.25 296.309997559
577616.3125 4180949.5 296.410003662
577616.3125 4180949.75 296.559997559
577616.3125 4180949.75 296.779998779
577616.3125 4180953 296.339996338
577616.3125 4180953.5 296.459991455
577616.3125 4180953.75 296.420013428
577616.3125 4180954.25 296.709991455
577616.3125 4180954.25 296.510009766
577616.3125 4180954.75 296.450012207
577616.5 4180942.25 296.760009766
577616.5 4180942.5 296.929992676
577616.5 4180942.75 296.739990234
577616.5 4180943 296.820007324
577616.5 4180943.5 296.720001221
577616.5 4180943.75 296.440002441
577616.5 4180944 296.480010986
577616.5 4180944 296.540008545
577616.5 4180944.25 296.579986572
577616.5 4180944.5 296.609985352
577616.5 4180944.75 296.609985352
577616.5 4180945 296.589996338
577616.5 4180945 296.549987793
577616.5 4180945.25 296.489990234
577616.5 4180945.5 296.440002441
577616.5 4180945.75 296.380004883
577616.5 4180946 296.329986572
577616.5 4180946 296.299987793
577616.5 4180946.25 296.279998779
577616.5 4180946.5 296.279998779
577616.5 4180946.75 296.290008545
577616.5 4180946.75 296.309997559
577616.5 4180947 296.329986572
577616.5 4180947.25 296.359985352
577616.5 4180947.5 296.390014648
577616.5 4180947.75 296.410003662
577616.5 4180947.75 296.420013428
577616.5 4180948 296.420013428
577616.5 4180948.25 296.390014648
577616.5 4180948.5 296.359985352
577616.5 4180948.75 296.320007324
577616.5 4180948.75 296.290008545
577616.5 4180949 296.269989014
577616.5 4180949.25 296.269989014
577616.5 4180949.5 296.309997559
577616.5 4180949.75 296.410003662
577616.5 4180949.75 296.549987793
577616.5 4180953.5 296.640014648
577616.5 4180953.5 296.320007324
577616.5 4180953.75 296.089996338
577616.6875 4180941.75 296.880004883
577616.6875 4180942.5 296.890014648
577616.6875 4180942.75 296.709991455
577616.6875 4180943 296.570007324
577616.6875 4180943 296.470001221
577616.6875 4180943.25 296.420013428
577616.6875 4180943.75 296.450012207
577616.6875 4180944 296.5
577616.6875 4180944 296.549987793
577616.6875 4180944.25 296.589996338
577616.6875 4180944.5 296.619995117
577616.6875 4180944.75 296.609985352
577616.6875 4180945 296.589996338
577616.6875 4180945 296.540008545
577616.6875 4180945.25 296.489990234
577616.6875 4180945.5 296.429992676
577616.6875 4180945.75 296.369995117
577616.6875 4180946 296.320007324
577616.6875 4180946 296.290008545
577616.6875 4180946.25 296.269989014
577616.6875 4180946.5 296.260009766
577616.6875 4180946.75 296.269989014
577616.6875 4180946.75 296.290008545
577616.6875 4180947 296.320007324
577616.6875 4180947.25 296.359985352
577616.6875 4180947.5 296.390014648
577616.6875 4180947.75 296.420013428
577616.6875 4180947.75 296.440002441
577616.6875 4180948 296.440002441
577616.6875 4180948.25 296.429992676
577616.6875 4180948.5 296.399993896
577616.6875 4180948.75 296.359985352
577616.6875 4180948.75 296.279998779
577616.6875 4180949 296.269989014
577616.6875 4180949.25 296.239990234
577616.6875 4180949.5 296.25
577616.6875 4180949.75 296.279998779
577616.6875 4180949.75 296.359985352
577616.6875 4180950 296.279998779
577616.6875 4180950.5 296.540008545
577616.6875 4180953.25 296.769989014
577616.6875 4180953.5 296.410003662
577616.6875 4180953.5 296.089996338
577616.6875 4180954.75 296.660003662
577616.875 4180942.5 296.850006104
577616.875 4180942.75 296.679992676
577616.875 4180943 296.540008545
577616.875 4180943 296.450012207
577616.875 4180943.25 296.410003662
577616.875 4180943.5 296.420013428
577616.875 4180943.75 296.450012207
577616.875 4180944 296.5
577616.875 4180944 296.549987793
577616.875 4180944.25 296.600006104
577616.875 4180944.5 296.619995117
577616.875 4180944.75 296.609985352
577616.875 4180945 296.579986572
577616.875 4180945 296.540008545
577616.875 4180945.25 296.480010986
577616.875 4180945.5 296.420013428
577616.875 4180945.75 296.369995117
577616.875 4180946 296.320007324
577616.875 4180946 296.279998779
577616.875 4180946.25 296.260009766
577616.875 4180946.5 296.25
577616.875 4180946.75 296.190002441
577616.875 4180946.75 296.279998779
577616.875 4180947 296.230010986
577616.875 4180947.25 296.350006104
577616.875 4180947.5 296.390014648
577616.875 4180947.75 296.420013428
577616.875 4180947.75 296.410003662
577616.875 4180948 296.450012207
577616.875 4180948.25 296.260009766
577616.875 4180948.5 296.420013428
577616.875 4180948.75 296.380004883
577616.875 4180948.75 296.329986572
577616.875 4180949 296.269989014
577616.875 4180949.25 296.220001221
577616.875 4180949.5 296.179992676
577616.875 4180949.75 296.179992676
577616.875 4180949.75 296.220001221
577616.875 4180950 296.299987793
577616.875 4180950.25 296.440002441
577616.875 4180952.5 296.459991455
577616.875 4180953 296.390014648
577616.875 4180953.25 296.600006104
577616.875 4180953.5 296.260009766
577616.875 4180953.5 296.320007324
577616.875 4180954.25 296.649993896
577616.875 4180954.75 296.739990234
577617.0625 4180941 296.540008545
577617.0625 4180942.5 296.809997559
577617.0625 4180942.75 296.649993896
577617.0625 4180943 296.510009766
577617.0625 4180943 296.429992676
577617.0625 4180943.25 296.390014648
577617.0625 4180943.5 296.399993896
577617.0625 4180943.75 296.440002441
577617.0625 4180944 296.489990234
577617.0625 4180944 296.549987793
577617.0625 4180944.25 296.589996338
577617.0625 4180944.5 296.609985352
577617.0625 4180944.75 296.600006104
577617.0625 4180945 296.470001221
577617.0625 4180945 296.529998779
577617.0625 4180945.25 296.480010986
577617.0625 4180945.5 296.470001221
577617.0625 4180945.75 296.359985352
577617.0625 4180946 296.309997559
577617.0625 4180946 296.450012207
577617.0625 4180946.25 296.260009766
577617.0625 4180946.5 296.25
577617.0625 4180946.75 296.260009766
577617.0625 4180946.75 296.279998779
577617.0625 4180947 296.309997559
577617.0625 4180947.25 296.350006104
577617.0625 4180947.5 296.390014648
577617.0625 4180947.75 296.420013428
577617.0625 4180947.75 296.440002441
577617.0625 4180948 296.450012207
577617.0625 4180948.25 296.450012207
577617.0625 4180948.5 296.420013428
577617.0625 4180948.75 296.380004883
577617.0625 4180948.75 296.329986572
577617.0625 4180949 296.269989014
577617.0625 4180949.25 296.209991455
577617.0625 4180949.5 296.160003662
577617.0625 4180949.75 296.130004883
577617.0625 4180949.75 296.140014648
577617.0625 4180950 296.179992676
577617.0625 4180950.25 296.359985352
577617.0625 4180950.5 296.399993896
577617.0625 4180950.5 296.559997559
577617.0625 4180950.75 296.489990234
577617.0625 4180951.5 296.420013428
577617.0625 4180952 296.519989014
577617.0625 4180953.25 296.5
577617.0625 4180953.5 296.209991455
577617.0625 4180954.5 296.019989014
577617.0625 4180954.75 296.480010986
577617.25 4180942.5 296.579986572
577617.25 4180942.75 296.609985352
577617.25 4180943 296.480010986
577617.25 4180943 296.440002441
577617.25 4180943.25 296.359985352
577617.25 4180943.5 296.369995117
577617.25 4180943.75 296.559997559
577617.25 4180944 296.470001221
577617.25 4180944 296.519989014
577617.25 4180944.25 296.579986572
577617.25 4180944.5 296.589996338
577617.25 4180944.75 296.589996338
577617.25 4180945 296.570007324
577617.25 4180945 296.519989014
577617.25 4180945.25 296.470001221
577617.25 4180945.5 296.410003662
577617.25 4180945.75 296.350006104
577617.25 4180946 296.309997559
577617.25 4180946 296.269989014
577617.25 4180946.25 296.25
577617.25 4180946.5 296.25
577617.25 4180946.75 296.260009766
577617.25 4180946.75 296.279998779
577617.25 4180947 296.309997559
577617.25 4180947.25 296.350006104
577617.25 4180947.5 296.380004883
577617.25 4180947.75 296.410003662
577617.25 4180947.75 296.429992676
577617.25 4180948 296.440002441
577617.25 4180948.25 296.429992676
577617.25 4180948.5 296.399993896
577617.25 4180948.75 296.369995117
577617.25 4180948.75 296.329986572
577617.25 4180949 296.299987793
577617.25 4180949.25 296.220001221
577617.25 4180949.5 296.170013428
577617.25 4180949.75 296.380004883
577617.25 4180949.75 296.119995117
577617.25 4180950 296.130004883
577617.25 4180950.25 296.179992676
577617.25 4180950.5 296.25
577617.25 4180950.5 296.359985352
577617.25 4180950.75 296.489990234
577617.25 4180951 296.630004883
577617.25 4180951.25 296.779998779
577617.25 4180952.5 297.010009766
577617.25 4180952.75 296.869995117
577617.25 4180953 296.679992676
577617.25 4180953.25 296.450012207
577617.25 4180953.5 296.220001221
577617.25 4180953.5 295.989990234
577617.25 4180954.5 295.869995117
577617.25 4180954.75 296.239990234
577617.5 4180942.5 296.739990234
577617.5 4180942.75 296.579986572
577617.5 4180943 296.450012207
577617.5 4180943 296.359985352
577617.5 4180943.25 296.320007324
577617.5 4180943.5 296.329986572
577617.5 4180943.75 296.369995117
577617.5 4180944 296.429992676
577617.5 4180944 296.489990234
577617.5 4180944.25 296.540008545
577617.5 4180944.5 296.570007324
577617.5 4180944.75 296.570007324
577617.5 4180945 296.559997559
577617.5 4180945 296.519989014
577617.5 4180945.25 296.459991455
577617.5 4180945.5 296.399993896
577617.5 4180945.75 296.350006104
577617.5 4180946 296.299987793
577617.5 4180946 296.25
577617.5 4180946.25 296.25
577617.5 4180946.5 296.25
577617.5 4180946.75 296.399993896
577617.5 4180946.75 296.290008545
577617.5 4180947 296.309997559
577617.5 4180947.25 296.390014648
577617.5 4180947.5 296.369995117
577617.5 4180947.75 296.390014648
577617.5 4180947.75 296.609985352
577617.5 4180948 296.410003662
577617.5 4180948.25 296.410003662
577617.5 4180948.5 296.390014648
577617.5 4180948.75 296.359985352
577617.5 4180948.75 296.329986572
577617.5 4180949 296.290008545
577617.5 4180949.25 296.25
577617.5 4180949.5 296.209991455
577617.5 4180949.75 296.179992676
577617.5 4180949.75 296.160003662
577617.5 4180950 296.149993896
577617.5 4180950.25 296.160003662
577617.5 4180950.5 296.190002441
577617.5 4180950.5 296.239990234
577617.5 4180950.75 296.299987793
577617.5 4180951 296.369995117
577617.5 4180951.25 296.450012207
577617.5 4180951.5 296.529998779
577617.5 4180951.5 296.609985352
577617.5 4180951.75 296.670013428
577617.5 4180952 296.720001221
577617.5 4180952.25 296.760009766
577617.5 4180952.5 296.760009766
577617.5 4180952.5 296.739990234
577617.5 4180952.75 296.679992676
577617.5 4180953 296.579986572
577617.5 4180953.25 296.440002441
577617.5 4180953.5 296.269989014
577617.5 4180953.5 296.079986572
577617.5 4180955 296.380004883
577617.5 4180955.25 296.320007324
577617.6875 4180942.75 296.559997559
577617.6875 4180943 296.420013428
577617.6875 4180943 296.320007324
577617.6875 4180943.25 296.279998779
577617.6875 4180943.5 296.279998779
577617.6875 4180943.75 296.320007324
577617.6875 4180944 296.480010986
577617.6875 4180944 296.450012207
577617.6875 4180944.25 296.510009766
577617.6875 4180944.5 296.540008545
577617.6875 4180944.75 296.549987793
577617.6875 4180945 296.540008545
577617.6875 4180945 296.510009766
577617.6875 4180945.5 296.170013428
577617.6875 4180945.75 296.350006104
577617.6875 4180946 296.299987793
577617.6875 4180946 296.269989014
577617.6875 4180946.25 296.25
577617.6875 4180946.5 296.25
577617.6875 4180946.75 296.269989014
577617.6875 4180946.75 296.290008545
577617.6875 4180947 296.309997559
577617.6875 4180947.25 296.339996338
577617.6875 4180947.5 296.359985352
577617.6875 4180947.75 296.369995117
577617.6875 4180947.75 296.380004883
577617.6875 4180948 296.380004883
577617.6875 4180948.25 296.380004883
577617.6875 4180948.5 296.369995117
577617.6875 4180948.75 296.350006104
577617.6875 4180948.75 296.329986572
577617.6875 4180949 296.309997559
577617.6875 4180949.25 296.299987793
577617.6875 4180949.5 296.279998779
577617.6875 4180949.75 296.260009766
577617.6875 4180949.75 296.25
577617.6875 4180950 296.239990234
577617.6875 4180950.25 296.220001221
577617.6875 4180950.5 296.209991455
577617.6875 4180950.5 296.200012207
577617.6875 4180950.75 296.190002441
577617.6875 4180951 296.190002441
577617.6875 4180951.25 296.190002441
577617.6875 4180951.5 296.200012207
577617.6875 4180951.5 296.230010986
577617.6875 4180951.75 296.269989014
577617.6875 4180952 296.309997559
577617.6875 4180952.25 296.369995117
577617.6875 4180952.5 296.420013428
577617.6875 4180952.5 296.470001221
577617.6875 4180952.75 296.489990234
577617.6875 4180953 296.480010986
577617.6875 4180953.25 296.510009766
577617.6875 4180953.5 296.339996338
577617.6875 4180953.5 296.209991455
577617.6875 4180953.75 296.399993896
577617.6875 4180954.25 296.309997559
577617.6875 4180955 296.309997559
577617.875 4180941.25 296.279998779
577617.875 4180942.25 296.440002441
577617.875 4180942.75 296.510009766
577617.875 4180943 296.390014648
577617.875 4180943 296.279998779
577617.875 4180943.25 296.440002441
577617.875 4180943.5 296.230010986
577617.875 4180943.75 296.269989014
577617.875 4180944 296.339996338
577617.875 4180944 296.410003662
577617.875 4180944.25 296.470001221
577617.875 4180944.5 296.510009766
577617.875 4180944.75 296.529998779
577617.875 4180945 296.529998779
577617.875 4180945 296.5
577617.875 4180945.25 296.450012207
577617.875 4180945.5 296.399993896
577617.875 4180945.75 296.339996338
577617.875 4180946 296.299987793
577617.875 4180946 296.269989014
577617.875 4180946.25 296.260009766
577617.875 4180946.5 296.260009766
577617.875 4180946.75 296.269989014
577617.875 4180946.75 296.290008545
577617.875 4180947 296.309997559
577617.875 4180947.25 296.329986572
577617.875 4180947.5 296.339996338
577617.875 4180947.75 296.350006104
577617.875 4180947.75 296.350006104
577617.875 4180948 296.350006104
577617.875 4180948.25 296.350006104
577617.875 4180948.5 296.339996338
577617.875 4180948.75 296.339996338
577617.875 4180948.75 296.350006104
577617.875 4180949 296.350006104
577617.875 4180949.25 296.359985352
577617.875 4180949.5 296.369995117
577617.875 4180949.75 296.380004883
577617.875 4180950 296.359985352
577617.875 4180950.25 296.329986572
577617.875 4180950.5 296.290008545
577617.875 4180950.5 296.230010986
577617.875 4180950.75 296.190002441
577617.875 4180951 296.079986572
577617.875 4180951.5 296.410003662
577617.875 4180952 296.399993896
577617.875 4180952.5 296.440002441
577617.875 4180952.75 296.320007324
577617.875 4180953 296.390014648
577617.875 4180953.25 296.420013428
577617.875 4180953.5 296.399993896
577617.875 4180953.5 296.329986572
577617.875 4180953.75 296.209991455
577617.875 4180954 296.070007324
577617.875 4180954.25 295.929992676
577617.875 4180955 296.269989014
577618.0625 4180942.75 296.519989014
577618.0625 4180943 296.359985352
577618.0625 4180943 296.25
577618.0625 4180943.25 296.190002441
577618.0625 4180943.5 296.190002441
577618.0625 4180943.75 296.220001221
577618.0625 4180944 296.290008545
577618.0625 4180944 296.369995117
577618.0625 4180944.25 296.440002441
577618.0625 4180944.5 296.489990234
577618.0625 4180944.75 296.510009766
577618.0625 4180945 296.510009766
577618.0625 4180945 296.480010986
577618.0625 4180945.25 296.440002441
577618.0625 4180945.5 296.390014648
577618.0625 4180945.75 296.339996338
577618.0625 4180946 296.299987793
577618.0625 4180946 296.269989014
577618.0625 4180946.25 296.260009766
577618.0625 4180946.5 296.260009766
577618.0625 4180946.75 296.269989014
577618.0625 4180946.75 296.279998779
577618.0625 4180947 296.299987793
577618.0625 4180947.25 296.320007324
577618.0625 4180947.5 296.329986572
577618.0625 4180947.75 296.329986572
577618.0625 4180947.75 296.329986572
577618.0625 4180948 296.329986572
577618.0625 4180948.25 296.329986572
577618.0625 4180948.5 296.239990234
577618.0625 4180948.75 296.339996338
577618.0625 4180948.75 296.369995117
577618.0625 4180949 296.320007324
577618.0625 4180949.25 296.440002441
577618.0625 4180949.5 296.470001221
577618.0625 4180949.75 296.5
577618.0625 4180949.75 296.690002441
577618.0625 4180950 296.510009766
577618.0625 4180950.25 296.609985352
577618.0625 4180950.5 296.399993896
577618.0625 4180950.5 296.299987793
577618.0625 4180950.75 296.179992676
577618.0625 4180951 296.049987793
577618.0625 4180952.75 296.179992676
577618.0625 4180953 296.299987793
577618.0625 4180953.25 296.399993896
577618.0625 4180953.5 296.440002441
577618.0625 4180953.5 296.429992676
577618.0625 4180953.75 296.359985352
577618.0625 4180954 296.25
577618.0625 4180954.25 296.140014648
577618.0625 4180954.75 296.390014648
577618.0625 4180955 296.410003662
577618.0625 4180955.25 296.299987793
577618.25 4180942.75 296.510009766
577618.25 4180943 296.339996338
577618.25 4180943 296.220001221
577618.25 4180943.25 296.160003662
577618.25 4180943.5 296.149993896
577618.25 4180943.75 296.190002441
577618.25 4180944 296.260009766
577618.25 4180944 296.329986572
577618.25 4180944.25 296.410003662
577618.25 4180944.5 296.459991455
577618.25 4180944.75 296.489990234
577618.25 4180945 296.489990234
577618.25 4180945 296.470001221
577618.25 4180945.25 296.440002441
577618.25 4180945.5 296.390014648
577618.25 4180945.75 296.350006104
577618.25 4180946 296.309997559
577618.25 4180946 296.279998779
577618.25 4180946.25 296.260009766
577618.25 4180946.5 296.260009766
577618.25 4180946.75 296.269989014
577618.25 4180946.75 296.190002441
577618.25 4180947 296.299987793
577618.25 4180947.25 296.309997559
577618.25 4180947.5 296.420013428
577618.25 4180947.75 296.309997559
577618.25 4180947.75 296.309997559
577618.25 4180948 296.179992676
577618.25 4180948.25 296.309997559
577618.25 4180948.5 296.329986572
577618.25 4180948.75 296.350006104
577618.25 4180948.75 296.390014648
577618.25 4180949 296.450012207
577618.25 4180949.25 296.510009766
577618.25 4180949.5 296.570007324
577618.25 4180949.75 296.619995117
577618.25 4180949.75 296.640014648
577618.25 4180950 296.640014648
577618.25 4180950.25 296.600006104
577618.25 4180950.5 296.519989014
577618.25 4180950.5 296.410003662
577618.25 4180950.75 296.260009766
577618.25 4180951 296.100006104
577618.25 4180952.5 296.510009766
577618.25 4180953 296.230010986
577618.25 4180953.25 296.359985352
577618.25 4180953.5 296.450012207
577618.25 4180953.5 296.489990234
577618.25 4180953.75 296.390014648
577618.25 4180954 296.429992676
577618.25 4180954.25 296.380004883
577618.25 4180954.25 296.420013428
577618.25 4180954.5 296.369995117
577618.25 4180954.75 296.489990234
577618.25 4180955 296.739990234
577618.4375 4180941.25 296.119995117
577618.4375 4180943 296.329986572
577618.4375 4180943 296.209991455
577618.4375 4180943.25 296.140014648
577618.4375 4180943.5 296.130004883
577618.4375 4180943.75 296.170013428
577618.4375 4180944 296.239990234
577618.4375 4180944 296.309997559
577618.4375 4180944.25 296.380004883
577618.4375 4180944.5 296.410003662
577618.4375 4180944.75 296.470001221
577618.4375 4180945 296.480010986
577618.4375 4180945 296.510009766
577618.4375 4180945.25 296.429992676
577618.4375 4180945.5 296.390014648
577618.4375 4180945.75 296.339996338
577618.4375 4180946 296.309997559
577618.4375 4180946 296.290008545
577618.4375 4180946.25 296.279998779
577618.4375 4180946.5 296.269989014
577618.4375 4180946.75 296.279998779
577618.4375 4180946.75 296.290008545
577618.4375 4180947 296.299987793
577618.4375 4180947.25 296.299987793
577618.4375 4180947.5 296.299987793
577618.4375 4180947.75 296.299987793
577618.4375 4180947.75 296.299987793
577618.4375 4180948 296.299987793
577618.4375 4180948.25 296.309997559
577618.4375 4180948.5 296.329986572
577618.4375 4180948.75 296.369995117
577618.4375 4180948.75 296.420013428
577618.4375 4180949 296.480010986
577618.4375 4180949.25 296.559997559
577618.4375 4180949.5 296.630004883
577618.4375 4180950.25 296.470001221
577618.4375 4180950.5 296.630004883
577618.4375 4180950.5 296.519989014
577618.4375 4180950.75 296.480010986
577618.4375 4180951 296.209991455
577618.4375 4180951.5 296.649993896
577618.4375 4180952 296.269989014
577618.4375 4180953 296.190002441
577618.4375 4180953.25 296.329986572
577618.4375 4180953.5 296.440002441
577618.4375 4180953.5 296.510009766
577618.4375 4180953.75 296.559997559
577618.4375 4180954 296.579986572
577618.4375 4180954.25 296.609985352
577618.4375 4180954.25 296.660003662
577618.6875 4180943 296.329986572
577618.6875 4180943 296.209991455
577618.6875 4180943.5 296.140014648
577618.6875 4180943.75 296.170013428
577618.6875 4180944 296.230010986
577618.6875 4180944 296.299987793
577618.6875 4180944.25 296.369995117
577618.6875 4180944.5 296.420013428
577618.6875 4180944.75 296.450012207
577618.6875 4180945 296.459991455
577618.6875 4180945 296.450012207
577618.6875 4180945.25 296.420013428
577618.6875 4180945.5 296.390014648
577618.6875 4180945.75 296.350006104
577618.6875 4180946 296.320007324
577618.6875 4180946 296.299987793
577618.6875 4180946.25 296.290008545
577618.6875 4180946.5 296.279998779
577618.6875 4180946.75 296.290008545
577618.6875 4180946.75 296.290008545
577618.6875 4180947 296.299987793
577618.6875 4180947.25 296.299987793
577618.6875 4180947.5 296.309997559
577618.6875 4180947.75 296.309997559
577618.6875 4180947.75 296.309997559
577618.6875 4180948 296.309997559
577618.6875 4180948.25 296.320007324
577618.6875 4180948.5 296.450012207
577618.6875 4180948.75 296.390014648
577618.6875 4180948.75 296.440002441
577618.6875 4180949 296.380004883
577618.6875 4180949.25 296.579986572
577618.6875 4180949.75 296.410003662
577618.6875 4180950.5 296.619995117
577618.6875 4180950.75 296.510009766
577618.6875 4180951 296.390014648
577618.6875 4180951.25 296.25
577618.6875 4180951.75 295.959991455
577618.6875 4180952.25 295.920013428
577618.6875 4180952.5 295.959991455
577618.6875 4180952.5 296.029998779
577618.6875 4180952.75 296.109985352
577618.6875 4180953 296.209991455
577618.6875 4180953.25 296.309997559
577618.6875 4180953.5 296.399993896
577618.6875 4180953.5 296.489990234
577618.6875 4180953.75 296.589996338
577618.875 4180943 296.220001221
577618.875 4180943.25 296.160003662
577618.875 4180943.5 296.149993896
577618.875 4180943.75 296.179992676
577618.875 4180944 296.239990234
577618.875 4180944 296.299987793
577618.875 4180944.25 296.369995117
577618.875 4180944.5 296.410003662
577618.875 4180944.75 296.440002441
577618.875 4180945 296.450012207
577618.875 4180945 296.440002441
577618.875 4180945.25 296.420013428
577618.875 4180945.5 296.390014648
577618.875 4180945.75 296.359985352
577618.875 4180946 296.329986572
577618.875 4180946 296.309997559
577618.875 4180946.25 296.359985352
577618.875 4180946.5 296.299987793
577618.875 4180946.75 296.339996338
577618.875 4180946.75 296.299987793
577618.875 4180947 296.309997559
577618.875 4180947.25 296.25
577618.875 4180947.5 296.320007324
577618.875 4180947.75 296.320007324
577618.875 4180947.75 296.329986572
577618.875 4180948 296.329986572
577618.875 4180948.25 296.350006104
577618.875 4180948.5 296.369995117
577618.875 4180948.75 296.399993896
577618.875 4180948.75 296.450012207
577618.875 4180949 296.5
577618.875 4180949.25 296.549987793
577618.875 4180951.25 296.559997559
577618.875 4180951.5 296.510009766
577618.875 4180951.5 296.459991455
577618.875 4180951.75 296.420013428
577618.875 4180952 296.390014648
577618.875 4180952.25 296.359985352
577618.875 4180952.5 296.329986572
577618.875 4180952.5 296.320007324
577618.875 4180952.75 296.309997559
577618.875 4180953 296.309997559
577618.875 4180953.25 296.320007324
577618.875 4180953.5 296.359985352
577618.875 4180953.5 296.440002441
577618.875 4180953.75 296.559997559
577619.0625 4180943 296.25
577619.0625 4180943.25 296.190002441
577619.0625 4180943.5 296.179992676
577619.0625 4180943.75 296.209991455
577619.0625 4180944 296.309997559
577619.0625 4180944 296.320007324
577619.0625 4180944.25 296.369995117
577619.0625 4180944.5 296.320007324
577619.0625 4180944.75 296.429992676
577619.0625 4180945 296.440002441
577619.0625 4180945 296.380004883
577619.0625 4180945.25 296.420013428
577619.0625 4180945.5 296.390014648
577619.0625 4180945.75 296.290008545
577619.0625 4180946 296.350006104
577619.0625 4180946 296.329986572
577619.0625 4180946.25 296.320007324
577619.0625 4180946.5 296.309997559
577619.0625 4180946.75 296.309997559
577619.0625 4180946.75 296.320007324
577619.0625 4180947 296.320007324
577619.0625 4180947.25 296.329986572
577619.0625 4180947.5 296.339996338
577619.0625 4180947.75 296.350006104
577619.0625 4180947.75 296.359985352
577619.0625 4180948 296.369995117
577619.0625 4180948.25 296.380004883
577619.0625 4180948.5 296.399993896
577619.0625 4180948.75 296.420013428
577619.0625 4180948.75 296.440002441
577619.0625 4180949 296.459991455
577619.0625 4180949.25 296.480010986
577619.0625 4180949.5 296.510009766
577619.0625 4180953.25 296.200012207
577619.0625 4180953.5 296.339996338
577619.0625 4180953.5 296.359985352
577619.0625 4180953.75 296.570007324
577619.0625 4180954.25 296.410003662
577619.25 4180943.5 296.220001221
577619.25 4180943.75 296.25
577619.25 4180944 296.290008545
577619.25 4180944.25 296.380004883
577619.25 4180945.5 296.399993896
577619.25 4180945.75 296.380004883
577619.25 4180946 296.359985352
577619.25 4180946 296.350006104
577619.25 4180946.25 296.339996338
577619.25 4180946.5 296.329986572
577619.25 4180946.75 296.329986572
577619.25 4180946.75 296.329986572
577619.25 4180947 296.339996338
577619.25 4180947.25 296.350006104
577619.25 4180947.5 296.369995117
577619.25 4180947.75 296.380004883
577619.25 4180947.75 296.399993896
577619.25 4180948 296.410003662
577619.25 4180948.25 296.420013428
577619.25 4180948.5 296.420013428
577619.25 4180948.75 296.420013428
577619.25 4180948.75 296.410003662
577619.25 4180949 296.390014648
577619.25 4180949.25 296.369995117
577619.25 4180949.5 296.350006104
577619.25 4180949.75 296.350006104
577619.25 4180949.75 296.359985352
577619.25 4180950 296.410003662
577619.25 4180951 296.390014648
577619.25 4180952.5 296.339996338
577619.25 4180953.5 296.359985352
577619.25 4180953.5 296.279998779
577619.25 4180953.75 296.350006104
577619.4375 4180946.25 296.350006104
577619.4375 4180946.5 296.350006104
577619.4375 4180946.75 296.350006104
577619.4375 4180946.75 296.350006104
577619.4375 4180948.75 296.359985352
577619.4375 4180949 296.290008545
577619.4375 4180949.25 296.290008545
577619.4375 4180949.5 296.160003662
577619.4375 4180950 296.170013428
577619.4375 4180950.25 296.299987793
577619.4375 4180950.5 296.279998779
577619.4375 4180953.5 296.429992676
577619.4375 4180953.5 296.209991455
577619.4375 4180953.75 296.200012207
577619.4375 4180954 296.410003662
577619.625 4180946.75 296.209991455
577619.625 4180948.75 296.299987793
577619.625 4180949 296.179992676
577619.625 4180949.25 296.059997559
577619.625 4180949.5 295.950012207
577619.625 4180953 296.329986572
