# .PCD v.7 - Point Cloud Data file format
VERSION .7
FIELDS x y z
SIZE 4 4 4
TYPE F F F
COUNT 1 1 1
WIDTH 2011
HEIGHT 1
VIEWPOINT 0 0 0 1 0 0 0
POINTS 2011
DATA ascii
577593 4180958 295.99
577593.4 4180959 295.99
577593.4 4180962 295.99
577593.8 4180962 295.99
577593.4 4180962 295.99
577593.2 4180962 295.99
577619.9 4180940 296
577615.1 4180948 296
577615.1 4180949 296
577598.6 4180950 296
577598.3 4180952 296
577595.6 4180957 296
577593.8 4180958 296
577594 4180958 296
577593.2 4180959 296
577593.6 4180959 296
577592.8 4180961 296
577596 4180961 296
577593.4 4180961 296
577593.8 4180962 296
577593.2 4180962 296
577604.6 4180941 296.02
577622.2 4180941 296.01
577613.1 4180947 296.01
577621.4 4180948 296.02
577614.9 4180948 296.01
577621.4 4180948 296.02
577615.5 4180948 296.01
577615.5 4180949 296.01
577598.6 4180949 296.02
577620.6 4180949 296.02
577599.1 4180950 296.01
577598.8 4180950 296.01
577598.1 4180952 296.02
577598.8 4180952 296.02
577597.9 4180952 296.02
577598.6 4180952 296.02
577617.1 4180954 296.02
577594 4180955 296.01
577622.2 4180956 296.01
577593.4 4180957 296.01
577593.6 4180957 296.02
577596 4180957 296.01
577592.8 4180958 296.01
577596.2 4180958 296.01
577593 4180958 296.01
577594 4180958 296.01
577595.6 4180958 296.01
577596.2 4180958 296.01
577594 4180959 296.01
577593.4 4180960 296.02
577593 4180960 296.02
577593.4 4180961 296.01
577593.6 4180961 296.02
577593.8 4180961 296.01
577593.2 4180962 296.02
577598.3 4180962 296.01
577593.4 4180962 296.01
577592.4 4180963 296.01
577593.2 4180963 296.02
577592.8 4180964 296.02
577613.1 4180948 296.03
577615.3 4180948 296.03
577621.6 4180948 296.03
577598.6 4180950 296.03
577620.6 4180950 296.03
577598.9 4180950 296.03
577598.3 4180951 296.03
577597.9 4180952 296.03
577598.8 4180952 296.03
577598.1 4180952 296.03
577618.7 4180952 296.03
577593.8 4180957 296.03
577595.8 4180957 296.03
577595.4 4180958 296.03
577594 4180958 296.03
577595.4 4180958 296.03
577596.2 4180958 296.03
577594 4180959 296.03
577593.2 4180959 296.03
577593.4 4180961 296.03
577593.2 4180961 296.03
577593.2 4180961 296.03
577597.2 4180961 296.03
577593.2 4180962 296.03
577594 4180962 296.03
577593 4180962 296.03
577592.4 4180964 296.03
577610.9 4180965 296.03
577610 4180966 296.03
577610.4 4180939 296.04
577613.6 4180948 296.05
577622.2 4180948 296.05
577621.6 4180948 296.05
577614.7 4180948 296.04
577599.1 4180950 296.04
577618.1 4180951 296.05
577598.8 4180952 296.04
577597.9 4180952 296.04
577598.8 4180952 296.05
577595.6 4180954 296.05
577619.6 4180954 296.05
577597.9 4180955 296.05
577594.6 4180956 296.04
577593.6 4180957 296.05
577593.2 4180958 296.05
577596.2 4180958 296.04
577593.2 4180960 296.04
577593.6 4180960 296.04
577593.8 4180959 296.04
577593.4 4180960 296.05
577592.4 4180961 296.05
577593.2 4180960 296.045
577593.4 4180961 296.05
577596 4180961 296.04
577596.2 4180961 296.05
577593.8 4180961 296.05
577600.7 4180961 296.05
577594 4180961 296.04
577593.8 4180962 296.05
577593.6 4180962 296.04
577592.8 4180962 296.05
577592.8 4180962 296.05
577593.4 4180962 296.04
577592.6 4180964 296.04
577592.6 4180964 296.05
577608 4180965 296.04
577592.4 4180967 296.05
577615.7 4180949 296.06
577619.6 4180949 296.06
577598.8 4180950 296.06
577597.9 4180952 296.06
577598.8 4180952 296.06
577597.2 4180952 296.06
577597.8 4180955 296.06
577597.9 4180955 296.06
577598.1 4180955 296.06
577598.3 4180955 296.06
577593.8 4180957 296.06
577596.2 4180958 296.06
577595.4 4180958 296.06
577593.8 4180958 296.06
577593 4180959 296.06
577593.2 4180960 296.06
577593.2 4180960 296.06
577593.2 4180960 296.06
577593 4180960 296.06
577593.4 4180960 296.06
577593.6 4180961 296.06
577594 4180962 296.06
577600.1 4180962 296.06
577607.8 4180966 296.06
577607.8 4180968 296.06
577612.8 4180941 296.08
577612.9 4180941 296.07
577611.2 4180947 296.07
577611.4 4180947 296.07
577613.1 4180947 296.07
577613.6 4180947 296.08
577612.9 4180948 296.07
577622 4180948 296.07
577615.7 4180948 296.08
577598.9 4180949 296.07
577614.9 4180949 296.07
577615.5 4180949 296.08
577599.1 4180949 296.07
577619.9 4180949 296.07
577598.6 4180950 296.07
577617.9 4180951 296.08
577598.1 4180951 296.08
577598.8 4180951 296.08
577597.9 4180952 296.07
577617.5 4180954 296.08
577617.9 4180954 296.07
577597.6 4180955 296.08
577597.8 4180955 296.07
577598.3 4180955 296.08
577595.8 4180957 296.07
577596 4180957 296.07
577594 4180958 296.08
577594 4180958 296.08
577593 4180959 296.08
577594 4180959 296.07
577593.6 4180960 296.08
577593 4180960 296.08
577593.4 4180960 296.07
577593 4180960 296.08
577593.4 4180960 296.07
577593 4180961 296.07
577593 4180961 296.08
577594.2 4180961 296.07
577596 4180961 296.07
577597.4 4180961 296.07
577600.1 4180961 296.08
577594.2 4180962 296.08
577596.9 4180962 296.07
577593 4180962 296.07
577599.1 4180962 296.07
577598.9 4180962 296.07
577592.4 4180963 296.07
577607.8 4180968 296.07
577620.1 4180940 296.09
577610.9 4180947 296.09
577611.6 4180947 296.09
577612.6 4180947 296.09
577613.8 4180948 296.09
577614.9 4180948 296.09
577598.3 4180952 296.09
577598.8 4180952 296.09
577596.2 4180954 296.09
577616.5 4180954 296.09
577616.7 4180954 296.09
577597.6 4180955 296.09
577593.8 4180957 296.09
577595.4 4180957 296.09
577595.8 4180958 296.09
577593.8 4180960 296.09
577593.6 4180961 296.09
577594 4180961 296.09
577593 4180961 296.09
577593 4180962 296.09
577597.9 4180962 296.09
577598.6 4180962 296.09
577592.6 4180963 296.09
577593.4 4180963 296.09
577593 4180964 296.09
577607.8 4180967 296.09
577612.1 4180941 296.11
577610.9 4180946 296.1
577611.2 4180946 296.1
577611.2 4180947 296.11
577611.6 4180947 296.1
577612.4 4180947 296.1
577621.8 4180948 296.11
577613.8 4180948 296.1
577615.1 4180948 296.1
577620.1 4180948 296.1
577615.7 4180949 296.11
577620.4 4180949 296.11
577620.8 4180950 296.11
577598.8 4180950 296.11
577598.3 4180951 296.1
577598.8 4180951 296.11
577618.2 4180951 296.1
577597.8 4180952 296.11
577597.9 4180952 296.1
577597.8 4180952 296.11
577598.1 4180952 296.1
577598.6 4180952 296.11
577618.7 4180953 296.11
577620.4 4180954 296.11
577596.2 4180954 296.1
577597.4 4180955 296.11
577595.8 4180957 296.11
577594 4180958 296.11
577596.2 4180958 296.11
577594.2 4180958 296.105
577595.4 4180958 296.11
577595.6 4180958 296.1
577594.2 4180959 296.11
577596 4180959 296.1
577596.2 4180959 296.1
577593 4180960 296.1
577594 4180959 296.11
577593 4180960 296.1
577593.6 4180960 296.11
577593.6 4180960 296.11
577593.8 4180961 296.1
577595.2 4180961 296.1
577596.9 4180961 296.1
577600.3 4180961 296.1
577593 4180962 296.1
577593.6 4180962 296.11
577598.6 4180963 296.11
577610 4180966 296.1
577607.8 4180966 296.11
577607.6 4180968 296.11
577603.2 4180940 296.12
577606.2 4180940 296.12
577618.4 4180941 296.12
577612.1 4180947 296.12
577621.2 4180948 296.12
577620.2 4180949 296.12
577617.2 4180950 296.12
577598.6 4180950 296.12
577598.6 4180951 296.12
577598.8 4180951 296.12
577597.8 4180951 296.12
577597.8 4180952 296.12
577597.8 4180955 296.12
577597.9 4180955 296.12
577597.4 4180955 296.12
577598.8 4180956 296.12
577594.2 4180956 296.12
577594.6 4180956 296.12
577593.6 4180960 296.12
577593.6 4180960 296.12
577596.6 4180961 296.12
577594.2 4180961 296.12
577594.4 4180961 296.12
577592.6 4180964 296.12
577607.8 4180967 296.12
577618.4 4180944 296.13
577621.4 4180944 296.13
577621.6 4180944 296.13
577611.4 4180946 296.13
577612.4 4180947 296.13
577612.6 4180947 296.13
577612.8 4180948 296.13
577615.3 4180948 296.13
577620.6 4180949 296.13
577599.1 4180949 296.13
577617.1 4180950 296.13
577617.2 4180950 296.13
577597.8 4180952 296.13
577597.9 4180952 296.13
577603.5 4180953 296.13
577596.2 4180954 296.13
577595.6 4180954 296.13
577597.6 4180955 296.13
577598.3 4180956 296.13
577598.6 4180956 296.13
577598.9 4180956 296.13
577623 4180957 296.13
577594.2 4180959 296.13
577593 4180959 296.13
577592.8 4180960 296.13
577595.2 4180961 296.13
577597.6 4180961 296.13
577601.3 4180961 296.13
577599.1 4180962 296.13
577599.1 4180962 296.13
577593.2 4180964 296.13
577607.8 4180967 296.13
577610.8 4180967 296.13
577605.4 4180941 296.14
577614.3 4180941 296.14
577618.4 4180943 296.14
577618.7 4180944 296.14
577621.6 4180944 296.14
577612.9 4180947 296.14
577612.4 4180947 296.14
577613.8 4180947 296.14
577599.5 4180948 296.14
577621.2 4180948 296.14
577621.4 4180948 296.14
577615.7 4180948 296.14
577617.1 4180950 296.14
577598.6 4180950 296.14
577598.9 4180950 296.14
577603.2 4180953 296.14
577596 4180954 296.14
577596.4 4180954 296.14
577596 4180954 296.14
577596.2 4180954 296.14
577596.4 4180954 296.14
577618.1 4180954 296.14
577599.1 4180956 296.14
577595.4 4180958 296.14
577594.2 4180958 296.14
577595.8 4180959 296.14
577593.8 4180959 296.14
577592.8 4180960 296.14
577594 4180961 296.14
577595.8 4180961 296.14
577596 4180961 296.14
577594.6 4180961 296.14
577594.4 4180962 296.14
577597.2 4180962 296.14
577599.9 4180962 296.14
577618.2 4180944 296.15
577618.9 4180944 296.15
577621.2 4180944 296.15
577621.2 4180944 296.15
577606.2 4180947 296.15
577611.8 4180947 296.15
577613.6 4180947 296.15
577606.2 4180948 296.15
577613.9 4180948 296.15
577614.1 4180948 296.15
577614.3 4180948 296.15
577615.9 4180948 296.15
577621.2 4180948 296.15
577615.1 4180949 296.15
577615.9 4180949 296.15
577617.5 4180950 296.15
577598.6 4180950 296.15
577597.4 4180951 296.15
577598.1 4180951 296.15
577597.9 4180951 296.15
577598.8 4180952 296.15
577603.5 4180953 296.15
577596.4 4180954 296.15
577596.2 4180954 296.15
577615.3 4180954 296.15
577621.6 4180954 296.15
577597.2 4180955 296.15
577621.6 4180955 296.15
577597.9 4180956 296.15
577596 4180957 296.15
577595.2 4180958 296.15
577595.2 4180958 296.15
577594.4 4180961 296.15
577594.6 4180961 296.15
577594.8 4180961 296.15
577593.6 4180962 296.15
577594 4180962 296.15
577599.9 4180962 296.15
577600.5 4180962 296.15
577601.9 4180962 296.15
577593.8 4180962 296.15
577614.5 4180940 296.16
577618.2 4180943 296.16
577618.9 4180943 296.16
577621.8 4180944 296.16
577613.1 4180947 296.16
577621.6 4180948 296.16
577613.1 4180948 296.16
577613.9 4180948 296.16
577614.5 4180948 296.16
577621.4 4180948 296.16
577617.1 4180950 296.16
577619.4 4180950 296.16
577617.5 4180950 296.16
577617.5 4180950 296.16
577598.3 4180951 296.16
577597.8 4180952 296.16
577598.9 4180953 296.16
577596.2 4180953 296.16
577595.8 4180954 296.16
577596.6 4180954 296.16
577595.8 4180954 296.16
577596 4180954 296.16
577596.4 4180954 296.16
577597.2 4180955 296.16
577597.8 4180956 296.16
577594 4180957 296.16
577596.2 4180957 296.16
577594.2 4180958 296.16
577596.4 4180958 296.16
577596.4 4180959 296.16
577594.2 4180959 296.16
577592.8 4180960 296.16
577597.2 4180961 296.16
577598.8 4180962 296.16
577592.8 4180962 296.16
577622.2 4180942 296.17
577618.4 4180944 296.17
577618.7 4180944 296.17
577621.4 4180944 296.17
577621.6 4180944 296.17
577617.7 4180946 296.17
577610.9 4180947 296.17
577611.6 4180947 296.17
577615.5 4180948 296.17
577622.4 4180948 296.17
577620.1 4180949 296.17
577620.8 4180949 296.17
577617.2 4180950 296.17
577619.4 4180950 296.17
577596.4 4180953 296.17
577596.9 4180953 296.17
577621 4180954 296.17
577596.6 4180954 296.17
577597.2 4180955 296.17
577598.3 4180955 296.17
577599.1 4180955 296.17
577599.3 4180956 296.17
577622 4180956 296.17
577595.2 4180958 296.17
577594 4180960 296.17
577593.8 4180960 296.17
577595 4180961 296.17
577596.2 4180961 296.17
577592.8 4180961 296.17
577595 4180961 296.17
577594 4180962 296.17
577593.4 4180963 296.17
577598.3 4180963 296.17
577608.6 4180966 296.17
577610.8 4180966 296.17
577622 4180940 296.18
577619.1 4180944 296.18
577618.9 4180944 296.18
577621 4180944 296.18
577621 4180944 296.18
577621.8 4180944 296.18
577610.6 4180946 296.18
577614.7 4180948 296.18
577618.2 4180948 296.18
577621.2 4180948 296.18
577598.9 4180948 296.18
577619.6 4180949 296.18
577616.9 4180950 296.18
577616.9 4180950 296.18
577617.5 4180950 296.18
577617.1 4180950 296.18
577617.2 4180950 296.18
577620.2 4180950 296.18
577598.9 4180951 296.18
577618.1 4180951 296.18
577597.8 4180952 296.18
577597.6 4180952 296.18
577596.4 4180953 296.18
577597.6 4180952 296.18
577618.1 4180953 296.18
577603.7 4180953 296.18
577596.6 4180953 296.18
577619.6 4180954 296.18
577595.8 4180954 296.18
577596.6 4180954 296.18
577597.6 4180956 296.18
577595.2 4180958 296.18
577595.4 4180958 296.18
577596.4 4180958 296.18
577596.2 4180959 296.18
577593.8 4180960 296.18
577594.2 4180961 296.18
577595.4 4180961 296.18
577596.8 4180961 296.18
577593.6 4180962 296.18
577598.8 4180963 296.18
577606.1 4180941 296.19
577612.4 4180941 296.19
577620.1 4180941 296.19
577618.1 4180944 296.19
577619.1 4180943 296.19
577618.2 4180944 296.19
577611.2 4180946 296.19
577606.6 4180947 296.19
577616.9 4180947 296.19
577618.2 4180947 296.19
577613.8 4180948 296.19
577621 4180948 296.19
577599.1 4180949 296.19
577620.1 4180949 296.19
577621.4 4180949 296.19
577598.3 4180950 296.19
577617.5 4180950 296.19
577617.7 4180951 296.19
577617.9 4180951 296.19
577617.7 4180951 296.19
577617.7 4180951 296.19
577597.6 4180952 296.19
577596.2 4180953 296.19
577596.4 4180953 296.19
577603.1 4180953 296.19
577618.4 4180953 296.19
577596.8 4180954 296.19
577596 4180954 296.19
577596.4 4180954 296.19
577621 4180954 296.19
577596.9 4180955 296.19
577595.8 4180957 296.19
577595.2 4180957 296.19
577594.2 4180958 296.19
577596.6 4180959 296.19
577593.8 4180960 296.19
577592.8 4180962 296.19
577607.6 4180965 296.19
577621.2 4180944 296.2
577621.4 4180944 296.2
577621.2 4180944 296.2
577622 4180944 296.2
577619.9 4180946 296.2
577606.2 4180947 296.2
577613.3 4180947 296.2
577621.6 4180947 296.2
577612.6 4180948 296.2
577614.1 4180948 296.2
577614.9 4180948 296.2
577621.4 4180948 296.2
577614.3 4180948 296.2
577616.1 4180949 296.2
577598.3 4180949 296.2
577598.3 4180950 296.2
577598.8 4180950 296.2
577598.3 4180950 296.2
577617.7 4180950 296.2
577597.2 4180952 296.2
577617.7 4180952 296.2
577597.6 4180952 296.2
577598.1 4180953 296.2
577598.3 4180953 296.2
577596.6 4180953 296.2
577596.8 4180953 296.2
577603.5 4180953 296.2
577619.1 4180953 296.2
577596.8 4180954 296.2
577619.4 4180954 296.2
577621.8 4180954 296.2
577595.8 4180954 296.2
577596.6 4180954 296.2
577599.1 4180956 296.2
577599.3 4180956 296.2
577595.6 4180957 296.2
577594.6 4180957 296.2
577594.4 4180958 296.2
577595.2 4180958 296.2
577594.4 4180959 296.2
577595.6 4180959 296.2
577596.4 4180959 296.2
577594.2 4180960 296.2
577594 4180961 296.2
577594.8 4180961 296.2
577600.1 4180961 296.2
577596.8 4180962 296.2
577607.4 4180968 296.2
577606.1 4180940 296.21
577618.4 4180943 296.21
577618.7 4180943 296.21
577621.6 4180944 296.21
577619.1 4180944 296.21
577622 4180944 296.21
577611.8 4180946 296.21
577612.4 4180947 296.21
577619.6 4180947 296.21
577606.1 4180947 296.21
577614.3 4180948 296.21
577615.9 4180948 296.21
577598.8 4180948 296.21
577621 4180948 296.21
577617.1 4180949 296.21
577620.8 4180949 296.21
577617.5 4180950 296.21
577617.7 4180950 296.21
577598.1 4180951 296.21
577597.9 4180951 296.21
577618.4 4180951 296.21
577597.6 4180952 296.21
577598.9 4180952 296.21
577598.9 4180952 296.21
577597.9 4180953 296.21
577598.9 4180952 296.21
577602.9 4180953 296.21
577596.8 4180953 296.21
577618.7 4180953 296.21
577600.5 4180954 296.21
577617.1 4180954 296.21
577617.7 4180954 296.21
577617.9 4180954 296.21
577619.4 4180954 296.21
577596.8 4180954 296.21
577596.2 4180955 296.21
577597.4 4180955 296.21
577597.6 4180955 296.21
577598.6 4180955 296.21
577595.6 4180955 296.21
577596.9 4180955 296.21
577596.2 4180957 296.21
577594.6 4180958 296.21
577596 4180959 296.21
577594.2 4180959 296.21
577594 4180960 296.21
577594.4 4180961 296.21
577594.6 4180961 296.21
577595.2 4180961 296.21
577599.9 4180961 296.21
577594.6 4180962 296.21
577599.3 4180962 296.21
577610 4180966 296.21
577610.8 4180966 296.21
577610.2 4180939 296.22
577619.9 4180940 296.22
577622.8 4180942 296.22
577618.2 4180943 296.22
577618.9 4180943 296.22
577619.2 4180944 296.22
577621 4180944 296.22
577618.1 4180944 296.22
577620.8 4180944 296.22
577621.8 4180944 296.22
577622 4180944 296.22
577621.8 4180944 296.22
577611.4 4180946 296.22
577606.6 4180947 296.22
577613.8 4180947 296.22
577606.6 4180947 296.22
577613.9 4180947 296.22
577621.6 4180947 296.22
577614.1 4180948 296.22
577621.4 4180948 296.22
577606.2 4180948 296.22
577615.7 4180948 296.22
577620.8 4180949 296.22
577621 4180949 296.22
577622.2 4180949 296.22
577616.9 4180949 296.22
577617.2 4180949 296.22
577597.9 4180950 296.22
577598.3 4180950 296.22
577616.9 4180950 296.22
577617.7 4180950 296.22
577598.9 4180951 296.22
577597.8 4180951 296.22
577598.9 4180952 296.22
577597.8 4180953 296.22
577603.1 4180952 296.22
577596.9 4180953 296.22
577603.7 4180953 296.22
577600.3 4180954 296.22
577617.2 4180954 296.22
577596.8 4180954 296.22
577596 4180954 296.22
577596.2 4180954 296.22
577596.4 4180954 296.22
577596.6 4180954 296.22
577596.9 4180955 296.22
577597.2 4180955 296.22
577597.8 4180955 296.22
577597.2 4180956 296.22
577598.9 4180956 296.22
577621.4 4180957 296.22
577596.4 4180958 296.22
577599.5 4180960 296.22
577597.4 4180961 296.22
577598.9 4180962 296.22
577599.8 4180962 296.22
577597.4 4180962 296.22
577610.6 4180940 296.23
577606.2 4180940 296.23
577617.9 4180940 296.23
577620.4 4180940 296.23
577617.9 4180944 296.23
577618.7 4180944 296.23
577620.8 4180944 296.23
577621 4180944 296.23
577621.6 4180944 296.23
577622 4180944 296.23
577622.6 4180945 296.23
577610.6 4180946 296.23
577610.4 4180946 296.23
577606.1 4180947 296.23
577612.6 4180947 296.23
577616.9 4180947 296.23
577622.2 4180947 296.23
577612.9 4180948 296.23
577613.6 4180948 296.23
577615.1 4180948 296.23
577616.1 4180948 296.23
577619.9 4180949 296.23
577620.6 4180949 296.23
577621.2 4180949 296.23
577615.7 4180949 296.23
577620.8 4180950 296.23
577617.9 4180950 296.23
577597.6 4180952 296.23
577598.9 4180952 296.23
577617.7 4180952 296.23
577596.6 4180953 296.23
577596.8 4180953 296.23
577597.2 4180952 296.23
577597.4 4180953 296.23
577603.2 4180952 296.23
577618.2 4180953 296.23
577596.9 4180954 296.23
577600.7 4180954 296.23
577596.8 4180954 296.23
577595.8 4180954 296.23
577596.8 4180954 296.23
577621 4180954 296.23
577596.8 4180955 296.23
577597.9 4180955 296.23
577599.3 4180955 296.23
577599.5 4180956 296.23
577596.8 4180956 296.23
577595.2 4180957 296.23
577594.4 4180958 296.23
577594.4 4180959 296.23
577596.2 4180962 296.23
577608.4 4180965 296.23
577610.8 4180966 296.23
577611.4 4180940 296.24
577606.4 4180940 296.24
577613.8 4180941 296.24
577621.8 4180944 296.24
577618.4 4180944 296.24
577618.9 4180944 296.24
577601.5 4180944 296.24
577601.7 4180944 296.24
577610.4 4180946 296.24
577610.8 4180946 296.24
577612.8 4180947 296.24
577622 4180947 296.24
577622.4 4180947 296.24
577606.1 4180948 296.24
577618.1 4180948 296.24
577616.7 4180949 296.24
577598.3 4180950 296.24
577617.7 4180950 296.24
577598.3 4180950 296.24
577617.5 4180950 296.24
577598.9 4180952 296.24
577599.1 4180952 296.24
577597.4 4180952 296.24
577596.9 4180953 296.24
577597.2 4180953 296.24
577598.8 4180953 296.24
577598.9 4180952 296.24
577597.2 4180953 296.24
577596.9 4180954 296.24
577600.5 4180954 296.24
577596.9 4180954 296.24
577596.6 4180955 296.24
577617.2 4180955 296.24
577596.8 4180955 296.24
577621.8 4180956 296.24
577603.5 4180940 296.25
577611.8 4180940 296.25
577602.3 4180941 296.25
577603.1 4180941 296.25
577620.4 4180941 296.25
577622.4 4180941 296.25
577618.1 4180943 296.25
577619.1 4180943 296.25
577620.8 4180944 296.25
577619.2 4180944 296.25
577622.2 4180944 296.25
577617.5 4180946 296.25
577617.2 4180946 296.25
577617.5 4180946 296.25
577617.7 4180946 296.25
577616.9 4180946 296.25
577617.1 4180946 296.25
577617.2 4180946 296.25
577617.5 4180946 296.25
577617.7 4180946 296.25
577613.6 4180947 296.25
577618.9 4180947 296.25
577621.8 4180947 296.25
577606.4 4180948 296.25
577615.3 4180948 296.25
577616.3 4180949 296.25
577621.4 4180949 296.25
577615.5 4180949 296.25
577616.1 4180949 296.25
577617.5 4180949 296.25
577616.7 4180950 296.25
577599.3 4180950 296.25
577617.7 4180950 296.25
577598.3 4180950 296.25
577617.2 4180950 296.25
577597.6 4180952 296.25
577618.7 4180951 296.25
577597.4 4180953 296.25
577597.2 4180953 296.25
577598.3 4180953 296.25
577600.1 4180954 296.25
577619.9 4180954 296.25
577618.1 4180954 296.25
577596.4 4180955 296.25
577595 4180958 296.25
577595.2 4180958 296.25
577595.8 4180959 296.25
577599.9 4180960 296.25
577594 4180960 296.25
577599.5 4180960 296.25
577599.8 4180960 296.25
577594 4180960 296.25
577595 4180961 296.25
577596.6 4180961 296.25
577600.3 4180961 296.25
577593.6 4180961 296.25
577594.4 4180962 296.25
577598.3 4180962 296.25
577599.8 4180962 296.25
577597.9 4180963 296.25
577598.1 4180963 296.25
577610.8 4180965 296.25
577608.2 4180965 296.25
577620.6 4180940 296.27
577611.8 4180940 296.27
577603.2 4180941 296.26
577605.8 4180941 296.26
577611.9 4180941 296.26
577619.6 4180941 296.26
577619.9 4180941 296.26
577619.4 4180944 296.27
577617.9 4180944 296.27
577620.6 4180944 296.26
577614.9 4180944 296.27
577618.2 4180944 296.26
577620.6 4180944 296.27
577620.8 4180944 296.27
577622.2 4180944 296.26
577601.5 4180944 296.26
577601.7 4180944 296.27
577621.2 4180944 296.27
577622.2 4180944 296.26
577601.3 4180944 296.26
577601.9 4180945 296.26
577622 4180944 296.27
577622.2 4180944 296.27
577609.6 4180946 296.26
577609.8 4180946 296.26
577610 4180946 296.27
577610.2 4180946 296.27
577610.9 4180946 296.27
577617.2 4180946 296.27
577617.7 4180946 296.27
577617.9 4180946 296.27
577618.1 4180946 296.27
577621.2 4180946 296.27
577611.6 4180946 296.27
577616.7 4180946 296.27
577616.9 4180946 296.26
577617.1 4180946 296.26
577617.9 4180946 296.26
577618.1 4180946 296.26
577618.2 4180946 296.26
577606.6 4180946 296.27
577616.7 4180946 296.26
577617.9 4180946 296.26
577618.1 4180946 296.26
577618.2 4180946 296.26
577618.4 4180946 296.27
577606.2 4180947 296.27
577606.8 4180947 296.27
577611.2 4180947 296.26
577612.9 4180947 296.26
577616.7 4180947 296.27
577617.1 4180947 296.26
577617.2 4180947 296.26
577617.7 4180947 296.27
577617.9 4180947 296.27
577618.1 4180947 296.27
577618.2 4180947 296.27
577613.9 4180948 296.27
577614.5 4180948 296.26
577621 4180948 296.26
577622.4 4180948 296.26
577614.1 4180948 296.26
577616.9 4180948 296.26
577620.8 4180948 296.27
577599.1 4180949 296.26
577614.9 4180949 296.26
577615.9 4180949 296.26
577616.3 4180949 296.27
577620.4 4180949 296.26
577621.6 4180949 296.27
577598.8 4180949 296.26
577616.3 4180949 296.26
577616.5 4180949 296.27
577616.7 4180949 296.27
577616.9 4180949 296.27
577617.1 4180949 296.27
577617.7 4180950 296.26
577620.1 4180950 296.27
577598.1 4180950 296.27
577599.1 4180950 296.26
577597.9 4180951 296.26
577618.2 4180951 296.26
577597.6 4180951 296.27
577597.4 4180952 296.27
577617.7 4180952 296.27
577597.4 4180952 296.26
577618.4 4180952 296.27
577597.8 4180952 296.26
577598.6 4180952 296.26
577600.3 4180952 296.27
577596.9 4180952 296.26
577597.2 4180952 296.26
577602.9 4180952 296.26
577603.5 4180952 296.27
577597.6 4180953 296.27
577602.9 4180953 296.27
577597.2 4180954 296.27
577597.6 4180954 296.26
577600.7 4180954 296.27
577616.9 4180954 296.26
577617.5 4180954 296.27
577619.6 4180954 296.27
577620.4 4180954 296.26
577596.9 4180954 296.26
577596.9 4180954 296.27
577597.2 4180954 296.26
577596 4180955 296.26
577596.2 4180955 296.26
577596.6 4180955 296.26
577598.1 4180955 296.26
577617.9 4180955 296.27
577596.8 4180955 296.26
577599.1 4180955 296.27
577622.2 4180955 296.26
577595.6 4180956 296.27
577595.8 4180956 296.26
577596.8 4180956 296.27
577596.2 4180957 296.27
577595 4180958 296.27
577595 4180958 296.26
577594.4 4180958 296.26
577594.6 4180958 296.27
577595 4180958 296.27
577595.4 4180959 296.26
577594.4 4180959 296.26
577596.4 4180959 296.26
577596.6 4180959 296.26
577597.9 4180959 296.27
577594.2 4180960 296.26
577596.4 4180960 296.27
577599.5 4180960 296.27
577599.8 4180960 296.26
577599.9 4180960 296.27
577597.4 4180960 296.27
577597.6 4180960 296.26
577597.9 4180960 296.26
577598.1 4180960 296.27
577594 4180960 296.27
577597.8 4180960 296.26
577597.9 4180960 296.26
577598.1 4180960 296.26
577598.3 4180960 296.26
577598.6 4180960 296.27
577594 4180960 296.27
577593.8 4180961 296.27
577595.8 4180960 296.27
577599.1 4180962 296.26
577600.1 4180962 296.26
577601.9 4180962 296.26
577608.2 4180968 296.27
577606.4 4180940 296.28
577603.5 4180941 296.28
577612.1 4180941 296.28
577617.9 4180941 296.28
577617.9 4180943 296.28
577619.2 4180943 296.28
577613.3 4180944 296.28
577613.6 4180944 296.28
577617.7 4180944 296.28
577620.6 4180944 296.28
577601.1 4180944 296.28
577619.4 4180944 296.28
577601.3 4180944 296.28
577622.6 4180945 296.28
577609.2 4180946 296.28
577609.8 4180946 296.28
577610 4180946 296.28
577609.8 4180946 296.28
577616.9 4180946 296.28
577618.2 4180946 296.28
577616.5 4180946 296.28
577618.4 4180946 296.28
577610.4 4180946 296.28
577616.5 4180946 296.28
577618.7 4180946 296.28
577606.1 4180947 296.28
577613.1 4180947 296.28
577616.9 4180947 296.28
577617.1 4180947 296.28
577617.2 4180947 296.28
577618.1 4180947 296.28
577618.4 4180947 296.28
577621.2 4180948 296.28
577600.3 4180948 296.28
577615.5 4180948 296.28
577615.9 4180948 296.28
577616.1 4180948 296.28
577616.7 4180949 296.28
577617.7 4180950 296.28
577616.7 4180950 296.28
577616.7 4180950 296.28
577619.4 4180950 296.28
577598.6 4180952 296.28
577597.2 4180952 296.28
577597.8 4180953 296.28
577599.9 4180954 296.28
577619.2 4180954 296.28
577597.4 4180954 296.28
577596.4 4180955 296.28
577596.6 4180955 296.28
577596.4 4180958 296.28
577594.6 4180958 296.28
577594.6 4180959 296.28
577596.6 4180959 296.28
577596.2 4180959 296.28
577595.2 4180959 296.28
577597.6 4180960 296.28
577598.8 4180960 296.28
577599.9 4180960 296.28
577594.4 4180961 296.28
577594.8 4180961 296.28
577595 4180960 296.28
577595.6 4180960 296.28
577596 4180960 296.28
577601.1 4180961 296.28
577599.3 4180962 296.28
577599.8 4180962 296.28
577599.9 4180962 296.28
577607.6 4180965 296.28
577608.6 4180966 296.28
577608.4 4180967 296.28
577607.4 4180940 296.3
577607.6 4180940 296.3
577604.6 4180940 296.29
577610.9 4180940 296.3
577611.8 4180940 296.3
577605.4 4180942 296.3
577612.9 4180944 296.29
577613.1 4180944 296.295
577613.3 4180943 296.29
577613.6 4180943 296.29
577613.8 4180944 296.295
577613.9 4180943 296.3
577619.6 4180944 296.3
577622 4180944 296.29
577601.3 4180944 296.29
577612.8 4180944 296.3
577612.9 4180944 296.29
577613.1 4180944 296.29
577613.3 4180944 296.29
577620.4 4180944 296.3
577622.2 4180944 296.29
577601.1 4180944 296.29
577601.3 4180944 296.29
577601.5 4180944 296.295
577601.7 4180944 296.3
577618.1 4180944 296.29
577618.7 4180944 296.3
577618.9 4180944 296.3
577619.2 4180944 296.29
577601.1 4180944 296.3
577621 4180944 296.3
577622.4 4180944 296.29
577621.6 4180944 296.3
577622.2 4180945 296.3
577622.4 4180944 296.29
577601.5 4180945 296.29
577601.7 4180945 296.29
577622.4 4180945 296.3
577622.6 4180945 296.29
577604.6 4180945 296.29
577603.9 4180946 296.29
577604.1 4180946 296.3
577619.1 4180946 296.29
577610.4 4180946 296.29
577611.2 4180946 296.3
577616.5 4180946 296.3
577616.7 4180946 296.29
577617.5 4180946 296.3
577617.7 4180946 296.3
577617.9 4180946 296.3
577618.1 4180946 296.3
577618.4 4180946 296.29
577618.7 4180946 296.3
577616.3 4180946 296.3
577618.7 4180946 296.29
577606.4 4180946 296.3
577606.8 4180946 296.29
577612.1 4180946 296.29
577616.3 4180946 296.3
577618.9 4180946 296.3
577621 4180946 296.3
577613.9 4180947 296.3
577616.5 4180947 296.29
577616.7 4180947 296.29
577617.5 4180947 296.29
577617.7 4180947 296.29
577617.9 4180947 296.29
577618.1 4180947 296.3
577618.2 4180947 296.3
577618.4 4180947 296.295
577618.7 4180947 296.2933
577618.9 4180947 296.3
577611.8 4180947 296.3
577614.1 4180947 296.3
577618.4 4180947 296.3
577618.7 4180947 296.3
577621.4 4180947 296.29
577606.6 4180948 296.29
577612.4 4180948 296.29
577614.3 4180948 296.3
577618.4 4180948 296.3
577613.3 4180948 296.3
577615.5 4180948 296.3
577618.4 4180948 296.3
577621 4180948 296.29
577599.3 4180948 296.29
577612.8 4180948 296.29
577615.5 4180948 296.3
577615.3 4180949 296.3
577616.5 4180949 296.29
577619.6 4180949 296.3
577620.2 4180949 296.29
577620.8 4180949 296.29
577621.8 4180949 296.29
577617.2 4180949 296.3
577617.5 4180949 296.29
577617.7 4180949 296.3
577619.4 4180949 296.29
577599.3 4180950 296.3
577599.3 4180950 296.29
577616.9 4180950 296.3
577599.3 4180950 296.29
577617.9 4180950 296.29
577618.1 4180950 296.3
577619.4 4180950 296.3
577617.5 4180951 296.3
577604.1 4180952 296.29
577602.7 4180953 296.3
577597.9 4180953 296.3
577603.9 4180953 296.3
577618.1 4180953 296.3
577597.4 4180953 296.29
577596.9 4180954 296.29
577597.2 4180954 296.29
577600.9 4180954 296.29
577597.6 4180954 296.29
577597.2 4180954 296.3
577598.3 4180955 296.3
577615.3 4180955 296.29
577596.6 4180955 296.3
577599.5 4180955 296.3
577618.1 4180955 296.3
577596.8 4180956 296.29
577598.6 4180956 296.29
577599.8 4180956 296.3
577595.4 4180956 296.29
577596 4180956 296.29
577595.2 4180957 296.29
577595 4180957 296.29
577596.6 4180958 296.29
577594.6 4180958 296.29
577594.8 4180958 296.3
577595 4180958 296.3
577595.2 4180959 296.29
577596.8 4180959 296.3
577594.4 4180959 296.3
577596.6 4180959 296.3
577596.8 4180959 296.29
577596.9 4180960 296.3
577597.2 4180960 296.29
577597.4 4180960 296.29
577597.6 4180960 296.3
577593.8 4180960 296.29
577594.2 4180960 296.3
577597.2 4180960 296.3
577598.6 4180960 296.29
577598.8 4180960 296.29
577594.6 4180961 296.29
577595.4 4180960 296.3
577596.2 4180960 296.3
577596.8 4180961 296.3
577597.2 4180961 296.29
577600.7 4180961 296.3
577597.6 4180961 296.3
577597.9 4180961 296.29
577594.2 4180962 296.29
577596 4180962 296.29
577601.7 4180962 296.29
577601.9 4180962 296.3
577593.8 4180962 296.29
577607.6 4180966 296.29
577610.2 4180940 296.31
577603.9 4180941 296.31
577605.8 4180943 296.31
577606.1 4180943 296.31
577619.4 4180943 296.31
577601.5 4180944 296.31
577613.9 4180944 296.31
577619.6 4180943 296.31
577620.4 4180944 296.31
577601.5 4180944 296.31
577613.6 4180944 296.31
577621.4 4180944 296.31
577612.8 4180944 296.31
577612.9 4180944 296.31
577614.5 4180944 296.31
577618.4 4180944 296.31
577619.1 4180944 296.31
577620.6 4180944 296.31
577622.4 4180944 296.31
577602.1 4180944 296.31
577622 4180945 296.31
577622.6 4180944 296.31
577601.3 4180945 296.31
577622.4 4180945 296.31
577609.2 4180945 296.31
577622.6 4180945 296.31
577604.1 4180946 296.31
577609.2 4180946 296.31
577610 4180946 296.31
577610.2 4180946 296.31
577610 4180946 296.31
577610.6 4180946 296.31
577616.3 4180946 296.31
577617.1 4180946 296.31
577617.2 4180946 296.31
577618.2 4180946 296.31
577618.4 4180946 296.31
577618.9 4180946 296.31
577610.2 4180946 296.31
577619.1 4180946 296.31
577606.8 4180947 296.31
577613.3 4180947 296.31
577613.8 4180947 296.31
577615.5 4180947 296.31
577616.3 4180947 296.31
577616.5 4180947 296.31
577617.1 4180947 296.31
577617.2 4180947 296.31
577617.5 4180947 296.31
577617.7 4180947 296.31
577617.9 4180947 296.31
577618.9 4180947 296.31
577619.1 4180947 296.31
577618.2 4180947 296.31
577618.7 4180948 296.31
577615.7 4180948 296.31
577618.2 4180948 296.31
577618.7 4180948 296.31
577620.1 4180948 296.31
577618.2 4180948 296.31
577618.4 4180948 296.31
577616.3 4180948 296.31
577615.3 4180949 296.31
577616.3 4180949 296.31
577617.7 4180949 296.31
577616.5 4180950 296.31
577617.7 4180952 296.31
577618.9 4180953 296.31
577598.1 4180953 296.31
577618.9 4180953 296.31
577618.7 4180953 296.31
577597.2 4180954 296.31
577599.9 4180954 296.31
577598.3 4180954 296.31
577617.7 4180954 296.31
577619.9 4180954 296.31
577617.7 4180955 296.31
577596.4 4180955 296.31
577599.8 4180956 296.31
577621.8 4180956 296.31
577596.2 4180957 296.31
577594.8 4180958 296.31
577594.6 4180959 296.31
577595.6 4180959 296.31
577595.2 4180960 296.31
577597.4 4180960 296.31
577596.9 4180960 296.31
577594.2 4180960 296.31
577600.1 4180961 296.31
577599.9 4180961 296.31
577594 4180962 296.31
577607.4 4180968 296.31
577607.8 4180940 296.32
577611.6 4180940 296.33
577612.8 4180940 296.33
577621 4180940 296.32
577611.8 4180941 296.32
577606.1 4180941 296.33
577619.1 4180941 296.33
577620.6 4180942 296.33
577621.6 4180942 296.32
577621.8 4180942 296.32
577622 4180942 296.33
577605.8 4180943 296.33
577606.2 4180943 296.33
577607.6 4180943 296.32
577609.6 4180943 296.32
577613.6 4180943 296.33
577613.9 4180943 296.33
577617.7 4180943 296.32
577618.4 4180943 296.33
577618.7 4180943 296.33
577618.9 4180943 296.33
577621.4 4180943 296.32
577601.7 4180944 296.33
577605.8 4180943 296.32
577606.1 4180943 296.33
577612.8 4180944 296.32
577612.9 4180943 296.33
577614.1 4180944 296.32
577614.3 4180944 296.33
577614.9 4180944 296.33
577615.3 4180944 296.32
577615.5 4180944 296.32
577615.7 4180944 296.33
577617.5 4180944 296.325
577619.9 4180944 296.33
577620.2 4180944 296.33
577621 4180943 296.32
577621.2 4180943 296.32
577621.4 4180943 296.32
577621.6 4180943 296.33
577601.7 4180944 296.32
577612.6 4180944 296.32
577615.1 4180944 296.33
577615.3 4180944 296.33
577615.5 4180944 296.33
577617.7 4180944 296.32
577619.6 4180944 296.32
577619.9 4180944 296.33
577620.2 4180944 296.33
577601.7 4180944 296.32
577601.9 4180944 296.32
577606.2 4180944 296.33
577612.6 4180944 296.325
577612.8 4180944 296.33
577613.1 4180944 296.32
577613.3 4180944 296.33
577618.2 4180944 296.33
577619.1 4180944 296.32
577619.4 4180944 296.32
577622.4 4180944 296.33
577602.1 4180944 296.33
577619.1 4180944 296.32
577621.4 4180944 296.33
577622.2 4180945 296.32
577609.8 4180945 296.32
577603.7 4180946 296.32
577609 4180946 296.32
577612.1 4180946 296.32
577600.9 4180946 296.32
577616.1 4180946 296.33
577616.5 4180946 296.33
577616.7 4180946 296.32
577616.9 4180946 296.32
577618.7 4180946 296.32
577618.9 4180946 296.33
577619.1 4180946 296.33
577603.1 4180946 296.33
577606.6 4180946 296.33
577606.8 4180946 296.33
577611.8 4180946 296.32
577619.1 4180946 296.32
577612.4 4180946 296.32
577616.1 4180946 296.33
577619.2 4180946 296.33
577616.1 4180947 296.32
577616.3 4180947 296.33
577616.5 4180947 296.33
577616.7 4180947 296.32
577619.1 4180947 296.32
577619.2 4180947 296.33
577617.9 4180947 296.33
577618.1 4180947 296.32
577619.1 4180947 296.33
577621.2 4180947 296.32
577618.1 4180948 296.33
577618.9 4180948 296.32
577606.1 4180948 296.32
577614.9 4180948 296.33
577618.1 4180948 296.33
577618.9 4180948 296.3267
577618.1 4180948 296.33
577618.7 4180948 296.32
577620.8 4180948 296.32
577618.2 4180948 296.33
577618.4 4180948 296.33
577620.6 4180948 296.33
577616.5 4180949 296.32
577616.9 4180949 296.33
577617.1 4180949 296.33
577617.2 4180949 296.33
577617.5 4180949 296.33
577617.7 4180949 296.33
577620.1 4180949 296.33
577618.1 4180949 296.32
577598.8 4180950 296.32
577617.9 4180950 296.33
577598.6 4180951 296.32
577599.1 4180951 296.32
577602.7 4180952 296.33
577617.9 4180953 296.32
577618.9 4180952 296.325
577598.3 4180953 296.32
577598.6 4180953 296.33
577619.6 4180953 296.33
577597.6 4180953 296.32
577618.4 4180953 296.33
577618.9 4180953 296.32
577597.4 4180954 296.32
577599.8 4180954 296.33
577600.9 4180954 296.33
577603.5 4180954 296.32
577603.7 4180954 296.33
577616.5 4180954 296.32
577616.9 4180954 296.32
577617.9 4180954 296.33
577597.2 4180954 296.32
577620.4 4180954 296.33
577597.2 4180954 296.32
577597.8 4180954 296.32
577598.1 4180955 296.33
577598.9 4180955 296.33
577617.5 4180955 296.32
577596.6 4180956 296.33
577597.4 4180956 296.33
577598.3 4180956 296.32
577595.8 4180956 296.33
577596.8 4180957 296.32
577596.4 4180958 296.33
577594.8 4180959 296.33
577596 4180959 296.32
577596.4 4180959 296.33
577596.8 4180960 296.32
577597.8 4180960 296.33
577600.1 4180960 296.33
577600.1 4180960 296.32
577597.9 4180960 296.33
577598.1 4180960 296.33
577599.5 4180960 296.33
577599.8 4180960 296.33
577595.2 4180960 296.33
577596.4 4180960 296.33
577596.9 4180961 296.33
577598.3 4180961 296.32
577595.8 4180962 296.33
577596.9 4180962 296.33
577598.1 4180962 296.33
577598.6 4180962 296.32
577599.1 4180962 296.33
577602.1 4180962 296.33
577601.5 4180962 296.33
577597.6 4180962 296.33
577609.8 4180966 296.33
577610.8 4180940 296.34
577611.6 4180940 296.34
577612.9 4180940 296.34
577613.1 4180940 296.34
577614.1 4180941 296.34
577615.7 4180941 296.34
577621.4 4180942 296.34
577606.1 4180943 296.34
577620.6 4180943 296.34
577613.3 4180943 296.34
577614.1 4180943 296.34
577618.2 4180943 296.34
577601.7 4180943 296.34
577605.6 4180943 296.34
577605.8 4180944 296.34
577614.5 4180944 296.34
577614.7 4180944 296.34
577619.9 4180943 296.34
577620.8 4180943 296.34
577622.2 4180944 296.34
577613.9 4180944 296.34
577614.9 4180944 296.34
577615.7 4180944 296.34
577620.1 4180944 296.34
577601.9 4180944 296.34
577612.4 4180944 296.34
577612.9 4180944 296.34
577617.9 4180944 296.34
577619.2 4180944 296.34
577619.6 4180944 296.34
577620.2 4180944 296.34
577620.4 4180944 296.34
577620.8 4180944 296.34
577622.6 4180944 296.34
577621.8 4180945 296.34
577622.2 4180945 296.34
577622.4 4180945 296.34
577601.9 4180946 296.34
577603.7 4180946 296.34
577616.3 4180946 296.34
577617.9 4180946 296.34
577618.1 4180946 296.34
577618.4 4180946 296.34
577610.8 4180946 296.34
577611.4 4180946 296.34
577616.3 4180946 296.34
577619.2 4180946 296.34
577607 4180946 296.34
577611.6 4180946 296.34
577612.6 4180946 296.34
577614.3 4180946 296.34
577613.3 4180947 296.34
577616.1 4180947 296.34
577618.9 4180947 296.34
577619.2 4180947 296.34
577617.7 4180947 296.34
577617.9 4180948 296.34
577619.1 4180948 296.34
577606.2 4180948 296.34
577612.8 4180948 296.34
577615.9 4180948 296.34
577616.3 4180948 296.34
577617.9 4180948 296.34
577617.9 4180949 296.34
577618.1 4180949 296.34
577600.1 4180950 296.34
577599.1 4180951 296.34
577601.7 4180952 296.34
577619.2 4180952 296.34
577598.8 4180953 296.34
577616.3 4180953 296.34
577617.7 4180954 296.34
577619.1 4180954 296.34
577597.4 4180954 296.34
577596.4 4180955 296.34
577599.3 4180955 296.34
577621.8 4180956 296.34
577596 4180956 296.34
577599.3 4180956 296.34
577599.5 4180956 296.34
577621.6 4180956 296.34
577596 4180957 296.34
577595 4180959 296.34
577597.2 4180959 296.34
577594.2 4180960 296.34
577598.3 4180960 296.34
577594.2 4180960 296.34
577595.6 4180960 296.34
577599.8 4180961 296.34
577594.2 4180962 296.34
577596.6 4180962 296.34
577599.5 4180962 296.34
577599.1 4180962 296.34
577611.8 4180965 296.34
577604.2 4180940 296.35
577603.7 4180940 296.36
577605.4 4180940 296.36
577606.6 4180940 296.36
577611.6 4180940 296.36
577621.2 4180940 296.36
577604.9 4180941 296.35
577605.1 4180941 296.35
577605.2 4180941 296.36
577609.8 4180942 296.36
577622.2 4180942 296.36
577608.4 4180942 296.36
577608.6 4180942 296.36
577606.4 4180943 296.36
577608.4 4180943 296.35
577608.6 4180943 296.35
577608.8 4180943 296.35
577605.6 4180943 296.35
577606.4 4180943 296.36
577608.4 4180943 296.36
577608.6 4180943 296.35
577608.8 4180943 296.36
577617.5 4180943 296.36
577618.1 4180943 296.36
577619.1 4180943 296.35
577619.6 4180943 296.35
577601.9 4180944 296.355
577605.6 4180944 296.35
577606.1 4180944 296.35
577612.6 4180944 296.35
577612.8 4180943 296.36
577614.9 4180943 296.35
577615.1 4180943 296.35
577615.3 4180943 296.35
577615.5 4180943 296.36
577615.7 4180943 296.36
577615.9 4180944 296.35
577617.2 4180943 296.36
577620.1 4180943 296.36
577620.2 4180943 296.36
577620.4 4180943 296.36
577621.8 4180943 296.36
577601.9 4180944 296.35
577614.1 4180944 296.35
577614.3 4180944 296.36
577614.7 4180944 296.35
577622.4 4180944 296.36
577602.1 4180944 296.36
577612.4 4180944 296.35
577613.6 4180944 296.35
577615.1 4180944 296.36
577615.3 4180944 296.36
577619.4 4180944 296.36
577619.9 4180944 296.36
577620.4 4180944 296.35
577612.4 4180944 296.36
577612.6 4180944 296.36
577621.4 4180944 296.36
577622.8 4180944 296.35
577611.8 4180945 296.36
577616.3 4180944 296.35
577621.2 4180944 296.35
577602.1 4180945 296.36
577609.4 4180945 296.35
577609.6 4180945 296.36
577622 4180945 296.35
577603.7 4180945 296.36
577609 4180945 296.35
577609 4180946 296.36
577610.2 4180946 296.36
577610.4 4180946 296.35
577617.1 4180946 296.36
577617.2 4180946 296.35
577617.5 4180946 296.35
577617.7 4180946 296.35
577618.2 4180946 296.35
577618.7 4180946 296.35
577618.9 4180946 296.36
577600.5 4180946 296.35
577604.1 4180946 296.36
577613.3 4180946 296.36
577615.7 4180946 296.35
577615.9 4180946 296.35
577616.1 4180946 296.36
577619.1 4180946 296.35
577619.2 4180946 296.355
577619.4 4180946 296.36
577607 4180946 296.35
577611.9 4180946 296.36
577615.9 4180946 296.35
577618.9 4180946 296.36
577619.4 4180946 296.35
577606.2 4180946 296.35
577612.8 4180946 296.36
577613.3 4180946 296.35
577619.4 4180946 296.35
577619.6 4180946 296.36
577620.4 4180946 296.36
577620.6 4180946 296.36
577620.8 4180946 296.36
577606.1 4180947 296.36
577607 4180947 296.36
577610.2 4180947 296.36
577610.9 4180947 296.35
577613.6 4180947 296.35
577616.3 4180947 296.36
577619.4 4180947 296.3533
577619.6 4180947 296.36
577620.4 4180947 296.36
577620.6 4180947 296.36
577620.8 4180947 296.36
577621 4180947 296.36
577621.2 4180947 296.35
577621.4 4180947 296.35
577621.6 4180947 296.35
577621.8 4180947 296.36
577611.6 4180947 296.35
577616.5 4180947 296.36
577616.7 4180947 296.36
577616.9 4180947 296.35
577617.1 4180947 296.35
577617.2 4180947 296.35
577619.2 4180947 296.35
577621 4180947 296.36
577614.5 4180948 296.36
577616.1 4180948 296.36
577617.7 4180948 296.36
577621 4180948 296.35
577615.1 4180948 296.35
577617.9 4180948 296.35
577619.1 4180948 296.355
577617.9 4180948 296.35
577618.9 4180948 296.35
577614.3 4180948 296.35
577616.5 4180948 296.36
577616.7 4180949 296.36
577617.5 4180949 296.36
577617.7 4180949 296.35
577617.9 4180949 296.35
577618.2 4180949 296.35
577619.4 4180949 296.36
577619.9 4180949 296.36
577616.1 4180949 296.35
577617.9 4180949 296.355
577619.2 4180950 296.35
577616.7 4180950 296.36
577619.2 4180950 296.355
577617.9 4180950 296.36
577617.1 4180950 296.36
577617.2 4180950 296.36
577618.9 4180952 296.36
577599.1 4180953 296.36
577599.8 4180953 296.35
577603.7 4180952 296.36
577598.9 4180953 296.36
577602.7 4180953 296.36
577597.8 4180953 296.36
577599.9 4180953 296.35
577600.1 4180953 296.35
577618.2 4180953 296.36
577597.4 4180954 296.36
577598.3 4180954 296.35
577618.1 4180954 296.36
577618.9 4180954 296.36
577619.1 4180954 296.36
577619.2 4180954 296.355
577597.9 4180954 296.35
577598.6 4180955 296.35
577596.8 4180956 296.36
577596.9 4180956 296.35
577597.2 4180956 296.35
577597.4 4180956 296.35
577597.6 4180956 296.36
577597.8 4180956 296.36
577597.9 4180956 296.36
577598.1 4180956 296.35
577598.8 4180956 296.36
577596 4180956 296.36
577596.2 4180956 296.35
577596.6 4180958 296.35
577594.6 4180959 296.35
577595.4 4180959 296.36
577596.8 4180959 296.36
577594.4 4180960 296.35
577596.6 4180960 296.36
577597.9 4180960 296.36
577596.9 4180960 296.36
577597.2 4180960 296.35
577597.6 4180960 296.36
577598.6 4180960 296.35
577598.8 4180960 296.36
577598.9 4180960 296.36
577599.1 4180960 296.36
577599.3 4180960 296.35
577599.9 4180960 296.35
577600.1 4180960 296.35
577594.4 4180960 296.35
577596.6 4180960 296.36
577596.9 4180961 296.35
577597.4 4180961 296.36
577595.2 4180962 296.35
577595.4 4180962 296.36
577598.9 4180962 296.36
577599.5 4180962 296.35
577602.1 4180962 296.36
577599.3 4180962 296.36
577598.9 4180963 296.36
577609.8 4180966 296.36
577611.4 4180940 296.37
577605.4 4180941 296.37
577606.4 4180941 296.37
577622 4180942 296.37
577606.2 4180942 296.37
577608.2 4180942 296.37
577608.8 4180942 296.37
577605.8 4180943 296.37
577608.2 4180943 296.37
577609 4180943 296.37
577606.4 4180943 296.37
577609 4180943 296.37
577609.2 4180943 296.37
577613.1 4180943 296.37
577619.2 4180943 296.37
577616.1 4180944 296.37
577617.2 4180944 296.37
577605.8 4180944 296.37
577617.5 4180944 296.37
577612.1 4180944 296.37
577613.8 4180944 296.37
577614.9 4180944 296.37
577615.5 4180944 296.37
577618.1 4180944 296.37
577619.6 4180944 296.37
577620.2 4180944 296.37
577622.6 4180944 296.37
577612.8 4180944 296.37
577618.7 4180944 296.37
577618.9 4180944 296.37
577619.1 4180944 296.37
577620.6 4180944 296.37
577614.3 4180945 296.37
577621.6 4180945 296.37
577609.2 4180945 296.37
577604.1 4180945 296.37
577610 4180945 296.37
577622.2 4180945 296.37
577604.2 4180946 296.37
577616.7 4180946 296.37
577616.9 4180946 296.37
577603.9 4180946 296.37
577606.8 4180946 296.37
577609.8 4180946 296.37
577615.9 4180946 296.37
577619.4 4180946 296.37
577619.6 4180946 296.37
577606.4 4180946 296.37
577609.2 4180946 296.37
577615.9 4180946 296.37
577620.1 4180946 296.37
577620.2 4180946 296.37
577619.9 4180947 296.37
577620.1 4180947 296.37
577620.4 4180947 296.37
577620.6 4180947 296.37
577621 4180947 296.37
577621.2 4180947 296.37
577622 4180947 296.37
577610.6 4180948 296.37
577617.5 4180948 296.37
577619.2 4180948 296.37
577613.8 4180948 296.37
577615.3 4180948 296.37
577616.1 4180948 296.37
577617.7 4180948 296.37
577619.1 4180948 296.37
577620.8 4180948 296.37
577617.7 4180948 296.37
577618.9 4180948 296.37
577617.2 4180949 296.37
577618.1 4180949 296.37
577618.4 4180949 296.37
577619.2 4180949 296.37
577615.3 4180950 296.37
577617.9 4180950 296.37
577599.3 4180950 296.37
577617.5 4180951 296.37
577599.9 4180952 296.37
577617.7 4180952 296.37
577599.1 4180952 296.37
577599.8 4180953 296.37
577600.3 4180953 296.37
577597.4 4180954 296.37
577597.6 4180954 296.37
577618.2 4180954 296.37
577597.4 4180955 296.37
577596.4 4180956 296.37
577598.1 4180956 296.37
577621.6 4180956 296.37
577599.8 4180956 296.37
577597.2 4180958 296.37
577594.8 4180959 296.37
577596.2 4180959 296.37
577594.6 4180960 296.37
577594.8 4180960 296.37
577599.1 4180961 296.37
577597.8 4180961 296.37
577594.6 4180962 296.37
577608.4 4180967 296.37
577603.7 4180940 296.38
577604.4 4180940 296.38
577620.1 4180940 296.38
577609.2 4180940 296.38
577611.9 4180941 296.38
577621.6 4180941 296.38
577611.9 4180941 296.38
577612.8 4180941 296.38
577612.9 4180941 296.38
577614.3 4180941 296.38
577620.1 4180941 296.38
577621.2 4180942 296.38
577606.4 4180942 296.38
577606.8 4180942 296.38
577609 4180942 296.38
577609.2 4180943 296.38
577605.6 4180943 296.38
577608.6 4180943 296.38
577608.8 4180943 296.38
577609 4180943 296.38
577619.9 4180943 296.38
577608.2 4180944 296.38
577615.9 4180943 296.38
577605.6 4180944 296.38
577602.1 4180944 296.38
577613.3 4180944 296.38
577613.9 4180944 296.38
577614.7 4180944 296.38
577615.7 4180944 296.38
577619.9 4180944 296.38
577620.1 4180944 296.38
577618.4 4180944 296.38
577619.2 4180944 296.38
577610.4 4180945 296.38
577621 4180944 296.38
577609.8 4180945 296.38
577619.1 4180945 296.38
577622 4180945 296.38
577608.8 4180946 296.38
577616.5 4180946 296.38
577619.2 4180946 296.38
577603.7 4180946 296.38
577607 4180946 296.38
577610.9 4180946 296.38
577611.6 4180946 296.38
577615.7 4180946 296.38
577620.2 4180946 296.38
577620.4 4180946 296.38
577620.6 4180946 296.38
577620.8 4180946 296.38
577613.9 4180947 296.38
577619.6 4180947 296.38
577619.9 4180947 296.38
577620.1 4180947 296.38
577620.2 4180947 296.38
577620.8 4180947 296.38
577621.2 4180947 296.38
577606.8 4180947 296.38
577614.3 4180947 296.38
577616.3 4180947 296.38
577619.4 4180947 296.38
577612.1 4180948 296.38
577617.2 4180948 296.38
577616.3 4180948 296.38
577617.7 4180948 296.38
577619.2 4180948 296.38
577617.7 4180948 296.38
577619.1 4180948 296.38
577620.4 4180948 296.38
577616.9 4180949 296.38
577617.1 4180949 296.38
577618.7 4180949 296.38
577621 4180949 296.38
577600.1 4180950 296.38
577617.2 4180950 296.38
577617.9 4180950 296.38
577599.1 4180953 296.38
577599.5 4180953 296.38
577597.4 4180954 296.38
577599.8 4180954 296.38
577601.1 4180954 296.38
577597.6 4180954 296.38
577618.2 4180954 296.38
577617.5 4180955 296.38
577596.6 4180956 296.38
577596.2 4180956 296.38
577598.1 4180956 296.38
577599.1 4180956 296.38
577598.9 4180960 296.38
577599.9 4180959 296.38
577596.8 4180960 296.38
577597.4 4180960 296.38
577597.8 4180961 296.38
