# .PCD v.7 - Point Cloud Data file format
VERSION .7
FIELDS x y z
SIZE 4 4 4
TYPE F F F
COUNT 1 1 1
WIDTH 426
HEIGHT 1
VIEWPOINT 0 0 0 1 0 0 0
POINTS 426
DATA ascii
577606.25 4180947 296.149993896
577606.25 4180947.5 296.149993896
577606.25 4180947.75 296.220001221
577606.4375 4180947.75 296.25
577606.625 4180946.5 296.269989014
577606.625 4180946.75 296.220001221
577606.625 4180946.75 296.190002441
577606.625 4180947 296.190002441
577606.625 4180947.25 296.220001221
577606.625 4180947.5 296.290008545
577606.625 4180947.75 296.390014648
577606.8125 4180946.5 296.290008545
577606.8125 4180946.75 296.269989014
577606.8125 4180946.75 296.269989014
577606.8125 4180947 296.309997559
577606.8125 4180947.25 296.380004883
577607 4180946.25 296.350006104
577607 4180946.5 296.339996338
577607 4180946.75 296.359985352
577607 4180946.75 296.399993896
577607 4180947 296.480010986
577607.1875 4180946 296.450012207
577607.1875 4180946 296.420013428
577607.1875 4180946.25 296.410003662
577607.1875 4180946.5 296.429992676
577607.1875 4180946.75 296.480010986
577607.1875 4180946.75 296.529998779
577607.4375 4180945 296.399993896
577607.4375 4180945.75 296.589996338
577607.4375 4180946 296.480010986
577607.4375 4180946 296.470001221
577607.4375 4180946.25 296.440002441
577607.4375 4180946.5 296.549987793
577607.4375 4180946.75 296.649993896
577607.625 4180945.5 296.579986572
577607.625 4180945.75 296.540008545
577607.625 4180946 296.529998779
577607.625 4180946 296.540008545
577607.625 4180946.25 296.589996338
577607.625 4180946.5 296.690002441
577607.625 4180946.75 296.829986572
577607.8125 4180945 296.670013428
577607.8125 4180945.5 296.589996338
577607.8125 4180945.75 296.559997559
577607.8125 4180946 296.609985352
577607.8125 4180946.25 296.700012207
577607.8125 4180946.5 296.630004883
577608 4180942.75 296.390014648
577608 4180943 296.410003662
577608 4180943 296.450012207
577608 4180944.5 296.75
577608 4180945 296.700012207
577608 4180946 296.670013428
577608 4180946.25 296.799987793
577608.1875 4180942.5 296.369995117
577608.1875 4180942.75 296.369995117
577608.1875 4180943 296.459991455
577608.1875 4180943 296.420013428
577608.1875 4180943.25 296.470001221
577608.1875 4180943.5 296.380004883
577608.1875 4180943.75 296.600006104
577608.1875 4180944 296.660003662
577608.1875 4180944 296.700012207
577608.1875 4180944.25 296.730010986
577608.1875 4180944.5 296.739990234
577608.1875 4180944.75 296.720001221
577608.1875 4180945 296.679992676
577608.1875 4180945 296.630004883
577608.1875 4180945.75 296.549987793
577608.1875 4180946 296.709991455
577608.1875 4180946.25 296.880004883
577608.375 4180942.25 296.420013428
577608.375 4180942.25 296.390014648
577608.375 4180942.5 296.359985352
577608.375 4180942.75 296.350006104
577608.375 4180943 296.359985352
577608.375 4180943 296.399993896
577608.375 4180943.25 296.450012207
577608.375 4180943.5 296.510009766
577608.375 4180943.75 296.570007324
577608.375 4180944 296.640014648
577608.375 4180944 296.679992676
577608.375 4180944.25 296.709991455
577608.375 4180944.5 296.709991455
577608.375 4180944.75 296.679992676
577608.375 4180945 296.630004883
577608.375 4180945 296.579986572
577608.375 4180945.25 296.529998779
577608.375 4180945.5 296.5
577608.375 4180945.75 296.519989014
577608.375 4180946 296.589996338
577608.375 4180946 296.730010986
577608.375 4180946.25 296.940002441
577608.625 4180941.75 296.5
577608.625 4180942 296.459991455
577608.625 4180942.25 296.420013428
577608.625 4180942.25 296.390014648
577608.625 4180942.5 296.359985352
577608.625 4180942.75 296.350006104
577608.625 4180943 296.350006104
577608.625 4180943 296.380004883
577608.625 4180943.25 296.429992676
577608.625 4180943.5 296.489990234
577608.625 4180943.75 296.549987793
577608.625 4180944 296.609985352
577608.625 4180944 296.660003662
577608.625 4180944.25 296.679992676
577608.625 4180944.5 296.670013428
577608.625 4180944.75 296.640014648
577608.625 4180945 296.579986572
577608.625 4180945 296.519989014
577608.625 4180945.25 296.470001221
577608.625 4180945.5 296.440002441
577608.625 4180945.75 296.470001221
577608.625 4180946 296.559997559
577608.625 4180946 296.730010986
577608.8125 4180940.5 296.440002441
577608.8125 4180940.75 296.450012207
577608.8125 4180941 296.470001221
577608.8125 4180941.25 296.489990234
577608.8125 4180941.25 296.5
577608.8125 4180941.5 296.5
577608.8125 4180941.75 296.489990234
577608.8125 4180942 296.459991455
577608.8125 4180942.25 296.429992676
577608.8125 4180942.25 296.390014648
577608.8125 4180942.5 296.369995117
577608.8125 4180942.75 296.350006104
577608.8125 4180943 296.359985352
577608.8125 4180943 296.380004883
577608.8125 4180943.25 296.420013428
577608.8125 4180943.5 296.480010986
577608.8125 4180943.75 296.540008545
577608.8125 4180944 296.589996338
577608.8125 4180944 296.630004883
577608.8125 4180944.25 296.640014648
577608.8125 4180944.5 296.630004883
577608.8125 4180944.75 296.589996338
577608.8125 4180945 296.529998779
577608.8125 4180945 296.459991455
577608.8125 4180945.25 296.470001221
577608.8125 4180945.5 296.380004883
577608.8125 4180945.75 296.410003662
577608.8125 4180946 296.440002441
577608.8125 4180946 296.700012207
577608.8125 4180946.25 296.440002441
577609 4180940.25 296.420013428
577609 4180940.25 296.399993896
577609 4180940.5 296.399993896
577609 4180940.75 296.410003662
577609 4180941 296.429992676
577609 4180941.25 296.459991455
577609 4180941.25 296.480010986
577609 4180941.5 296.480010986
577609 4180941.75 296.480010986
577609 4180942 296.459991455
577609 4180942.25 296.429992676
577609 4180942.25 296.410003662
577609 4180942.5 296.380004883
577609 4180942.75 296.369995117
577609 4180943 296.369995117
577609 4180943 296.380004883
577609 4180943.25 296.420013428
577609 4180943.5 296.470001221
577609 4180943.75 296.519989014
577609 4180944 296.570007324
577609 4180944 296.480010986
577609 4180944.25 296.609985352
577609 4180944.5 296.589996338
577609 4180944.75 296.390014648
577609 4180945 296.480010986
577609 4180945 296.399993896
577609 4180945.25 296.350006104
577609 4180945.5 296.320007324
577609 4180945.75 296.359985352
577609 4180946 296.459991455
577609 4180946 296.649993896
577609.1875 4180940.25 296.420013428
577609.1875 4180940.25 296.390014648
577609.1875 4180940.5 296.380004883
577609.1875 4180940.75 296.390014648
577609.1875 4180941 296.410003662
577609.1875 4180941.25 296.459991455
577609.1875 4180941.25 296.459991455
577609.1875 4180941.5 296.470001221
577609.1875 4180941.75 296.420013428
577609.1875 4180942 296.459991455
577609.1875 4180942.25 296.440002441
577609.1875 4180942.25 296.5
577609.1875 4180942.5 296.399993896
577609.1875 4180942.75 296.380004883
577609.1875 4180943 296.369995117
577609.1875 4180943 296.399993896
577609.1875 4180943.25 296.429992676
577609.1875 4180943.5 296.470001221
577609.1875 4180943.75 296.510009766
577609.1875 4180944 296.549987793
577609.1875 4180944 296.579986572
577609.1875 4180944.25 296.579986572
577609.1875 4180944.5 296.559997559
577609.1875 4180944.75 296.510009766
577609.1875 4180945 296.440002441
577609.1875 4180945 296.369995117
577609.1875 4180945.25 296.309997559
577609.1875 4180945.5 296.279998779
577609.1875 4180945.75 296.309997559
577609.1875 4180946 296.410003662
577609.1875 4180946 296.589996338
577609.1875 4180946.5 296.369995117
577609.375 4180940.75 296.399993896
577609.375 4180941 296.420013428
577609.375 4180941.25 296.440002441
577609.375 4180941.25 296.450012207
577609.375 4180941.5 296.470001221
577609.375 4180941.75 296.470001221
577609.375 4180942 296.459991455
577609.375 4180942.25 296.450012207
577609.375 4180942.25 296.429992676
577609.375 4180942.5 296.410003662
577609.375 4180942.75 296.399993896
577609.375 4180943 296.399993896
577609.375 4180943 296.410003662
577609.375 4180943.25 296.440002441
577609.375 4180943.5 296.470001221
577609.375 4180943.75 296.510009766
577609.375 4180944 296.540008545
577609.375 4180944 296.559997559
577609.375 4180944.25 296.559997559
577609.375 4180944.5 296.529998779
577609.375 4180944.75 296.470001221
577609.375 4180945 296.420013428
577609.375 4180945 296.350006104
577609.375 4180945.25 296.589996338
577609.375 4180946 296.640014648
577609.375 4180946 296.510009766
577609.375 4180946.25 296.75
577609.5625 4180941.5 296.470001221
577609.5625 4180941.75 296.470001221
577609.5625 4180942 296.470001221
577609.5625 4180942.25 296.459991455
577609.5625 4180942.5 296.429992676
577609.5625 4180942.75 296.420013428
577609.5625 4180943 296.320007324
577609.5625 4180943 296.429992676
577609.5625 4180943.25 296.450012207
577609.5625 4180943.5 296.579986572
577609.5625 4180943.75 296.510009766
577609.5625 4180944 296.529998779
577609.5625 4180944 296.549987793
577609.5625 4180944.25 296.549987793
577609.5625 4180944.5 296.519989014
577609.5625 4180944.75 296.480010986
577609.5625 4180945 296.420013428
577609.5625 4180945 296.359985352
577609.5625 4180945.5 296.260009766
577609.5625 4180945.75 296.260009766
577609.5625 4180946 296.440002441
577609.5625 4180946.25 296.640014648
577609.5625 4180946.5 296.920013428
577609.8125 4180941.75 296.359985352
577609.8125 4180942.25 296.459991455
577609.8125 4180942.25 296.450012207
577609.8125 4180942.5 296.440002441
577609.8125 4180942.75 296.440002441
577609.8125 4180943 296.440002441
577609.8125 4180943 296.450012207
577609.8125 4180943.25 296.470001221
577609.8125 4180943.5 296.489990234
577609.8125 4180943.75 296.510009766
577609.8125 4180944 296.529998779
577609.8125 4180944 296.540008545
577609.8125 4180944.25 296.540008545
577609.8125 4180944.5 296.529998779
577609.8125 4180944.75 296.489990234
577609.8125 4180945 296.440002441
577609.8125 4180945 296.380004883
577609.8125 4180945.25 296.320007324
577609.8125 4180945.5 296.279998779
577609.8125 4180945.75 296.260009766
577609.8125 4180946 296.279998779
577609.8125 4180946 296.369995117
577609.8125 4180946.25 296.519989014
577609.8125 4180946.5 296.75
577609.8125 4180946.75 297.040008545
577610 4180942.75 296.459991455
577610 4180943 296.459991455
577610 4180943 296.470001221
577610 4180943.25 296.489990234
577610 4180943.5 296.5
577610 4180943.75 296.519989014
577610 4180944 296.540008545
577610 4180944 296.549987793
577610 4180944.25 296.549987793
577610 4180944.5 296.540008545
577610 4180944.75 296.510009766
577610 4180945 296.480010986
577610 4180945 296.420013428
577610 4180945.25 296.369995117
577610 4180945.5 296.309997559
577610 4180945.75 296.279998779
577610 4180946 296.269989014
577610 4180946 296.309997559
577610 4180946.25 296.410003662
577610 4180946.5 296.570007324
577610 4180946.75 296.809997559
577610.1875 4180943 296.480010986
577610.1875 4180943 296.489990234
577610.1875 4180943.5 296.519989014
577610.1875 4180943.75 296.529998779
577610.1875 4180944 296.540008545
577610.1875 4180944 296.549987793
577610.1875 4180944.25 296.559997559
577610.1875 4180944.5 296.549987793
577610.1875 4180944.75 296.540008545
577610.1875 4180945 296.519989014
577610.1875 4180945 296.480010986
577610.1875 4180945.25 296.489990234
577610.1875 4180945.5 296.359985352
577610.1875 4180945.75 296.309997559
577610.1875 4180946 296.429992676
577610.1875 4180946 296.269989014
577610.1875 4180946.25 296.309997559
577610.1875 4180946.5 296.399993896
577610.1875 4180946.75 296.600006104
577610.1875 4180947 296.359985352
577610.375 4180943.5 296.440002441
577610.375 4180943.75 296.540008545
577610.375 4180944 296.549987793
577610.375 4180944 296.480010986
577610.375 4180944.25 296.570007324
577610.375 4180944.5 296.570007324
577610.375 4180944.75 296.380004883
577610.375 4180945 296.549987793
577610.375 4180945 296.529998779
577610.375 4180945.25 296.480010986
577610.375 4180945.5 296.420013428
577610.375 4180945.75 296.350006104
577610.375 4180946 296.290008545
577610.375 4180946 296.239990234
577610.375 4180946.25 296.230010986
577610.375 4180946.5 296.279998779
577610.375 4180946.75 296.410003662
577610.5625 4180944.5 296.579986572
577610.5625 4180944.75 296.589996338
577610.5625 4180945 296.589996338
577610.5625 4180945 296.570007324
577610.5625 4180945.25 296.529998779
577610.5625 4180945.5 296.470001221
577610.5625 4180945.75 296.399993896
577610.5625 4180946 296.309997559
577610.5625 4180946 296.230010986
577610.5625 4180946.5 296.179992676
577610.5625 4180946.75 296.720001221
577610.5625 4180947 296.679992676
577610.5625 4180947.5 296.369995117
577610.75 4180945 296.609985352
577610.75 4180945 296.450012207
577610.75 4180945.25 296.570007324
577610.75 4180945.5 296.519989014
577610.75 4180945.75 296.529998779
577610.75 4180946 296.339996338
577610.75 4180946 296.239990234
577610.75 4180946.25 296.480010986
577610.75 4180947 296.489990234
577610.9375 4180945.25 296.600006104
577610.9375 4180945.5 296.549987793
577610.9375 4180945.75 296.480010986
577610.9375 4180946 296.380004883
577610.9375 4180946 296.269989014
577610.9375 4180946.5 296.100006104
577610.9375 4180946.75 296.089996338
577610.9375 4180946.75 296.170013428
577610.9375 4180947 296.350006104
577610.9375 4180947.25 296.649993896
577611.1875 4180945.75 296.510009766
577611.1875 4180946 296.410003662
577611.1875 4180946 296.299987793
577611.1875 4180946.25 296.190002441
577611.1875 4180946.5 296.100006104
577611.1875 4180946.75 296.070007324
577611.1875 4180946.75 296.109985352
577611.1875 4180947 296.260009766
577611.1875 4180947.25 296.519989014
577611.1875 4180947.5 296.890014648
577611.375 4180946 296.450012207
577611.375 4180946 296.339996338
577611.375 4180946.25 296.220001221
577611.375 4180946.5 296.130004883
577611.375 4180946.75 296.070007324
577611.375 4180947 296.420013428
577611.375 4180947.25 296.420013428
577611.375 4180947.5 296.760009766
577611.375 4180947.75 296.540008545
577611.5625 4180946 296.480010986
577611.5625 4180946 296.380004883
577611.5625 4180946.25 296.269989014
577611.5625 4180946.5 296.339996338
577611.5625 4180946.75 296.100006104
577611.5625 4180946.75 296.089996338
577611.5625 4180947 296.170013428
577611.5625 4180947.25 296.350006104
577611.5625 4180947.5 296.649993896
577611.75 4180946 296.420013428
577611.75 4180946.25 296.320007324
577611.75 4180946.5 296.209991455
577611.75 4180947 296.149993896
577611.75 4180947.25 296.299987793
577611.9375 4180946.25 296.359985352
577611.9375 4180947.25 296.5
577611.9375 4180947.5 296.470001221
577612.125 4180946.5 296.290008545
577612.125 4180947 296.119995117
577612.125 4180947.5 296.380004883
577612.375 4180946.75 296.209991455
577612.375 4180946.75 296.130004883
577612.375 4180947 296.100006104
577612.375 4180947.25 296.140014648
577612.375 4180947.5 296.290008545
577612.5625 4180946.75 296.130004883
577612.5625 4180947.25 296.089996338
577612.5625 4180947.5 296.200012207
577612.75 4180947.5 296.130004883
577612.75 4180948.25 296.290008545
577612.9375 4180947.5 296.070007324
577613.125 4180947.25 296.010009766
577613.125 4180947.5 296.029998779
