# .PCD v.7 - Point Cloud Data file format
VERSION .7
FIELDS x y z
SIZE 4 4 4
TYPE F F F
COUNT 1 1 1
WIDTH 193
HEIGHT 1
VIEWPOINT 0 0 0 1 0 0 0
POINTS 193
DATA ascii
577612.125 4180950.25 301.730010986
577612.375 4180949.75 301.820007324
577612.375 4180950 301.820007324
577612.375 4180950.25 301.730010986
577612.375 4180950.5 301.589996338
577612.5625 4180949.75 301.649993896
577612.5625 4180949.75 301.769989014
577612.5625 4180950 301.779998779
577612.5625 4180950.25 301.690002441
577612.5625 4180950.5 301.549987793
577612.75 4180949.75 301.529998779
577612.75 4180949.75 301.679992676
577612.75 4180950 301.709991455
577612.9375 4180949.25 301.420013428
577612.9375 4180949.75 301.549987793
577612.9375 4180950 301.589996338
577612.9375 4180950.25 301.540008545
577612.9375 4180950.5 301.410003662
577613.125 4180949.75 301.350006104
577614.6875 4180965.75 303.25
577614.9375 4180958.75 303.649993896
577615.125 4180959 303.600006104
577615.3125 4180959 303.559997559
577615.3125 4180959.5 303.630004883
577615.5 4180956.5 303.309997559
577615.5 4180958.75 303.279998779
577615.5 4180959 303.559997559
577615.5 4180959 303.850006104
577615.6875 4180958.75 303.570007324
577615.6875 4180959 303.779998779
577615.6875 4180959 303.989990234
577615.875 4180956.25 302.720001221
577615.875 4180956.5 303.059997559
577615.875 4180956.75 303.290008545
577615.875 4180957 303.420013428
577615.875 4180957.25 303.489990234
577615.875 4180958 303.619995117
577615.875 4180958.25 303.709991455
577615.875 4180958.5 303.829986572
577616.125 4180956.75 303.760009766
577616.125 4180957 303.910003662
577616.125 4180957.25 303.989990234
577616.5 4180956 303.5
577616.5 4180961.75 304.040008545
577616.875 4180956.25 302.790008545
577616.875 4180956.25 303.510009766
577616.875 4180956.5 303.519989014
577617.0625 4180956 303.179992676
577617.0625 4180956.25 303.290008545
577617.0625 4180962.75 302.959991455
577617.0625 4180964 304.630004883
577617.0625 4180964.5 304.089996338
577617.25 4180956.25 303.010009766
577617.25 4180956.5 303.75
577617.25 4180963.5 304.730010986
577617.25 4180963.75 304.75
577617.5 4180960.75 304.170013428
577617.6875 4180964 304.450012207
577617.875 4180961.25 304.519989014
577618.0625 4180959.5 304.380004883
577618.25 4180957 304.329986572
577618.4375 4180957 304.299987793
577618.6875 4180957 304.329986572
577618.875 4180956.5 303.399993896
577618.875 4180960.75 304.75
577619.0625 4180956.25 302.899993896
577619.0625 4180956.25 303.359985352
577619.0625 4180956.5 303.779998779
577619.0625 4180956.75 303.489990234
577619.25 4180955.5 303.559997559
577619.25 4180956 303.209991455
577619.25 4180956.25 303
577619.4375 4180956.5 304.660003662
577619.625 4180955.75 304.160003662
577619.625 4180956 304.640014648
577619.625 4180957.25 304.390014648
577619.625 4180957.5 304.839996338
577619.625 4180957.75 304.660003662
577619.875 4180955.25 303.790008545
577619.875 4180955.5 303.809997559
577619.875 4180955.75 304.570007324
577619.875 4180956 304.570007324
577619.875 4180956.5 304.420013428
577619.875 4180957.25 304.579986572
577619.875 4180957.5 304.559997559
577619.875 4180957.75 304.660003662
577619.875 4180958 304.850006104
577620.0625 4180952.5 303.350006104
577620.0625 4180953 303.059997559
577620.0625 4180955.5 303.839996338
577620.0625 4180955.75 304.679992676
577620.0625 4180957.25 304.510009766
577620.0625 4180957.25 304.329986572
577620.0625 4180957.5 304.260009766
577620.0625 4180957.75 304.339996338
577620.0625 4180958 304.540008545
577620.25 4180951.5 303.910003662
577620.25 4180952 303.769989014
577620.25 4180955.5 303.549987793
577620.25 4180957.25 304.260009766
577620.25 4180957.25 304.040008545
577620.25 4180957.5 303.970001221
577620.25 4180957.75 304.049987793
577620.25 4180958 304.290008545
577620.25 4180961.5 305.100006104
577620.4375 4180951.75 303.859985352
577620.4375 4180952.5 303.260009766
577620.4375 4180955.75 303.920013428
577620.4375 4180956 304.579986572
577620.4375 4180957 303.929992676
577620.4375 4180957.25 303.920013428
577620.4375 4180957.5 304.179992676
577620.4375 4180958 304.119995117
577620.625 4180951.5 303.880004883
577620.625 4180952.5 304.149993896
577620.625 4180952.75 303.160003662
577620.625 4180955.75 304.170013428
577620.625 4180956.25 304.170013428
577620.625 4180956.25 304.359985352
577620.625 4180956.5 304.220001221
577620.625 4180956.75 304
577620.625 4180957 303.739990234
577620.625 4180957.25 303.519989014
577620.8125 4180951.5 304.489990234
577620.8125 4180953 303.549987793
577620.8125 4180953.5 303.230010986
577620.8125 4180956.5 303.350006104
577620.8125 4180956.75 303.260009766
577620.8125 4180957.5 303.320007324
577621 4180951.75 304.399993896
577621 4180952.5 304.25
577621 4180953 303.570007324
577621 4180956.5 303.369995117
577621 4180957.25 303.660003662
577621 4180957.5 303.25
577621.25 4180953 304.230010986
577621.25 4180956 304.029998779
577621.25 4180957.5 303.25
577621.4375 4180951.25 304.369995117
577621.4375 4180953.25 304.350006104
577621.4375 4180953.5 303.109985352
577621.625 4180950.5 303.220001221
577621.625 4180950.75 303.140014648
577621.625 4180951.5 304.059997559
577621.625 4180952 304.630004883
577621.625 4180953.25 304.25
577621.625 4180953.5 303.390014648
577621.625 4180957.75 304.420013428
577621.8125 4180953.25 304.489990234
577621.8125 4180953.5 303.149993896
577621.8125 4180957.5 303.359985352
577621.8125 4180957.75 304.570007324
577621.8125 4180958 304.109985352
577622 4180951 304.670013428
577622 4180951.25 304.760009766
577622 4180951.75 304.779998779
577622 4180952 304.799987793
577622 4180952.25 304.820007324
577622 4180952.5 304.850006104
577622 4180952.5 304.850006104
577622 4180953.25 304.450012207
577622 4180953.5 304.100006104
577622 4180960 305.559997559
577622 4180960.25 305.450012207
577622 4180960.5 305.429992676
577622 4180960.75 305.489990234
577622 4180961.75 305.649993896
577622 4180962.25 305.350006104
577622.1875 4180950.75 304.369995117
577622.1875 4180951 304.429992676
577622.1875 4180951.25 304.390014648
577622.1875 4180951.5 304.269989014
577622.1875 4180952.75 304.070007324
577622.1875 4180953 304.260009766
577622.1875 4180953.25 304.089996338
577622.1875 4180953.5 303.989990234
577622.1875 4180953.5 304.089996338
577622.1875 4180954.25 304.609985352
577622.1875 4180960.5 305.630004883
577622.1875 4180961.75 305.399993896
577622.1875 4180962 305.540008545
577622.4375 4180951.25 304.230010986
577622.4375 4180951.75 304.649993896
577622.4375 4180962 304.440002441
577622.625 4180950.25 304.440002441
577622.625 4180950.75 304.929992676
577622.625 4180954.75 304.190002441
577622.625 4180955.25 303.339996338
577622.8125 4180953 303.940002441
577622.8125 4180953.5 304.339996338
577622.8125 4180954.25 304.839996338
577622.8125 4180962 305
577622.8125 4180962.75 305.709991455
