# .PCD v.7 - Point Cloud Data file format
VERSION .7
FIELDS x y z
SIZE 4 4 4
TYPE F F F
COUNT 1 1 1
WIDTH 2020
HEIGHT 1
VIEWPOINT 0 0 0 1 0 0 0
POINTS 2020
DATA ascii
577592 4180956 296.04
577592.6 4180956 296.04
577591.2 4180956 296.04
577593 4180956 296.04
577593.2 4180956 296.05
577591.1 4180956 296.04
577593.4 4180956 296.05
577590.1 4180957 296.04
577592 4180957 296.05
577592.8 4180958 296.04
577591.8 4180959 296.04
577591.2 4180960 296.04
577591.6 4180960 296.05
577590.1 4180960 296.04
577591.4 4180960 296.04
577595.4 4180944 296.06
577594.2 4180946 296.06
577594.2 4180946 296.06
577594 4180946 296.06
577594.2 4180946 296.06
577594.4 4180946 296.06
577594 4180947 296.06
577595.6 4180948 296.06
577596 4180948 296.06
577592.6 4180948 296.06
577592.8 4180949 296.06
577595.4 4180949 296.06
577591.4 4180950 296.06
577593.6 4180951 296.06
577591.2 4180952 296.06
577593.4 4180951 296.06
577593.8 4180952 296.06
577593.6 4180952 296.06
577593.8 4180952 296.06
577591.4 4180952 296.06
577593.4 4180952 296.06
577592.4 4180952 296.06
577593.2 4180953 296.06
577594 4180954 296.06
577593.8 4180955 296.06
577594 4180955 296.06
577594.2 4180955 296.06
577592.8 4180956 296.06
577592.6 4180958 296.06
577598.3 4180941 296.08
577600.5 4180941 296.08
577595.4 4180943 296.08
577595.2 4180945 296.08
577597.8 4180946 296.08
577594.4 4180946 296.08
577594 4180946 296.07
577594.4 4180946 296.07
577594.6 4180946 296.08
577593.8 4180946 296.08
577594.6 4180946 296.08
577596.6 4180946 296.07
577593.8 4180947 296.08
577594 4180947 296.08
577594.2 4180947 296.08
577594.4 4180947 296.07
577596.6 4180947 296.08
577595.8 4180948 296.07
577592.4 4180948 296.08
577592.6 4180948 296.07
577592.8 4180948 296.07
577593 4180948 296.08
577592.4 4180948 296.08
577593 4180948 296.07
577592.6 4180949 296.08
577592.8 4180949 296.07
577593 4180949 296.075
577595.4 4180949 296.075
577591.2 4180949 296.07
577595.4 4180950 296.08
577595.6 4180950 296.07
577595.8 4180950 296.07
577596.2 4180950 296.07
577593.4 4180951 296.08
577593.8 4180951 296.07
577593.2 4180952 296.08
577590.2 4180952 296.08
577593.2 4180952 296.08
577593.6 4180952 296.07
577593.4 4180952 296.07
577591.4 4180952 296.08
577593.2 4180952 296.08
577593.4 4180953 296.08
577593.2 4180953 296.07
577591.6 4180954 296.07
577593.8 4180954 296.07
577591.8 4180954 296.08
577594.2 4180954 296.07
577592 4180954 296.08
577592.2 4180955 296.07
577593.2 4180955 296.07
577590.8 4180955 296.07
577593.4 4180955 296.07
577593.6 4180955 296.08
577594.2 4180955 296.07
577591.1 4180956 296.08
577590.1 4180956 296.07
577593 4180956 296.07
577593.2 4180956 296.08
577593.4 4180956 296.08
577590.4 4180956 296.07
577590.8 4180956 296.08
577590.1 4180957 296.08
577592.2 4180957 296.08
577592.4 4180957 296.07
577592.8 4180958 296.07
577591.4 4180961 296.075
577591.6 4180961 296.08
577595 4180944 296.09
577595.2 4180944 296.09
577599.1 4180944 296.09
577599.5 4180944 296.09
577599.1 4180944 296.09
577593.8 4180946 296.09
577594 4180946 296.09
577594.6 4180946 296.09
577593.8 4180946 296.09
577596.6 4180946 296.09
577596.8 4180946 296.09
577596.4 4180946 296.09
577593.8 4180947 296.09
577594.2 4180947 296.09
577594.4 4180947 296.09
577594.6 4180947 296.09
577592.6 4180948 296.09
577595.6 4180948 296.09
577592.4 4180949 296.09
577592.8 4180949 296.09
577596.6 4180949 296.09
577593.6 4180951 296.09
577592 4180952 296.09
577593.2 4180952 296.09
577594 4180952 296.09
577591.4 4180952 296.09
577593.6 4180952 296.09
577591.4 4180952 296.09
577590.2 4180953 296.09
577594 4180954 296.09
577593.2 4180955 296.09
577594.4 4180955 296.09
577592.4 4180955 296.09
577592.6 4180955 296.09
577594.4 4180955 296.09
577593.8 4180956 296.09
577594 4180956 296.09
577593.6 4180956 296.09
577592 4180958 296.09
577596 4180940 296.11
577600.7 4180941 296.11
577594.8 4180944 296.1
577595 4180943 296.11
577595.2 4180943 296.11
577595.4 4180943 296.11
577598.9 4180944 296.1
577599.3 4180943 296.11
577594.6 4180944 296.1
577594.8 4180944 296.1
577595 4180944 296.1
577595.2 4180944 296.11
577598.8 4180944 296.11
577598.9 4180944 296.1
577599.3 4180944 296.1
577593.8 4180946 296.11
577594.2 4180946 296.11
577594.4 4180946 296.1
577594.6 4180946 296.11
577594.8 4180946 296.11
577594.8 4180946 296.11
577593.6 4180947 296.11
577593.8 4180947 296.11
577594 4180947 296.1
577594.2 4180947 296.11
577596.2 4180947 296.11
577596.4 4180947 296.1
577596.6 4180947 296.11
577592.4 4180948 296.1
577592.6 4180948 296.11
577592.8 4180948 296.11
577593 4180948 296.1
577595.8 4180948 296.1
577592.2 4180948 296.11
577593.2 4180948 296.11
577592.2 4180948 296.11
577593.2 4180948 296.1
577594 4180948 296.1
577592.4 4180949 296.11
577593.2 4180949 296.1
577596.2 4180949 296.1
577592.6 4180949 296.11
577593 4180949 296.1
577591.2 4180950 296.1
577595.4 4180950 296.1
577596.4 4180950 296.1
577595.6 4180950 296.11
577596.4 4180950 296.1
577596 4180950 296.1
577596.2 4180950 296.1
577593.4 4180951 296.1
577594 4180951 296.11
577593.2 4180951 296.1
577594 4180952 296.1
577594 4180952 296.11
577593 4180952 296.11
577593.8 4180952 296.1
577593 4180952 296.11
577589.9 4180952 296.1
577593 4180953 296.1033
577593.6 4180952 296.1
577593 4180953 296.1
577593 4180953 296.1
577593.8 4180953 296.1
577593 4180954 296.1
577591.1 4180954 296.11
577594.2 4180954 296.1
577593 4180954 296.11
577594.8 4180954 296.11
577594.4 4180954 296.1
577590.6 4180955 296.1
577593.2 4180955 296.11
577594.4 4180955 296.1
577593.6 4180956 296.1
577593 4180956 296.1
577593.8 4180956 296.11
577594 4180956 296.11
577593.2 4180956 296.11
577593.4 4180956 296.11
577593.6 4180956 296.11
577590.6 4180956 296.1
577590.2 4180957 296.1
577593.8 4180957 296.11
577590.2 4180957 296.11
577592.6 4180958 296.1
577592.8 4180958 296.1
577591.8 4180959 296.1
577592.4 4180960 296.11
577591.6 4180960 296.11
577598.6 4180941 296.12
577595.6 4180944 296.12
577599.1 4180943 296.12
577599.5 4180943 296.12
577594.4 4180944 296.12
577594.6 4180944 296.12
577594.8 4180944 296.12
577595 4180944 296.12
577594 4180946 296.12
577594.8 4180946 296.12
577596.8 4180946 296.12
577593.6 4180946 296.12
577596.4 4180946 296.12
577594.4 4180947 296.12
577594.6 4180947 296.12
577596.2 4180947 296.12
577596.4 4180947 296.12
577596.8 4180947 296.12
577592.4 4180948 296.12
577593 4180948 296.12
577593.2 4180948 296.12
577595.6 4180948 296.12
577595.8 4180948 296.12
577596 4180948 296.12
577595.4 4180948 296.12
577596.2 4180948 296.12
577596.2 4180950 296.12
577596.4 4180950 296.12
577595.4 4180950 296.12
577593.6 4180950 296.12
577595.8 4180950 296.12
577596.4 4180950 296.12
577593 4180952 296.12
577593.8 4180952 296.12
577594 4180954 296.12
577594.2 4180954 296.12
577591.6 4180954 296.12
577593 4180954 296.12
577593.2 4180955 296.12
577593 4180956 296.12
577593.4 4180956 296.12
577594.4 4180956 296.12
577593.2 4180956 296.12
577593.6 4180956 296.12
577594.2 4180956 296.12
577591.1 4180956 296.12
577592.4 4180958 296.12
577590.4 4180958 296.12
577592.6 4180959 296.12
577591.1 4180962 296.12
577594.4 4180944 296.13
577598.8 4180944 296.13
577595.4 4180944 296.13
577599.8 4180944 296.13
577598.6 4180944 296.13
577598.8 4180944 296.13
577598.9 4180944 296.13
577594.4 4180946 296.13
577593.6 4180946 296.13
577594.8 4180946 296.13
577596.6 4180946 296.13
577596.9 4180946 296.13
577596.9 4180946 296.13
577596.2 4180946 296.13
577594.8 4180947 296.13
577593.8 4180947 296.13
577596 4180948 296.13
577593.2 4180948 296.13
577592.8 4180949 296.13
577593 4180949 296.13
577593.2 4180949 296.13
577591.6 4180950 296.13
577593.4 4180950 296.13
577593.8 4180950 296.13
577596.2 4180950 296.13
577591.6 4180951 296.13
577594 4180951 296.13
577594.6 4180952 296.13
577594 4180952 296.13
577591.8 4180952 296.13
577593.8 4180952 296.13
577591.6 4180953 296.13
577593 4180955 296.13
577592.8 4180955 296.13
577593.2 4180956 296.13
577593.4 4180956 296.13
577590.2 4180956 296.13
577593.6 4180956 296.13
577593.8 4180956 296.13
577593.2 4180956 296.13
577593.8 4180956 296.13
577592 4180958 296.13
577592.8 4180958 296.13
577596.6 4180940 296.14
577596.4 4180941 296.14
577598.9 4180943 296.14
577599.8 4180943 296.14
577599.9 4180944 296.14
577598.6 4180944 296.14
577595.2 4180944 296.14
577599.1 4180944 296.14
577594.2 4180946 296.14
577594.6 4180946 296.14
577593.4 4180946 296.14
577593.4 4180946 296.14
577593.4 4180947 296.14
577594.6 4180947 296.14
577594.8 4180947 296.14
577596 4180947 296.14
577593.6 4180947 296.14
577594 4180947 296.14
577596 4180947 296.14
577596.2 4180947 296.14
577595.8 4180948 296.14
577592.4 4180948 296.14
577592.6 4180948 296.14
577592.8 4180948 296.14
577593 4180948 296.14
577593.2 4180948 296.14
577592.2 4180949 296.14
577591.4 4180949 296.14
577592.4 4180949 296.14
577591.6 4180950 296.14
577592 4180950 296.14
577596 4180950 296.14
577591.6 4180951 296.14
577593 4180952 296.14
577594.2 4180952 296.14
577593.8 4180952 296.14
577589.7 4180954 296.14
577591.8 4180954 296.14
577592 4180954 296.14
577594.4 4180954 296.14
577592.2 4180955 296.14
577593 4180955 296.14
577594.6 4180955 296.14
577592.6 4180955 296.14
577593 4180955 296.14
577593.4 4180955 296.14
577594.6 4180955 296.14
577591.1 4180956 296.14
577593.8 4180956 296.14
577594 4180956 296.14
577592.2 4180958 296.14
577591.8 4180959 296.14
577590.1 4180961 296.14
577597.2 4180942 296.15
577595.2 4180943 296.15
577595.4 4180943 296.15
577595.6 4180943 296.15
577594.2 4180944 296.15
577595.6 4180944 296.15
577594.6 4180944 296.15
577594.8 4180944 296.15
577598.3 4180944 296.15
577598.6 4180944 296.15
577599.3 4180944 296.15
577594 4180946 296.15
577594.8 4180946 296.15
577593.4 4180946 296.15
577595 4180946 296.15
577596.9 4180946 296.15
577596.2 4180946 296.15
577595 4180946 296.15
577596.9 4180946 296.15
577596 4180947 296.15
577593.4 4180947 296.15
577593.2 4180948 296.15
577593.4 4180948 296.15
577593.6 4180948 296.15
577596.2 4180948 296.15
577593.4 4180948 296.15
577595.6 4180948 296.15
577593.4 4180948 296.15
577592 4180948 296.15
577593.4 4180948 296.15
577592 4180949 296.15
577593.2 4180949 296.15
577595.2 4180949 296.15
577596.4 4180949 296.15
577595.4 4180950 296.15
577591.6 4180950 296.15
577593.4 4180950 296.15
577593.6 4180950 296.15
577595.6 4180950 296.15
577596.6 4180950 296.15
577593.2 4180951 296.15
577594.2 4180951 296.15
577591.6 4180951 296.15
577594.2 4180952 296.15
577594 4180952 296.15
577594.4 4180952 296.15
577592.9 4180953 296.15
577594 4180953 296.15
577594.2 4180954 296.15
577592.4 4180955 296.15
577594.6 4180955 296.15
577592.8 4180955 296.15
577594.4 4180956 296.15
577590.4 4180956 296.15
577594.2 4180956 296.15
577592.8 4180959 296.15
577590.2 4180959 296.15
577598.8 4180941 296.16
577596 4180944 296.16
577598.3 4180944 296.16
577599.9 4180944 296.16
577594.2 4180944 296.16
577594.4 4180944 296.16
577595 4180944 296.16
577598.1 4180944 296.16
577598.8 4180944 296.16
577598.1 4180944 296.16
577595.2 4180945 296.16
577594.6 4180946 296.16
577593.6 4180946 296.16
577593.2 4180946 296.16
577593.2 4180947 296.16
577595 4180947 296.16
577595.6 4180947 296.16
577596.6 4180947 296.16
577596.8 4180947 296.16
577593.2 4180947 296.16
577594.4 4180947 296.16
577595.8 4180947 296.16
577596.4 4180947 296.16
577592.6 4180948 296.16
577593 4180948 296.16
577593.8 4180948 296.16
577593.6 4180948 296.16
577595.4 4180948 296.16
577593.4 4180949 296.16
577595.2 4180949 296.16
577593 4180950 296.16
577593.2 4180950 296.16
577595.2 4180950 296.16
577591.6 4180950 296.16
577596.6 4180950 296.16
577594 4180950 296.16
577595.8 4180950 296.16
577591.6 4180952 296.16
577593 4180952 296.16
577592.8 4180952 296.16
577592.8 4180953 296.16
577594.4 4180954 296.16
577594.6 4180954 296.16
577590.2 4180956 296.16
577594.6 4180956 296.16
577594 4180956 296.16
577592 4180958 296.16
577591.6 4180962 296.16
577595 4180943 296.17
577594.2 4180944 296.17
577598.8 4180943 296.17
577600.1 4180944 296.17
577595.8 4180944 296.17
577595.4 4180944 296.17
577598.1 4180944 296.17
577599.5 4180944 296.17
577598.3 4180944 296.17
577593.8 4180946 296.17
577594.8 4180946 296.17
577595 4180946 296.17
577593.2 4180946 296.17
577593.4 4180946 296.17
577596.8 4180946 296.17
577593.2 4180946 296.17
577596 4180946 296.17
577594.8 4180947 296.17
577595.8 4180947 296.17
577596.8 4180947 296.17
577593 4180947 296.17
577592.4 4180948 296.17
577594 4180948 296.17
577595.6 4180948 296.17
577592 4180949 296.17
577595.2 4180949 296.17
577592.2 4180949 296.17
577592.8 4180950 296.17
577591.6 4180950 296.17
577593.2 4180950 296.17
577593.4 4180950 296.17
577594.2 4180951 296.17
577592.8 4180952 296.17
577594.2 4180952 296.17
577594 4180952 296.17
577594 4180953 296.17
577592.8 4180953 296.17
577594.2 4180954 296.17
577590.4 4180955 296.17
577594 4180956 296.17
577594 4180957 296.17
577592.4 4180958 296.17
577592.8 4180959 296.17
577592.8 4180960 296.17
577596.2 4180941 296.18
577601.1 4180941 296.18
577599.1 4180943 296.18
577599.3 4180943 296.18
577596.2 4180944 296.18
577599.8 4180944 296.18
577600.1 4180944 296.18
577597.9 4180944 296.18
577598.9 4180944 296.18
577594.6 4180944 296.18
577594.8 4180944 296.18
577597.9 4180944 296.18
577598.6 4180944 296.18
577594.2 4180946 296.18
577593.2 4180946 296.18
577595.2 4180946 296.18
577595.2 4180946 296.18
577593 4180946 296.18
577595.2 4180946 296.18
577593 4180947 296.18
577595.8 4180947 296.18
577592.8 4180947 296.18
577594.6 4180947 296.18
577595.6 4180947 296.18
577593.6 4180948 296.18
577595.4 4180948 296.18
577595.2 4180948 296.18
577592.4 4180949 296.18
577593.4 4180949 296.18
577596.4 4180949 296.18
577591.6 4180950 296.18
577593.2 4180950 296.18
577595.2 4180950 296.18
577595.4 4180950 296.18
577595.6 4180950 296.18
577591.6 4180952 296.18
577593 4180951 296.18
577593.2 4180952 296.18
577594.4 4180952 296.18
577595 4180952 296.18
577593.2 4180952 296.18
577594.2 4180952 296.18
577594 4180952 296.18
577591.6 4180953 296.18
577592.8 4180954 296.18
577590.8 4180954 296.18
577592.8 4180955 296.18
577594.6 4180956 296.18
577594.4 4180956 296.18
577594 4180956 296.18
577594 4180957 296.18
577594 4180957 296.18
577592 4180958 296.18
577592.6 4180958 296.18
577592.8 4180959 296.18
577591.8 4180960 296.18
577592.8 4180959 296.18
577591.1 4180962 296.18
577594.8 4180943 296.19
577596 4180943 296.19
577599.5 4180943 296.19
577596 4180944 296.19
577598.1 4180944 296.19
577594.2 4180944 296.19
577595.6 4180944 296.19
577595 4180944 296.19
577598.1 4180944 296.19
577594.4 4180945 296.19
577594.6 4180945 296.19
577593.6 4180946 296.19
577594 4180946 296.19
577595 4180946 296.19
577595.6 4180946 296.19
577595.2 4180946 296.19
577596.2 4180946 296.19
577596.6 4180946 296.19
577597.2 4180946 296.19
577595 4180946 296.19
577596 4180946 296.19
577592.8 4180947 296.19
577593 4180947 296.19
577595 4180947 296.19
577595.2 4180947 296.19
577595.6 4180947 296.19
577595.8 4180947 296.19
577594.2 4180948 296.19
577593.6 4180948 296.19
577593.8 4180948 296.19
577595.2 4180948 296.19
577591.8 4180949 296.19
577591.6 4180949 296.19
577592.2 4180949 296.19
577593.4 4180949 296.19
577591.6 4180950 296.19
577593 4180950 296.19
577593.4 4180950 296.19
577593.2 4180950 296.19
577594 4180950 296.19
577596.6 4180950 296.19
577594.4 4180951 296.19
577592.8 4180952 296.19
577594.4 4180952 296.19
577594.2 4180953 296.19
577591.1 4180954 296.19
577592.8 4180954 296.19
577595.6 4180954 296.19
577595.6 4180954 296.19
577592.6 4180955 296.19
577592.8 4180955 296.19
577592.2 4180958 296.19
577590.1 4180960 296.19
577598.9 4180941 296.2
577599.5 4180942 296.2
577598.3 4180944 296.2
577600.1 4180943 296.2
577600.3 4180944 296.2
577597.8 4180944 296.2
577599.8 4180944 296.2
577594.4 4180944 296.2
577597.8 4180944 296.2
577594.6 4180944 296.2
577598.3 4180944 296.2
577594.8 4180945 296.2
577593.4 4180946 296.2
577597.2 4180946 296.2
577595.4 4180946 296.2
577595.8 4180946 296.2
577593.6 4180947 296.2
577595.2 4180947 296.2
577594.8 4180947 296.2
577595.4 4180947 296.2
577594.4 4180948 296.2
577596.4 4180948 296.2
577595.2 4180948 296.2
577591.8 4180949 296.2
577592 4180949 296.2
577592.6 4180950 296.2
577593.4 4180950 296.2
577593.2 4180950 296.2
577593.4 4180950 296.2
577596.6 4180950 296.2
577593.2 4180950 296.2
577593.6 4180950 296.2
577595.2 4180950 296.2
577593.2 4180950 296.2
577594.2 4180950 296.2
577595.8 4180950 296.2
577596.6 4180950 296.2
577596.8 4180950 296.2
577596.2 4180951 296.2
577593 4180951 296.2
577594.4 4180951 296.2
577591.6 4180952 296.2
577594.4 4180952 296.2
577594.2 4180952 296.2
577594.4 4180953 296.2
577595.6 4180953 296.2
577591.8 4180954 296.2
577592.8 4180954 296.2
577592.8 4180954 296.2
577592 4180954 296.2
577594.6 4180954 296.2
577592.8 4180954 296.2
577590.6 4180955 296.2
577594.8 4180955 296.2
577593 4180955 296.2
577590.6 4180956 296.2
577592 4180958 296.2
577591.6 4180962 296.2
577596 4180941 296.21
577597.6 4180942 296.21
577598.9 4180943 296.21
577596.4 4180944 296.21
577598.6 4180943 296.21
577596.2 4180944 296.21
577600.3 4180944 296.21
577595.4 4180944 296.21
577597.8 4180944 296.21
577599.1 4180944 296.21
577599.3 4180944 296.21
577594.2 4180944 296.21
577594.4 4180944 296.21
577594.8 4180944 296.21
577597.8 4180944 296.21
577597.9 4180945 296.21
577594.6 4180945 296.21
577594.8 4180945 296.21
577594.2 4180945 296.21
577595 4180945 296.21
577593.8 4180946 296.21
577595.2 4180946 296.21
577596.9 4180946 296.21
577595.4 4180946 296.21
577595.4 4180946 296.21
577595.8 4180946 296.21
577595.6 4180946 296.21
577595.2 4180947 296.21
577595.4 4180947 296.21
577595.6 4180947 296.21
577596.9 4180947 296.21
577595 4180947 296.21
577595.2 4180947 296.21
577595.2 4180948 296.21
577593.8 4180948 296.21
577594 4180948 296.21
577595.2 4180948 296.21
577593.6 4180948 296.21
577592.8 4180950 296.21
577593 4180950 296.21
577593.4 4180950 296.21
577595.4 4180950 296.21
577596.8 4180950 296.21
577594.4 4180951 296.21
577596 4180951 296.21
577596.4 4180951 296.21
577594.2 4180952 296.21
577595.6 4180953 296.21
577595.8 4180953 296.21
577596 4180953 296.21
577596.2 4180953 296.21
577594.2 4180953 296.21
577594.4 4180954 296.21
577592.8 4180954 296.21
577594.8 4180954 296.21
577592.4 4180955 296.21
577594.2 4180955 296.21
577594.2 4180956 296.21
577594.4 4180956 296.21
577591.6 4180960 296.21
577597.4 4180942 296.22
577597.8 4180942 296.22
577595.8 4180943 296.22
577596.2 4180943 296.22
577596.4 4180943 296.22
577597.9 4180944 296.22
577599.9 4180944 296.22
577595.2 4180944 296.22
577598.8 4180944 296.22
577594.6 4180945 296.22
577594.8 4180945 296.22
577595 4180944 296.22
577597.8 4180945 296.22
577598.1 4180945 296.22
577594.4 4180945 296.22
577594.6 4180945 296.22
577594.8 4180945 296.22
577594 4180945 296.22
577593.6 4180946 296.22
577595.2 4180946 296.22
577597.2 4180946 296.22
577595.4 4180946 296.22
577596 4180946 296.22
577596.4 4180946 296.22
577597.2 4180946 296.22
577593.6 4180946 296.22
577594.6 4180948 296.22
577595.4 4180948 296.22
577596.8 4180948 296.22
577593.6 4180949 296.22
577594 4180949 296.22
577593.6 4180950 296.22
577595.6 4180950 296.22
577593 4180951 296.22
577596.6 4180951 296.22
577592.8 4180952 296.22
577594.6 4180952 296.22
577594.6 4180952 296.22
577591.6 4180952 296.22
577594.6 4180952 296.22
577591.6 4180953 296.22
577592.6 4180953 296.22
577593.6 4180952 296.22
577594.4 4180952 296.22
577595.4 4180953 296.22
577595.6 4180952 296.22
577595.8 4180952 296.22
577595.4 4180953 296.22
577595.4 4180953 296.22
577594.4 4180954 296.22
577595.4 4180954 296.22
577594.6 4180954 296.22
577595.6 4180954 296.22
577594.2 4180956 296.22
577594.2 4180958 296.22
577592.4 4180958 296.22
577592 4180958 296.22
577592.6 4180960 296.22
577597.9 4180942 296.23
577595.6 4180943 296.23
577598.6 4180943 296.23
577596.6 4180944 296.23
577600.5 4180944 296.23
577596.4 4180944 296.23
577597.6 4180944 296.23
577594.2 4180944 296.23
577594.4 4180945 296.23
577594.2 4180945 296.23
577594.4 4180945 296.23
577595 4180945 296.23
577596.8 4180946 296.23
577595.6 4180946 296.23
577595.8 4180946 296.23
577596.6 4180947 296.23
577594.8 4180948 296.23
577595 4180948 296.23
577594.2 4180948 296.23
577593.6 4180949 296.23
577596.6 4180949 296.23
577592 4180949 296.23
577593 4180950 296.23
577593.8 4180950 296.23
577596 4180950 296.23
577596.8 4180950 296.23
577594 4180950 296.23
577594.2 4180950 296.23
577594.4 4180950 296.23
577595.8 4180951 296.23
577594.6 4180951 296.23
577591.1 4180952 296.23
577592.6 4180952 296.23
577594.6 4180952 296.23
577594.6 4180952 296.23
577595.2 4180952 296.23
577595.4 4180952 296.23
577595.6 4180952 296.23
577596 4180952 296.23
577592.2 4180953 296.23
577594.6 4180954 296.23
577595.4 4180954 296.23
577595.4 4180954 296.23
577592.6 4180955 296.23
577595 4180955 296.23
577590.8 4180956 296.23
577594.8 4180956 296.23
577594.2 4180956 296.23
577590.2 4180957 296.23
577592.2 4180958 296.23
577592 4180959 296.23
577591.8 4180960 296.23
577592.6 4180961 296.23
577598.9 4180940 296.24
577599.1 4180941 296.24
577599.5 4180941 296.24
577597.2 4180942 296.24
577595.2 4180943 296.24
577595.8 4180943 296.24
577598.8 4180943 296.24
577598.1 4180944 296.24
577600.3 4180943 296.24
577596.6 4180944 296.24
577597.8 4180944 296.24
577600.5 4180944 296.24
577595.6 4180944 296.24
577596 4180944 296.24
577597.6 4180944 296.24
577597.6 4180944 296.24
577595 4180945 296.24
577598.6 4180944 296.24
577595 4180945 296.24
577597.8 4180945 296.24
577597.9 4180945 296.24
577594.4 4180946 296.24
577595.4 4180946 296.24
577596.2 4180946 296.24
577593.8 4180948 296.24
577596.4 4180948 296.24
577593.6 4180949 296.24
577595 4180949 296.24
577592.4 4180950 296.24
577593.6 4180950 296.24
577595 4180950 296.24
577593.6 4180950 296.24
577595 4180950 296.24
577593 4180950 296.24
577595.2 4180950 296.24
577595.4 4180950 296.24
577596.8 4180951 296.24
577596 4180951 296.24
577596.4 4180951 296.24
577592.8 4180952 296.24
577594.8 4180952 296.24
577594.8 4180952 296.24
577591.6 4180952 296.24
577594.8 4180952 296.24
577595 4180952 296.24
577595.2 4180952 296.24
577595.4 4180952 296.24
577591.6 4180952 296.24
577594.4 4180953 296.24
577594.6 4180952 296.24
577594.8 4180952 296.24
577595 4180952 296.24
577595.2 4180952 296.24
577596.2 4180952 296.24
577592.6 4180953 296.24
577594.4 4180953 296.24
577595.2 4180953 296.24
577595.2 4180953 296.24
577595.2 4180954 296.24
577594.2 4180954 296.24
577594.8 4180954 296.24
577595.4 4180954 296.24
577595 4180954 296.24
577594.4 4180956 296.24
577594.2 4180957 296.24
577594.2 4180957 296.24
577592.6 4180960 296.24
577591.6 4180960 296.24
577602.1 4180941 296.25
577598.6 4180942 296.25
577596.6 4180943 296.25
577600.1 4180944 296.25
577595.4 4180944 296.25
577594.2 4180945 296.25
577595.2 4180944 296.25
577597.6 4180944 296.25
577594.2 4180945 296.25
577597.2 4180946 296.25
577597.4 4180946 296.25
577595.6 4180946 296.25
577596.4 4180947 296.25
577594.4 4180948 296.25
577595 4180948 296.25
577595 4180949 296.25
577596.4 4180949 296.25
577595 4180949 296.25
577596.6 4180950 296.25
577592.6 4180950 296.25
577592.8 4180950 296.25
577595 4180950 296.25
577593 4180950 296.25
577594.4 4180950 296.25
577595 4180950 296.25
577596.9 4180950 296.25
577594.6 4180951 296.25
577595.6 4180951 296.25
577595.8 4180951 296.25
577596.6 4180951 296.25
577594.8 4180952 296.25
577592.6 4180952 296.25
577595.2 4180952 296.25
577595.6 4180952 296.25
577595.8 4180952 296.25
577594.6 4180953 296.25
577594.8 4180953 296.25
577596 4180952 296.25
577596.4 4180952 296.25
577594.6 4180953 296.25
577595 4180953 296.25
577592.6 4180953 296.25
577594.6 4180954 296.25
577595.2 4180954 296.25
577592 4180954 296.25
577594.8 4180954 296.25
577595.2 4180954 296.25
577595 4180954 296.25
577595.2 4180954 296.25
577595.2 4180954 296.25
577595.4 4180954 296.25
577595.6 4180954 296.25
577590.4 4180956 296.25
577594.6 4180956 296.25
577594.2 4180957 296.25
577592.6 4180961 296.25
577592.2 4180962 296.25
577596.8 4180940 296.27
577596.9 4180940 296.26
577599.8 4180940 296.27
577598.1 4180940 296.26
577597.4 4180941 296.27
577599.3 4180941 296.27
577598.1 4180942 296.26
577595 4180943 296.26
577596 4180943 296.26
577596.4 4180943 296.26
577599.3 4180943 296.27
577596.8 4180944 296.26
577597.9 4180944 296.27
577598.3 4180943 296.26
577600.5 4180943 296.27
577600.9 4180944 296.27
577596.8 4180944 296.26
577596.9 4180944 296.27
577597.2 4180944 296.27
577597.4 4180944 296.27
577597.6 4180944 296.26
577600.7 4180944 296.26
577600.9 4180944 296.27
577596.2 4180944 296.26
577597.2 4180944 296.27
577597.4 4180944 296.26
577598.3 4180944 296.26
577599.5 4180944 296.27
577600.3 4180944 296.26
577598.9 4180944 296.26
577595.8 4180944 296.26
577597.6 4180945 296.26
577597.9 4180944 296.26
577595.2 4180945 296.265
577597.6 4180945 296.26
577598.1 4180945 296.27
577597.4 4180945 296.27
577597.6 4180945 296.27
577595.4 4180946 296.26
577596.6 4180946 296.26
577596.9 4180946 296.27
577597.4 4180946 296.26
577595.8 4180946 296.26
577596 4180946 296.26
577597.4 4180946 296.27
577597.2 4180946 296.27
577594.6 4180948 296.26
577594.8 4180948 296.26
577595 4180948 296.26
577595.4 4180948 296.27
577596.4 4180948 296.26
577593.8 4180948 296.26
577595 4180948 296.26
577596.2 4180948 296.26
577595 4180948 296.26
577595.4 4180948 296.27
577596.4 4180948 296.27
577595 4180949 296.26
577592.2 4180950 296.26
577591.8 4180950 296.26
577592.6 4180950 296.27
577593.8 4180950 296.26
577594.8 4180950 296.26
577596.8 4180950 296.27
577594 4180950 296.26
577594.2 4180950 296.26
577594.6 4180950 296.26
577594.8 4180950 296.27
577595 4180950 296.265
577595.2 4180950 296.26
577596.9 4180950 296.27
577594.8 4180951 296.27
577595.4 4180951 296.26
577596.9 4180951 296.26
577594.6 4180951 296.26
577594.8 4180951 296.26
577595.6 4180951 296.26
577596.8 4180951 296.27
577592.8 4180951 296.27
577594.8 4180951 296.26
577595 4180952 296.27
577595.2 4180952 296.27
577596.4 4180951 296.27
577592.6 4180952 296.27
577595 4180952 296.26
577595.2 4180952 296.26
577595.4 4180952 296.27
577595.6 4180952 296.27
577595.4 4180952 296.26
577595.6 4180952 296.26
577595.8 4180952 296.27
577596 4180952 296.26
577596.2 4180952 296.26
577596.4 4180952 296.27
577596.6 4180952 296.26
577594.8 4180953 296.26
577594.6 4180953 296.26
577594.8 4180953 296.26
577592.6 4180954 296.27
577594.4 4180954 296.26
577594.8 4180954 296.27
577595 4180954 296.2667
577595 4180954 296.26
577592.4 4180954 296.27
577592.6 4180954 296.26
577595.2 4180955 296.27
577595.4 4180955 296.27
577595.6 4180955 296.27
577595.8 4180955 296.27
577590.2 4180956 296.26
577594.8 4180956 296.26
577594.4 4180956 296.27
577592.2 4180958 296.26
577592.4 4180958 296.26
577594.4 4180958 296.26
577592 4180959 296.27
577592.6 4180959 296.27
577592.6 4180960 296.265
577591.8 4180960 296.27
577592.6 4180961 296.27
577592.8 4180962 296.27
577592.6 4180962 296.27
577597.4 4180941 296.28
577598.8 4180941 296.28
577598.1 4180942 296.28
577596 4180942 296.28
577599.1 4180943 296.28
577596.9 4180944 296.28
577595.8 4180944 296.28
577596.4 4180944 296.28
577596.9 4180944 296.28
577600.5 4180944 296.28
577597.4 4180944 296.28
577595.4 4180945 296.28
577596.4 4180946 296.28
577594 4180948 296.28
577594.2 4180948 296.28
577594.8 4180948 296.28
577596.4 4180948 296.28
577596.4 4180948 296.28
577593.8 4180948 296.28
577593.8 4180950 296.28
577594.8 4180950 296.28
577594.4 4180950 296.28
577594.8 4180950 296.28
577595 4180951 296.28
577595 4180951 296.28
577595.2 4180951 296.28
577595.4 4180951 296.28
577595 4180951 296.28
577595.2 4180952 296.28
577595.4 4180952 296.28
577595.6 4180952 296.28
577595.8 4180952 296.28
577596 4180952 296.28
577596.2 4180952 296.28
577596 4180952 296.28
577596 4180952 296.28
577596.2 4180952 296.28
577596.6 4180952 296.28
577591.8 4180953 296.28
577592.6 4180954 296.28
577592.6 4180954 296.28
577590.6 4180955 296.28
577594.6 4180956 296.28
577594.8 4180956 296.28
577594.4 4180958 296.28
577591.6 4180961 296.28
577591.8 4180962 296.28
577592 4180963 296.28
577598.8 4180940 296.3
577599.5 4180940 296.29
577599.5 4180941 296.3
577598.3 4180942 296.29
577597.2 4180942 296.29
577596.2 4180943 296.3
577598.6 4180943 296.29
577598.9 4180943 296.3
577596.8 4180943 296.29
577597.4 4180944 296.3
577597.6 4180944 296.3
577597.8 4180944 296.29
577598.1 4180943 296.3
577600.7 4180943 296.29
577601.3 4180944 296.3
577596.6 4180944 296.29
577596.8 4180944 296.29
577597.2 4180944 296.29
577599.8 4180944 296.3
577600.7 4180944 296.29
577600.9 4180944 296.29
577595.6 4180944 296.29
577595.4 4180944 296.295
577597.4 4180944 296.295
577598.8 4180944 296.29
577595.4 4180945 296.3
577597.4 4180945 296.295
577597.2 4180945 296.29
577597.8 4180945 296.3
577595.6 4180946 296.3
577595.8 4180946 296.29
577596 4180946 296.3
577596.2 4180946 296.3
577596.8 4180946 296.3
577597.6 4180946 296.29
577597.4 4180946 296.3
577596.9 4180947 296.29
577596.6 4180948 296.3
577594 4180948 296.3
577594.4 4180948 296.29
577594.6 4180948 296.3
577593.8 4180949 296.295
577593.8 4180949 296.3
577597.9 4180949 296.29
577593.8 4180950 296.29
577592.4 4180950 296.29
577594 4180950 296.295
577594.8 4180950 296.3
577592.8 4180950 296.29
577594.2 4180950 296.29
577594.6 4180950 296.29
577597.2 4180950 296.295
577597.2 4180951 296.29
577597.8 4180951 296.3
577592.8 4180951 296.29
577596.9 4180951 296.29
577597.2 4180951 296.3
577597.4 4180951 296.3
577597.6 4180951 296.29
577592.4 4180952 296.29
577592.6 4180952 296.3
577595.2 4180951 296.29
577596.2 4180952 296.29
577597.4 4180952 296.2933
577596.2 4180952 296.3
577596.2 4180952 296.29
577592.4 4180952 296.295
577595.8 4180952 296.29
577592 4180954 296.3
577592.6 4180954 296.29
577592.6 4180954 296.3
577592.6 4180954 296.29
577595.4 4180955 296.29
577594.4 4180957 296.3
577590.1 4180957 296.3
577594.8 4180958 296.3
577592.2 4180958 296.29
577592.4 4180958 296.29
577592 4180959 296.29
577592.4 4180960 296.3
577592.4 4180960 296.3
577592.6 4180962 296.2933
577591.8 4180962 296.3
577602.1 4180940 296.31
577599.9 4180942 296.31
577596.6 4180943 296.31
577599.5 4180943 296.31
577600.9 4180943 296.31
577601.1 4180943 296.31
577595.2 4180944 296.31
577596 4180944 296.31
577600.9 4180944 296.31
577599.1 4180944 296.31
577595.4 4180945 296.31
577597.8 4180945 296.31
577594 4180948 296.31
577594.8 4180950 296.31
577594.4 4180950 296.31
577594.6 4180950 296.31
577596.9 4180950 296.31
577592.6 4180950 296.31
577592.8 4180950 296.31
577596 4180950 296.31
577597.9 4180950 296.31
577598.1 4180950 296.31
577592.8 4180951 296.31
577597.6 4180951 296.31
577596.9 4180951 296.31
577597.2 4180951 296.31
577596.4 4180952 296.31
577596.4 4180952 296.31
577596.6 4180952 296.31
577591.8 4180953 296.31
577592.4 4180953 296.31
577595.6 4180955 296.31
577595.8 4180955 296.31
577596 4180955 296.31
577594.8 4180956 296.31
577595 4180957 296.31
577594.6 4180958 296.31
577594.8 4180958 296.31
577592.2 4180958 296.31
577592 4180960 296.31
577592.4 4180960 296.31
577592.4 4180961 296.31
577592.2 4180963 296.31
577599.3 4180940 296.33
577601.9 4180940 296.32
577599.8 4180941 296.33
577596.6 4180942 296.33
577598.8 4180943 296.33
577600.3 4180943 296.32
577596.9 4180943 296.32
577598.6 4180944 296.32
577601.3 4180943 296.32
577601.5 4180943 296.33
577596.2 4180944 296.33
577596.9 4180944 296.32
577599.9 4180944 296.32
577595.8 4180944 296.33
577597.2 4180944 296.32
577595.6 4180944 296.33
577597.2 4180945 296.33
577598.3 4180945 296.33
577595.6 4180945 296.32
577595.8 4180946 296.33
577596.6 4180946 296.33
577597.6 4180946 296.32
577596.8 4180946 296.32
577599.9 4180947 296.325
577594.2 4180948 296.32
577594.4 4180948 296.33
577595 4180948 296.32
577598.9 4180948 296.32
577594.8 4180948 296.33
577599.1 4180948 296.33
577598.8 4180949 296.33
577594.8 4180949 296.33
577592.2 4180950 296.32
577594.2 4180950 296.32
577594.4 4180950 296.33
577594.6 4180950 296.32
577596.8 4180950 296.32
577592.8 4180950 296.32
577597.2 4180950 296.33
577597.4 4180950 296.32
577591.8 4180951 296.32
577591.8 4180951 296.32
577591.9 4180952 296.32
577592.6 4180952 296.33
577595 4180952 296.33
577596.9 4180952 296.33
577597.2 4180952 296.32
577591.8 4180952 296.32
577597.2 4180952 296.32
577591.8 4180952 296.33
577596.6 4180952 296.32
577596.9 4180952 296.32
577596.4 4180952 296.33
577591.8 4180952 296.33
577592.4 4180953 296.33
577592 4180954 296.33
577594.8 4180954 296.33
577596.2 4180954 296.33
577595.4 4180955 296.32
577595.2 4180956 296.33
577595.6 4180956 296.33
577594.8 4180956 296.33
577595 4180956 296.33
577595.2 4180956 296.32
577594.6 4180957 296.33
577595 4180957 296.33
577594.4 4180957 296.32
577595 4180957 296.32
577594.8 4180958 296.33
577594.8 4180958 296.32
577592.2 4180959 296.33
577592.4 4180960 296.33
577592 4180960 296.33
577593.8 4180960 296.33
577591.8 4180962 296.33
577592.4 4180962 296.33
577598.6 4180940 296.34
577602.3 4180940 296.34
577599.5 4180940 296.34
577600.1 4180941 296.34
577598.6 4180942 296.34
577598.3 4180943 296.34
577599.8 4180943 296.34
577596.4 4180944 296.34
577596.6 4180944 296.34
577596.8 4180944 296.34
577600.1 4180944 296.34
577600.3 4180944 296.34
577600.5 4180944 296.34
577600.9 4180944 296.34
577597.2 4180944 296.34
577595.6 4180946 296.34
577599.8 4180947 296.34
577596.8 4180947 296.34
577594.8 4180949 296.34
577594 4180950 296.34
577594.6 4180950 296.34
577597.6 4180950 296.34
577597.8 4180950 296.34
577592.4 4180954 296.34
577590.6 4180955 296.34
577595.4 4180955 296.34
577596.2 4180955 296.34
577595.2 4180956 296.34
577594.8 4180957 296.34
577592.2 4180959 296.34
577592.4 4180959 296.34
577592.4 4180959 296.34
577591.8 4180960 296.34
577592.4 4180961 296.34
577598.3 4180940 296.36
577596.9 4180941 296.35
577596 4180943 296.36
577596.4 4180943 296.35
577600.5 4180943 296.35
577597.2 4180943 296.35
577597.4 4180943 296.36
577597.8 4180943 296.36
577599.3 4180944 296.35
577597.9 4180944 296.36
577601.1 4180944 296.36
577596 4180944 296.36
577596.9 4180944 296.36
577599.3 4180944 296.35
577595.6 4180945 296.35
577597.2 4180945 296.35
577598.9 4180944 296.36
577600.9 4180944 296.36
577595.6 4180945 296.35
577597.2 4180945 296.35
577595.8 4180945 296.36
577596.8 4180945 296.36
577597.9 4180945 296.36
577596 4180946 296.35
577596.2 4180946 296.36
577597.8 4180946 296.35
577597.4 4180946 296.36
577597.2 4180947 296.35
577599.5 4180947 296.36
577599.8 4180947 296.36
577596.6 4180948 296.36
577598.9 4180948 296.35
577594.2 4180948 296.35
577594.6 4180948 296.36
577594 4180949 296.355
577594 4180949 296.36
577594.8 4180949 296.35
577596.6 4180949 296.36
577594.6 4180950 296.36
577594.2 4180950 296.35
577594.4 4180950 296.36
577598.1 4180950 296.36
577592.6 4180950 296.35
577598.1 4180950 296.36
577597.4 4180950 296.355
577597.9 4180950 296.36
577593.8 4180951 296.35
577592.6 4180951 296.36
577592.2 4180952 296.35
577592.2 4180953 296.35
577592 4180953 296.36
577592.2 4180953 296.36
577592 4180953 296.36
577592.4 4180954 296.35
577592.4 4180954 296.35
577595.8 4180955 296.35
577596 4180955 296.35
577590.4 4180956 296.35
577595.4 4180956 296.36
577590.2 4180957 296.36
577594.6 4180957 296.35
577594.9 4180957 296.35
577594.6 4180958 296.35
577592.2 4180960 296.35
577592.2 4180960 296.35
577592 4180960 296.35
577592.2 4180960 296.36
577592.4 4180961 296.36
577591.8 4180962 296.35
577592 4180962 296.35
577601.5 4180940 296.37
577597.4 4180940 296.37
577599.9 4180940 296.37
577601.7 4180940 296.37
577598.8 4180940 296.37
577598.1 4180941 296.37
577600.7 4180943 296.37
577601.3 4180943 296.37
577601.5 4180943 296.37
577597.6 4180943 296.37
577597.9 4180943 296.37
577600.7 4180944 296.37
577596.9 4180945 296.37
577594.4 4180948 296.37
577594.2 4180948 296.37
577594.6 4180949 296.37
577594.2 4180950 296.37
577596.9 4180950 296.37
577598.1 4180950 296.37
577592.4 4180952 296.37
577592 4180952 296.37
577592 4180952 296.37
577593.2 4180953 296.37
577595 4180953 296.37
577592.2 4180954 296.37
577595.6 4180955 296.37
577596.2 4180955 296.37
577590.6 4180956 296.37
577595.4 4180956 296.37
577595.4 4180956 296.37
577595.6 4180956 296.37
577592 4180960 296.37
577592.2 4180960 296.37
577591.8 4180960 296.37
577591.8 4180962 296.37
577592.4 4180962 296.37
577602.3 4180941 296.38
577598.8 4180942 296.38
577598.1 4180943 296.38
577599.9 4180943 296.38
577600.9 4180943 296.38
577601.1 4180943 296.38
577601.7 4180943 296.38
577596.8 4180944 296.38
577600.7 4180944 296.38
577596.9 4180945 296.38
577596.9 4180945 296.38
577597.6 4180946 296.38
577594.6 4180948 296.38
577595.2 4180949 296.38
577594.4 4180950 296.38
577597.2 4180950 296.38
577592.6 4180950 296.38
577597.6 4180950 296.38
577595.8 4180952 296.38
577592 4180952 296.38
577596 4180955 296.38
577595.8 4180956 296.38
577592.2 4180960 296.38
577592.4 4180962 296.38
577592 4180962 296.38
577599.8 4180940 296.39
577600.1 4180940 296.39
577600.9 4180940 296.39
577600.1 4180941 296.39
577595.8 4180944 296.39
577596.2 4180944 296.39
577595.8 4180945 296.39
577596.9 4180944 296.39
577598.8 4180945 296.39
577600.9 4180945 296.39
577595.8 4180945 296.39
577596 4180945 296.39
577596.6 4180945 296.39
577599.9 4180946 296.39
577596.9 4180947 296.39
577599.8 4180947 296.39
577598.8 4180948 296.39
577594.4 4180948 296.39
577594.2 4180949 296.39
577594.6 4180949 296.39
577594.2 4180949 296.39
577594.6 4180949 296.39
577596.8 4180950 296.39
577598.1 4180950 296.39
577592.6 4180951 296.39
577592.2 4180952 296.39
577595.8 4180955 296.39
577595.6 4180956 296.39
577596.2 4180956 296.39
577594.6 4180959 296.39
577594.4 4180960 296.39
577592 4180960 296.39
577591.8 4180961 296.39
577592.2 4180961 296.39
577592.4 4180962 296.39
577592.2 4180962 296.39
577596.2 4180943 296.4
577596.6 4180943 296.4
577596.9 4180943 296.4
577601.3 4180943 296.4
577601.9 4180943 296.4
577600.7 4180944 296.4
577596.4 4180944 296.4
577599.5 4180944 296.4
577599.1 4180945 296.4
577595.8 4180945 296.4
577596.9 4180945 296.4
577594.2 4180949 296.4
577594.2 4180949 296.4
577594.4 4180949 296.4
577594.6 4180950 296.4
577592.6 4180951 296.4
577596 4180951 296.4
577595.6 4180956 296.4
577591.8 4180961 296.4
577592 4180962 296.4
577599.9 4180941 296.41
577598.9 4180943 296.41
577599.1 4180943 296.41
577597.2 4180944 296.41
577600.5 4180944 296.41
577596 4180944 296.41
577596.8 4180945 296.41
577598.6 4180945 296.41
577601.3 4180945 296.41
577596.2 4180945 296.41
577596.4 4180945 296.41
577596.8 4180948 296.41
577599.1 4180948 296.41
577593.4 4180949 296.41
577594.4 4180949 296.41
577596.6 4180949 296.41
577594.4 4180949 296.41
577595.8 4180956 296.41
577596.2 4180956 296.41
577595.8 4180956 296.41
577596 4180956 296.41
577596.2 4180956 296.41
577592 4180960 296.41
577600.3 4180941 296.42
577598.6 4180942 296.42
577599.3 4180943 296.42
577597.9 4180943 296.42
577600.1 4180943 296.42
577596.8 4180944 296.42
577596 4180945 296.42
577596.6 4180945 296.42
577596.4 4180946 296.42
577596.6 4180948 296.42
577597.6 4180953 296.42
577593.6 4180953 296.42
577595.8 4180956 296.42
577596 4180956 296.42
577592 4180961 296.42
577592.2 4180961 296.42
577602.5 4180940 296.43
577598.9 4180942 296.43
577602.1 4180942 296.43
577597.2 4180943 296.43
577598.3 4180943 296.43
577599.8 4180944 296.43
577596 4180945 296.43
577596.2 4180944 296.43
577600.7 4180944 296.43
577598.3 4180945 296.43
577600.9 4180945 296.43
577599.9 4180947 296.43
577598.1 4180949 296.43
577592.4 4180951 296.43
577594.6 4180960 296.43
577592 4180961 296.43
577592.2 4180961 296.43
577592 4180962 296.43
577599.1 4180940 296.44
577597.6 4180942 296.44
577597.8 4180942 296.44
577597.9 4180942 296.44
577598.8 4180943 296.44
577601.1 4180944 296.44
577600.3 4180944 296.44
577596.6 4180944 296.44
577596.8 4180945 296.44
577596 4180945 296.44
577596.6 4180945 296.44
577596.8 4180945 296.44
577601.1 4180945 296.44
577597.9 4180946 296.44
577597.6 4180947 296.44
577596.8 4180948 296.44
577599.3 4180950 296.44
577597.9 4180950 296.44
577594.6 4180960 296.44
577592 4180961 296.44
577592 4180961 296.44
577592 4180962 296.44
577592.2 4180962 296.44
577597.6 4180940 296.45
577600.1 4180940 296.45
577601.5 4180940 296.45
577600.5 4180941 296.45
577596.8 4180942 296.45
577596.4 4180943 296.45
577599.5 4180943 296.45
577596.8 4180943 296.45
577597.4 4180943 296.45
577597.8 4180943 296.45
577601.5 4180943 296.45
577602.3 4180944 296.45
577599.9 4180944 296.45
577600.1 4180944 296.45
577596.4 4180944 296.45
577596.2 4180945 296.45
577596.4 4180945 296.45
577597.6 4180946 296.45
577597.4 4180946 296.45
577596.9 4180950 296.45
577597.4 4180950 296.45
577597.6 4180954 296.45
577590.4 4180956 296.45
577602.3 4180940 296.46
577597.2 4180943 296.46
577597.6 4180943 296.46
577600.3 4180943 296.46
577601.7 4180943 296.46
577596.2 4180945 296.46
577597.2 4180947 296.46
577596.6 4180948 296.46
577599.3 4180949 296.46
577597.2 4180950 296.46
577597.8 4180950 296.46
577596.4 4180956 296.46
577595 4180959 296.46
577594.8 4180959 296.46
577601.1 4180940 296.47
577598.6 4180943 296.47
577602.1 4180943 296.47
577602.3 4180943 296.47
577596.4 4180945 296.47
577596.6 4180945 296.47
577598.9 4180945 296.47
577600.7 4180945 296.47
577596.2 4180945 296.47
577597.8 4180946 296.47
577599.8 4180947 296.47
577596.6 4180948 296.47
577596.6 4180948 296.47
577596.4 4180956 296.47
577595.2 4180959 296.47
577594.6 4180960 296.47
577594.6 4180960 296.47
577600.7 4180941 296.48
577599.1 4180942 296.48
577598.3 4180942 296.48
577598.1 4180943 296.48
577600.5 4180943 296.48
577600.7 4180943 296.48
577601.1 4180943 296.48
577601.9 4180943 296.48
577596.4 4180945 296.48
577599.5 4180947 296.48
577599.1 4180948 296.48
577599.3 4180949 296.48
577596.9 4180955 296.48
577594.6 4180960 296.48
577601.3 4180942 296.49
577599.8 4180943 296.49
577600.9 4180943 296.49
577602.5 4180944 296.49
577600.5 4180944 296.49
577600.9 4180945 296.49
577601.1 4180945 296.49
577599.8 4180946 296.49
577597.6 4180950 296.49
577593.8 4180950 296.49
577599.3 4180950 296.49
577597.8 4180954 296.49
577597.8 4180954 296.49
577596.9 4180956 296.49
577604.2 4180940 296.5
577600.9 4180941 296.5
577596.9 4180943 296.5
577597.9 4180943 296.5
577602.5 4180944 296.5
577598.8 4180945 296.5
577599.5 4180947 296.5
577595.4 4180956 296.5
577596.6 4180956 296.5
577594.8 4180960 296.5
577602.5 4180940 296.52
577602.3 4180941 296.51
577599.5 4180942 296.51
577599.9 4180942 296.52
577598.3 4180943 296.52
577602.3 4180943 296.52
577596.6 4180944 296.52
577600.5 4180945 296.51
577600.7 4180945 296.52
577596.9 4180947 296.51
577596.2 4180948 296.52
577599.1 4180950 296.52
577597.8 4180954 296.52
577598.1 4180954 296.52
577597.8 4180954 296.52
577596 4180956 296.52
577595 4180959 296.51
577594.8 4180960 296.51
577595 4180960 296.52
577601.3 4180940 296.53
577599.3 4180942 296.53
577598.9 4180942 296.53
577599.1 4180942 296.53
577602.1 4180943 296.53
577598.6 4180945 296.53
577597.4 4180950 296.53
577594.8 4180960 296.53
577594.8 4180960 296.53
577595.2 4180960 296.53
577600.3 4180940 296.54
577603.7 4180940 296.54
577600.9 4180941 296.54
577601.1 4180941 296.54
577598.8 4180942 296.55
577598.8 4180942 296.54
577599.9 4180943 296.54
577597.8 4180943 296.55
577602.7 4180944 296.54
577601.9 4180944 296.55
577600.3 4180944 296.54
577600.5 4180945 296.54
577597.6 4180946 296.55
577599.3 4180949 296.55
577596.9 4180950 296.54
577597.9 4180954 296.54
577597.9 4180954 296.54
577595 4180960 296.55
577595.4 4180959 296.54
577602.7 4180940 296.56
577601.3 4180941 296.56
577599.3 4180942 296.56
577597.4 4180943 296.56
577597.6 4180943 296.56
577602.5 4180943 296.56
577602.1 4180944 296.56
577602.5 4180944 296.56
577602.7 4180944 296.56
577597.4 4180947 296.56
577595 4180960 296.56
577601.5 4180941 296.58
577603.7 4180941 296.57
577598.6 4180942 296.57
577598.1 4180943 296.57
577600.1 4180943 296.58
577601.5 4180943 296.57
577601.7 4180943 296.57
577602.7 4180944 296.58
577599.8 4180944 296.57
577599.9 4180944 296.58
577600.7 4180945 296.57
577599.1 4180948 296.57
577597.9 4180950 296.57
577597.9 4180954 296.58
577597.9 4180954 296.58
577595.6 4180956 296.57
577596.6 4180956 296.57
577595.6 4180960 296.58
577595 4180960 296.57
577602.9 4180940 296.59
577598.9 4180942 296.59
577601.3 4180942 296.59
577601.3 4180943 296.59
577602.9 4180944 296.59
577600.9 4180945 296.59
577601.3 4180945 296.59
577597.2 4180947 296.59
577599.5 4180947 296.59
577598.8 4180948 296.59
577598.1 4180954 296.59
577598.1 4180954 296.59
577597.4 4180956 296.59
577595.4 4180957 296.59
577595.4 4180960 296.59
577595.4 4180960 296.59
577598.9 4180940 296.6
577600.5 4180940 296.6
577602.9 4180940 296.6
577601.7 4180941 296.6
577601.9 4180941 296.61
577597.9 4180942 296.6
577598.3 4180942 296.6
577598.3 4180942 296.6
577599.5 4180942 296.6
577602.1 4180942 296.6
577597.9 4180943 296.61
577601.9 4180943 296.6
577599.9 4180943 296.61
577602.3 4180943 296.61
577602.7 4180944 296.6
577602.9 4180944 296.61
577598.9 4180945 296.6
577600.5 4180945 296.61
577595.2 4180960 296.6
577595.4 4180960 296.61
577595.6 4180960 296.6
577601.5 4180941 296.62
577598.8 4180942 296.62
577598.9 4180942 296.62
577600.3 4180943 296.62
577602.5 4180943 296.62
577600.3 4180946 296.62
577596.8 4180949 296.62
577599.3 4180951 296.62
577600.9 4180940 296.63
577601.5 4180941 296.63
577602.1 4180941 296.63
577602.7 4180941 296.63
577602.9 4180944 296.63
577600.3 4180945 296.63
577600.7 4180945 296.63
577601.5 4180945 296.63
577599.9 4180947 296.63
577596.9 4180948 296.63
577599.5 4180950 296.63
577598.3 4180954 296.63
577597.6 4180956 296.63
577600.7 4180940 296.64
577598.8 4180942 296.64
577598.1 4180942 296.64
577600.5 4180943 296.64
577600.9 4180943 296.64
577603.1 4180944 296.64
577597.8 4180946 296.64
577598.9 4180948 296.64
577596.9 4180949 296.64
577599.3 4180952 296.64
577598.1 4180954 296.64
577598.1 4180954 296.64
577599.1 4180942 296.65
577598.1 4180942 296.65
577598.3 4180942 296.65
577598.6 4180942 296.65
577599.1 4180942 296.65
577599.8 4180942 296.65
577600.7 4180943 296.65
577602.1 4180943 296.65
577602.9 4180944 296.65
577599.8 4180945 296.65
577600.3 4180946 296.65
577598.6 4180954 296.65
577598.8 4180954 296.65
577598.8 4180954 296.65
577602.5 4180941 296.66
577599.9 4180942 296.66
577598.3 4180942 296.66
577598.8 4180942 296.66
577602.7 4180943 296.66
577600.5 4180945 296.66
577598.3 4180945 296.66
577599.1 4180948 296.66
577599.3 4180949 296.66
577599.5 4180950 296.66
577598.1 4180942 296.67
577600.7 4180942 296.67
577603.1 4180944 296.67
577598.6 4180945 296.67
577597.6 4180946 296.67
577596.8 4180948 296.67
577597.8 4180956 296.67
577598.9 4180942 296.68
577598.9 4180942 296.68
577599.3 4180942 296.68
577603.2 4180944 296.68
577601.1 4180945 296.68
577601.7 4180945 296.68
577598.9 4180954 296.68
577598.6 4180954 296.68
577600.1 4180940 296.69
577602.7 4180941 296.69
577604.6 4180941 296.69
577603.1 4180944 296.69
577603.2 4180944 296.69
577598.3 4180946 296.69
577599.5 4180946 296.69
577597.4 4180947 296.69
577598.9 4180954 296.69
577600.1 4180942 296.7
577602.9 4180944 296.7
577603.5 4180944 296.7
577602.7 4180945 296.7
577600.7 4180946 296.7
577600.1 4180946 296.7
577596.8 4180948 296.7
577598.9 4180954 296.7
577602.9 4180941 296.71
577603.2 4180944 296.71
577603.5 4180944 296.71
577603.7 4180944 296.71
577599.9 4180945 296.71
577603.2 4180945 296.71
577599.5 4180950 296.71
577598.8 4180954 296.71
577604.4 4180941 296.72
577599.1 4180942 296.72
577599.1 4180942 296.72
577601.5 4180942 296.72
577601.7 4180942 296.72
577600.5 4180946 296.72
577597.2 4180947 296.72
577598.6 4180954 296.72
577599.1 4180954 296.72
577598.8 4180954 296.72
577599.1 4180954 296.72
577603.1 4180941 296.73
577600.3 4180942 296.73
577602.5 4180943 296.73
577603.1 4180944 296.73
577600.9 4180946 296.73
577598.8 4180954 296.73
577604.2 4180941 296.74
577601.9 4180942 296.74
577602.3 4180943 296.74
577602.7 4180943 296.74
577602.5 4180945 296.74
577600.3 4180946 296.74
577596.9 4180949 296.74
577598.9 4180954 296.74
577599.1 4180954 296.74
577603.2 4180941 296.75
577600.1 4180942 296.75
577603.2 4180944 296.75
577603.5 4180944 296.75
577604.2 4180944 296.75
577600.3 4180945 296.75
577598.9 4180954 296.75
577599.5 4180954 296.75
577603.5 4180941 296.76
577603.7 4180941 296.77
577603.9 4180941 296.77
577604.1 4180941 296.76
577600.5 4180942 296.76
577599.3 4180942 296.77
577602.9 4180943 296.77
577603.7 4180944 296.76
577600.3 4180945 296.77
