# .PCD v.7 - Point Cloud Data file format
VERSION .7
FIELDS x y z
SIZE 4 4 4
TYPE F F F
COUNT 1 1 1
WIDTH 89
HEIGHT 1
VIEWPOINT 0 0 0 1 0 0 0
POINTS 89
DATA ascii
577604.9 4180955 299.38
577605.1 4180955 299.38
577602.7 4180959 299.38
577602.3 4180961 299.38
577606.1 4180952 299.39
577605.6 4180954 299.39
577605.2 4180954 299.39
577602.9 4180959 299.39
577606.6 4180951 299.4
577605.4 4180954 299.4
577603.9 4180956 299.4
577602.5 4180959 299.4
577605.6 4180954 299.41
577599.3 4180958 299.41
577603.1 4180958 299.41
577604.4 4180949 299.43
577606.8 4180950 299.43
577605.8 4180952 299.43
577604.1 4180956 299.43
577602.3 4180960 299.43
577605.4 4180954 299.44
577603.9 4180957 299.44
577607.2 4180950 299.45
577605.6 4180954 299.45
577605.4 4180954 299.45
577603.5 4180957 299.45
577603.2 4180958 299.45
577604.4 4180955 299.46
577604.2 4180956 299.47
577603.1 4180959 299.47
577602.7 4180959 299.47
577606.4 4180952 299.48
577606.2 4180952 299.48
577604.4 4180956 299.48
577602.1 4180960 299.48
577604.2 4180947 299.49
577607.2 4180950 299.49
577605.6 4180954 299.49
577602.7 4180958 299.51
577603.2 4180958 299.51
577597.4 4180958 298.79
577597.8 4180958 298.82
577597.6 4180958 298.91
577601.9 4180960 299.08
577602.9 4180958 299.12
577602.1 4180960 299.12
577602.5 4180959 299.15
577604.9 4180955 299.16
577603.9 4180956 299.16
577602.1 4180960 299.16
577604.1 4180956 299.17
577599.3 4180957 299.17
577605.4 4180954 299.18
577605.1 4180954 299.18
577604.2 4180956 299.18
577602.7 4180959 299.18
577602.9 4180958 299.19
577601.9 4180960 299.19
577603.7 4180957 299.21
577603.2 4180957 299.22
577605.4 4180953 299.23
577605.2 4180954 299.23
577601.9 4180960 299.23
577605.6 4180953 299.27
577599.1 4180958 299.27
577602.9 4180959 299.27
577603.1 4180958 299.28
577601.9 4180960 299.28
577597.8 4180958 299.29
577599.3 4180958 299.29
577605.8 4180949 299.31
577603.9 4180956 299.31
577606.4 4180952 299.33
577606.2 4180952 299.32
577597.9 4180957 299.33
577603.1 4180958 299.33
577605.4 4180954 299.34
577604.2 4180956 299.34
577603.9 4180947 299.36
577603.7 4180956 299.36
577603.2 4180958 299.35
577602.1 4180960 299.36
577602.9 4180961 299.36
577605.6 4180953 299.37
577604.6 4180955 299.37
577599.3 4180958 299.37
577600.1 4180958 299.37
577603.1 4180958 299.37
577602.7 4180959 299.37
