# .PCD v.7 - Point Cloud Data file format
VERSION .7
FIELDS x y z
SIZE 4 4 4
TYPE F F F
COUNT 1 1 1
WIDTH 180
HEIGHT 1
VIEWPOINT 0 0 0 1 0 0 0
POINTS 180
DATA ascii
577605.625 4180949.75 296.589996338
577605.8125 4180946.75 296.480010986
577605.8125 4180947 296.390014648
577605.8125 4180947.25 296.390014648
577605.8125 4180947.5 296.5
577605.8125 4180947.75 296.399993896
577605.8125 4180948.5 296.459991455
577606.0625 4180943.5 296.350006104
577606.0625 4180946.25 296.489990234
577606.0625 4180946.5 296.440002441
577606.0625 4180946.75 296.359985352
577606.0625 4180946.75 296.279998779
577606.0625 4180947 296.230010986
577606.0625 4180947.25 296.209991455
577606.0625 4180947.5 296.239990234
577606.0625 4180947.75 296.320007324
577606.0625 4180947.75 296.440002441
577606.0625 4180948 296.600006104
577606.25 4180940.25 296.119995117
577606.25 4180943 296.329986572
577606.25 4180943 296.329986572
577606.25 4180944 296.329986572
577606.25 4180946 296.510009766
577606.25 4180946.25 296.440002441
577606.25 4180946.5 296.350006104
577606.25 4180946.75 296.269989014
577606.25 4180946.75 296.200012207
577606.25 4180947.75 296.339996338
577606.25 4180948 296.489990234
577606.25 4180948.25 296.510009766
577606.4375 4180943 296.359985352
577606.4375 4180943 296.369995117
577606.4375 4180943.25 296.399993896
577606.4375 4180945.75 296.540008545
577606.4375 4180946 296.5
577606.4375 4180946.25 296.369995117
577606.4375 4180946.5 296.299987793
577606.4375 4180946.75 296.519989014
577606.4375 4180947.25 296.470001221
577606.4375 4180947.75 296.410003662
577606.4375 4180948 296.540008545
577606.625 4180942.75 296.390014648
577606.625 4180943 296.399993896
577606.625 4180943.75 296.450012207
577606.625 4180945 296.450012207
577606.625 4180945.5 296.399993896
577606.625 4180945.75 296.489990234
577606.625 4180946 296.450012207
577606.625 4180946 296.390014648
577606.625 4180946.25 296.329986572
577606.625 4180947.75 296.540008545
577606.625 4180948 296.720001221
577606.8125 4180942.5 296.380004883
577606.8125 4180942.75 296.420013428
577606.8125 4180943 296.440002441
577606.8125 4180945.25 296.549987793
577606.8125 4180945.5 296.510009766
577606.8125 4180945.75 296.470001221
577606.8125 4180946 296.420013428
577606.8125 4180946 296.369995117
577606.8125 4180946.25 296.329986572
577606.8125 4180947.75 296.630004883
577607 4180942.25 296.440002441
577607 4180942.5 296.440002441
577607 4180942.75 296.450012207
577607 4180943 296.470001221
577607 4180945 296.600006104
577607 4180945.25 296.559997559
577607 4180945.5 296.519989014
577607 4180945.75 296.470001221
577607 4180946 296.420013428
577607 4180946 296.380004883
577607.1875 4180942.25 296.459991455
577607.1875 4180942.25 296.440002441
577607.1875 4180942.5 296.440002441
577607.1875 4180942.75 296.450012207
577607.1875 4180943 296.480010986
577607.1875 4180943 296.510009766
577607.1875 4180945 296.619995117
577607.1875 4180945.25 296.579986572
577607.1875 4180945.5 296.529998779
577607.1875 4180945.75 296.489990234
577607.1875 4180947 296.709991455
577607.4375 4180939.5 296.299987793
577607.4375 4180942 296.5
577607.4375 4180942.25 296.459991455
577607.4375 4180942.25 296.440002441
577607.4375 4180942.5 296.440002441
577607.4375 4180942.75 296.450012207
577607.4375 4180943 296.480010986
577607.4375 4180943 296.510009766
577607.4375 4180943.25 296.549987793
577607.4375 4180943.5 296.600006104
577607.4375 4180945 296.679992676
577607.4375 4180945.25 296.600006104
577607.4375 4180945.5 296.559997559
577607.625 4180939.5 296.299987793
577607.625 4180942 296.489990234
577607.625 4180942.25 296.450012207
577607.625 4180942.25 296.429992676
577607.625 4180942.5 296.420013428
577607.625 4180942.75 296.440002441
577607.625 4180943 296.320007324
577607.625 4180943 296.5
577607.625 4180943.25 296.540008545
577607.625 4180943.5 296.609985352
577607.625 4180943.75 296.640014648
577607.625 4180944 296.630004883
577607.625 4180945 296.709991455
577607.625 4180945 296.670013428
577607.625 4180945.25 296.619995117
577607.8125 4180939.5 296.320007324
577607.8125 4180939.75 296.440002441
577607.8125 4180942 296.489990234
577607.8125 4180942.25 296.440002441
577607.8125 4180942.25 296.420013428
577607.8125 4180942.5 296.399993896
577607.8125 4180942.75 296.410003662
577607.8125 4180943 296.440002441
577607.8125 4180943 296.470001221
577607.8125 4180943.25 296.519989014
577607.8125 4180943.5 296.579986572
577607.8125 4180943.75 296.630004883
577607.8125 4180944 296.679992676
577607.8125 4180945 296.709991455
577608 4180939.75 296.450012207
577608 4180941.75 296.540008545
577608 4180942 296.480010986
577608 4180942.25 296.429992676
577608 4180942.25 296.399993896
577608 4180942.5 296.390014648
577608 4180943.25 296.5
577608 4180943.5 296.549987793
577608 4180943.75 296.619995117
577608 4180944 296.670013428
577608 4180944 296.690002441
577608.1875 4180940 296.519989014
577608.1875 4180941.5 296.570007324
577608.1875 4180941.75 296.519989014
577608.1875 4180942 296.5
577608.1875 4180942.25 296.429992676
577608.1875 4180942.25 296.429992676
577608.375 4180939.5 296.459991455
577608.375 4180939.75 296.480010986
577608.375 4180940 296.489990234
577608.375 4180940.25 296.559997559
577608.375 4180940.25 296.540008545
577608.375 4180940.5 296.570007324
577608.375 4180941 296.600006104
577608.375 4180941.25 296.600006104
577608.375 4180941.25 296.440002441
577608.375 4180941.5 296.549987793
577608.375 4180941.75 296.510009766
577608.375 4180942 296.470001221
577608.625 4180939.5 296.529998779
577608.625 4180939.75 296.5
577608.625 4180940 296.480010986
577608.625 4180940.25 296.470001221
577608.625 4180940.25 296.480010986
577608.625 4180940.5 296.489990234
577608.625 4180940.75 296.510009766
577608.625 4180941 296.529998779
577608.625 4180941.25 296.540008545
577608.625 4180941.25 296.540008545
577608.625 4180941.5 296.529998779
577608.8125 4180940 296.470001221
577608.8125 4180940.25 296.440002441
577608.8125 4180940.25 296.429992676
577610.75 4180959.25 303.790008545
577610.9375 4180959.5 304.350006104
577611.1875 4180959.25 304.339996338
577611.1875 4180959.5 304.320007324
577611.375 4180959.5 304.25
577611.5625 4180959.5 304.160003662
577611.5625 4180959.75 304.489990234
577612.125 4180958.75 304.809997559
577612.375 4180958 304.850006104
577612.75 4180958.75 304.959991455
577612.75 4180959 304.700012207
577612.75 4180959.25 304.690002441
