# .PCD v.7 - Point Cloud Data file format
VERSION .7
FIELDS x y z
SIZE 4 4 4
TYPE F F F
COUNT 1 1 1
WIDTH 714
HEIGHT 1
VIEWPOINT 0 0 0 1 0 0 0
POINTS 714
DATA ascii
577596 4180963.5 305.019989014
577596.1875 4180963.75 305.440002441
577596.1875 4180964.5 305.690002441
577596.375 4180963.5 304.660003662
577596.375 4180964.75 304.970001221
577596.375 4180965 304.959991455
577596.5625 4180963 304.760009766
577596.5625 4180963.5 304.369995117
577596.5625 4180963.75 304.510009766
577596.5625 4180964.25 305.070007324
577596.5625 4180964.5 305.220001221
577596.5625 4180964.75 304.989990234
577596.5625 4180965 304.829986572
577596.75 4180963.75 304.700012207
577596.75 4180964 305.440002441
577596.75 4180964.5 305.380004883
577596.9375 4180963.75 304.320007324
577596.9375 4180964.5 305.299987793
577596.9375 4180964.75 305.670013428
577596.9375 4180965.25 304.679992676
577597.1875 4180963.75 304.320007324
577597.1875 4180963.75 304.519989014
577597.1875 4180964.25 305.660003662
577597.1875 4180965.25 304.690002441
577597.375 4180965.25 304.730010986
577597.75 4180964.5 304.510009766
577612.9375 4180949.75 301.359985352
577615.875 4180941.75 297.350006104
577616.3125 4180940.25 297.399993896
577616.3125 4180941.75 297.410003662
577616.5 4180940.25 297.089996338
577616.5 4180941.25 297.140014648
577616.6875 4180940.25 297.019989014
577616.6875 4180940.5 297.369995117
577616.6875 4180941.25 297.329986572
577616.6875 4180941.25 297.130004883
577616.875 4180941.25 297.100006104
577616.875 4180941.5 297.260009766
577616.875 4180942 297.299987793
577616.875 4180942.25 297.190002441
577616.875 4180942.25 297.029998779
577617.0625 4180941.25 297.029998779
577617.0625 4180941.5 297.190002441
577617.0625 4180941.75 297.260009766
577617.0625 4180942 297.239990234
577617.0625 4180942.25 297.130004883
577617.0625 4180942.25 296.980010986
577617.25 4180941.25 296.929992676
577617.25 4180941.5 297.109985352
577617.25 4180942.25 297.089996338
577617.25 4180952.5 297.119995117
577617.5 4180941 296.940002441
577617.5 4180942.25 296.910003662
577617.6875 4180940.25 296.920013428
577617.6875 4180941.75 297.070007324
577618.0625 4180939.75 296.649993896
577618.0625 4180941.5 296.829986572
577618.0625 4180942.5 296.700012207
577618.25 4180940 296.989990234
577618.25 4180941.5 296.809997559
577618.25 4180941.75 297
577618.25 4180942 297.059997559
577618.25 4180942.25 297.010009766
577618.25 4180942.25 296.880004883
577618.25 4180942.5 296.700012207
577618.4375 4180940 296.920013428
577618.4375 4180941.5 296.809997559
577618.4375 4180941.75 297.010009766
577618.4375 4180942 297.070007324
577618.4375 4180942.25 297.019989014
577618.4375 4180942.25 296.880004883
577618.4375 4180942.5 296.690002441
577618.4375 4180949.75 296.690002441
577618.4375 4180949.75 296.730010986
577618.4375 4180950 296.739990234
577618.4375 4180954.5 296.760009766
577618.6875 4180940 296.829986572
577618.6875 4180941.25 296.540008545
577618.6875 4180942 297.070007324
577618.6875 4180942.25 296.869995117
577618.6875 4180942.5 296.690002441
577618.6875 4180949.5 296.649993896
577618.6875 4180950 296.769989014
577618.6875 4180950.25 296.760009766
577618.6875 4180950.5 296.700012207
577618.6875 4180954 296.690002441
577618.6875 4180954.25 296.809997559
577618.6875 4180954.25 296.980010986
577618.875 4180940 296.730010986
577618.875 4180940.5 296.679992676
577618.875 4180941.25 296.600006104
577618.875 4180941.25 296.589996338
577618.875 4180942.25 296.579986572
577618.875 4180942.5 296.679992676
577618.875 4180942.75 296.489990234
577618.875 4180949.5 296.609985352
577618.875 4180949.75 296.660003662
577618.875 4180949.75 296.700012207
577618.875 4180950 296.730010986
577618.875 4180950.25 296.730010986
577618.875 4180950.5 296.730010986
577618.875 4180950.5 296.700012207
577618.875 4180950.75 296.660003662
577618.875 4180951 296.609985352
577618.875 4180954 296.730010986
577619.0625 4180939.25 296.75
577619.0625 4180940 296.709991455
577619.0625 4180941.25 296.660003662
577619.0625 4180942.25 296.839996338
577619.0625 4180942.5 296.660003662
577619.0625 4180942.75 296.489990234
577619.0625 4180949.75 296.529998779
577619.0625 4180949.75 296.570007324
577619.0625 4180950 296.600006104
577619.0625 4180950.25 296.640014648
577619.0625 4180950.5 296.690002441
577619.0625 4180950.5 296.75
577619.0625 4180950.75 296.820007324
577619.0625 4180952.75 296.640014648
577619.0625 4180954 296.700012207
577619.25 4180941.25 296.420013428
577619.25 4180941.25 296.709991455
577619.25 4180941.5 296.480010986
577619.25 4180942.25 296.690002441
577619.25 4180942.25 296.809997559
577619.25 4180942.5 296.649993896
577619.25 4180942.75 296.399993896
577619.25 4180943 296.369995117
577619.25 4180943.25 296.390014648
577619.25 4180944.5 296.410003662
577619.25 4180944.75 296.429992676
577619.25 4180945 296.440002441
577619.25 4180945 296.429992676
577619.25 4180945.25 296.420013428
577619.25 4180950.25 296.489990234
577619.25 4180951.5 296.540008545
577619.25 4180952 296.559997559
577619.4375 4180940 296.679992676
577619.4375 4180940.5 296.779998779
577619.4375 4180941 296.549987793
577619.4375 4180941.25 296.489990234
577619.4375 4180941.25 296.739990234
577619.4375 4180942.25 296.920013428
577619.4375 4180942.25 296.790008545
577619.4375 4180942.5 296.640014648
577619.4375 4180942.75 296.5
577619.4375 4180943 296.390014648
577619.4375 4180943 296.309997559
577619.4375 4180944 296.320007324
577619.4375 4180944 296.359985352
577619.4375 4180944.25 296.390014648
577619.4375 4180944.5 296.420013428
577619.4375 4180944.75 296.429992676
577619.4375 4180945 296.440002441
577619.4375 4180945 296.429992676
577619.4375 4180945.25 296.420013428
577619.4375 4180945.5 296.410003662
577619.4375 4180945.75 296.390014648
577619.4375 4180946 296.369995117
577619.4375 4180946 296.359985352
577619.4375 4180947 296.359985352
577619.4375 4180947.25 296.380004883
577619.4375 4180947.5 296.399993896
577619.4375 4180947.75 296.420013428
577619.4375 4180947.75 296.450012207
577619.4375 4180948 296.459991455
577619.4375 4180948.25 296.459991455
577619.4375 4180948.5 296.450012207
577619.4375 4180948.75 296.410003662
577619.4375 4180949.75 296.450012207
577619.625 4180940 296.559997559
577619.625 4180941 296.260009766
577619.625 4180941.25 296.510009766
577619.625 4180941.25 296.730010986
577619.625 4180941.5 296.890014648
577619.625 4180942.25 296.890014648
577619.625 4180942.25 296.769989014
577619.625 4180942.5 296.640014648
577619.625 4180942.75 296.519989014
577619.625 4180943 296.420013428
577619.625 4180943 296.350006104
577619.625 4180943.25 296.309997559
577619.625 4180943.5 296.299987793
577619.625 4180943.75 296.320007324
577619.625 4180944 296.339996338
577619.625 4180944 296.369995117
577619.625 4180944.25 296.399993896
577619.625 4180944.5 296.429992676
577619.625 4180944.75 296.440002441
577619.625 4180945 296.440002441
577619.625 4180945 296.440002441
577619.625 4180945.25 296.429992676
577619.625 4180945.5 296.420013428
577619.625 4180945.75 296.399993896
577619.625 4180946 296.390014648
577619.625 4180946 296.369995117
577619.625 4180946.5 296.359985352
577619.625 4180946.75 296.359985352
577619.625 4180947 296.380004883
577619.625 4180947.25 296.410003662
577619.625 4180947.5 296.540008545
577619.625 4180947.75 296.470001221
577619.625 4180947.75 296.489990234
577619.625 4180948 296.609985352
577619.625 4180948.25 296.489990234
577619.625 4180948.5 296.459991455
577619.625 4180948.75 296.399993896
577619.625 4180954.25 296.450012207
577619.875 4180940 296.670013428
577619.875 4180940.25 296.220001221
577619.875 4180941 296.260009766
577619.875 4180941.25 296.480010986
577619.875 4180941.25 296.679992676
577619.875 4180941.5 296.829986572
577619.875 4180942.25 296.859985352
577619.875 4180942.25 296.769989014
577619.875 4180942.5 296.660003662
577619.875 4180942.75 296.540008545
577619.875 4180943 296.450012207
577619.875 4180943 296.380004883
577619.875 4180943.25 296.339996338
577619.875 4180943.5 296.329986572
577619.875 4180943.75 296.329986572
577619.875 4180944 296.359985352
577619.875 4180944 296.380004883
577619.875 4180944.25 296.410003662
577619.875 4180944.5 296.390014648
577619.875 4180944.75 296.450012207
577619.875 4180945 296.450012207
577619.875 4180945 296.470001221
577619.875 4180945.25 296.450012207
577619.875 4180945.5 296.429992676
577619.875 4180946 296.399993896
577619.875 4180946.25 296.709991455
577619.875 4180946.75 296.369995117
577619.875 4180946.75 296.380004883
577619.875 4180947 296.399993896
577619.875 4180947.25 296.429992676
577619.875 4180947.5 296.459991455
577619.875 4180947.75 296.5
577619.875 4180947.75 296.529998779
577619.875 4180948 296.540008545
577619.875 4180948.25 296.519989014
577619.875 4180948.75 296.359985352
577619.875 4180950.25 296.429992676
577620.0625 4180940.25 296.380004883
577620.0625 4180941 296.190002441
577620.0625 4180941.25 296.380004883
577620.0625 4180941.25 296.579986572
577620.0625 4180941.5 296.739990234
577620.0625 4180942.25 296.600006104
577620.0625 4180942.5 296.679992676
577620.0625 4180942.75 296.579986572
577620.0625 4180943 296.579986572
577620.0625 4180943 296.410003662
577620.0625 4180943.25 296.359985352
577620.0625 4180943.5 296.600006104
577620.0625 4180943.75 296.339996338
577620.0625 4180944 296.489990234
577620.0625 4180944 296.380004883
577620.0625 4180944.25 296.410003662
577620.0625 4180944.5 296.440002441
577620.0625 4180944.75 296.459991455
577620.0625 4180945 296.470001221
577620.0625 4180945 296.470001221
577620.0625 4180945.25 296.459991455
577620.0625 4180945.5 296.450012207
577620.0625 4180945.75 296.429992676
577620.0625 4180946 296.410003662
577620.0625 4180946 296.390014648
577620.0625 4180946.5 296.369995117
577620.0625 4180946.75 296.369995117
577620.0625 4180946.75 296.380004883
577620.0625 4180947 296.410003662
577620.0625 4180947.25 296.440002441
577620.0625 4180947.5 296.480010986
577620.0625 4180947.75 296.519989014
577620.0625 4180947.75 296.309997559
577620.0625 4180948 296.549987793
577620.0625 4180948.75 296.329986572
577620.0625 4180949.75 296.269989014
577620.0625 4180950.5 296.5
577620.0625 4180953.5 296.410003662
577620.0625 4180954.25 296.609985352
577620.25 4180940.25 296.559997559
577620.25 4180940.5 296.510009766
577620.25 4180941.25 296.540008545
577620.25 4180941.25 296.429992676
577620.25 4180941.5 296.619995117
577620.25 4180941.75 296.540008545
577620.25 4180942.25 296.799987793
577620.25 4180942.5 296.720001221
577620.25 4180942.75 296.619995117
577620.25 4180943 296.510009766
577620.25 4180943 296.429992676
577620.25 4180943.25 296.359985352
577620.25 4180943.5 296.329986572
577620.25 4180943.75 296.329986572
577620.25 4180944 296.339996338
577620.25 4180944 296.369995117
577620.25 4180944.25 296.410003662
577620.25 4180944.5 296.440002441
577620.25 4180944.75 296.470001221
577620.25 4180945 296.489990234
577620.25 4180945 296.489990234
577620.25 4180945.25 296.480010986
577620.25 4180945.5 296.470001221
577620.25 4180945.75 296.450012207
577620.25 4180946 296.420013428
577620.25 4180946 296.440002441
577620.25 4180946.25 296.380004883
577620.25 4180946.5 296.369995117
577620.25 4180946.75 296.5
577620.25 4180946.75 296.380004883
577620.25 4180947 296.410003662
577620.25 4180947.25 296.420013428
577620.25 4180947.5 296.489990234
577620.25 4180947.75 296.529998779
577620.25 4180947.75 296.549987793
577620.25 4180948 296.540008545
577620.25 4180948.25 296.5
577620.25 4180948.75 296.290008545
577620.25 4180950.5 296.75
577620.25 4180954.5 296.529998779
577620.4375 4180939.25 296.410003662
577620.4375 4180940 296.459991455
577620.4375 4180940.25 296.75
577620.4375 4180940.25 296.230010986
577620.4375 4180941.25 296.25
577620.4375 4180941.5 296.480010986
577620.4375 4180941.75 296.670013428
577620.4375 4180943 296.549987793
577620.4375 4180943 296.440002441
577620.4375 4180943.25 296.359985352
577620.4375 4180943.5 296.309997559
577620.4375 4180943.75 296.299987793
577620.4375 4180944 296.339996338
577620.4375 4180944 296.350006104
577620.4375 4180944.25 296.5
577620.4375 4180944.5 296.440002441
577620.4375 4180944.75 296.470001221
577620.4375 4180945 296.390014648
577620.4375 4180945 296.510009766
577620.4375 4180945.25 296.510009766
577620.4375 4180945.5 296.399993896
577620.4375 4180945.75 296.459991455
577620.4375 4180946 296.429992676
577620.4375 4180946 296.399993896
577620.4375 4180946.25 296.380004883
577620.4375 4180946.5 296.359985352
577620.4375 4180946.75 296.359985352
577620.4375 4180946.75 296.369995117
577620.4375 4180947 296.399993896
577620.4375 4180947.25 296.440002441
577620.4375 4180947.5 296.480010986
577620.4375 4180947.75 296.510009766
577620.4375 4180947.75 296.519989014
577620.4375 4180948 296.510009766
577620.4375 4180948.25 296.470001221
577620.4375 4180948.5 296.380004883
577620.4375 4180948.75 296.260009766
577620.4375 4180953.75 296.260009766
577620.4375 4180954 296.329986572
577620.4375 4180954.5 296.649993896
577620.625 4180940.25 296.269989014
577620.625 4180941.5 296.329986572
577620.625 4180941.75 296.589996338
577620.625 4180942.25 296.570007324
577620.625 4180942.75 296.339996338
577620.625 4180943 296.579986572
577620.625 4180943 296.450012207
577620.625 4180943.25 296.279998779
577620.625 4180943.5 296.279998779
577620.625 4180943.75 296.260009766
577620.625 4180944 296.269989014
577620.625 4180944 296.309997559
577620.625 4180944.25 296.369995117
577620.625 4180944.5 296.420013428
577620.625 4180944.75 296.470001221
577620.625 4180945 296.510009766
577620.625 4180945 296.529998779
577620.625 4180945.25 296.519989014
577620.625 4180945.5 296.5
577620.625 4180945.75 296.470001221
577620.625 4180946 296.440002441
577620.625 4180946 296.399993896
577620.625 4180946.25 296.380004883
577620.625 4180946.5 296.359985352
577620.625 4180946.75 296.359985352
577620.625 4180946.75 296.369995117
577620.625 4180947 296.390014648
577620.625 4180947.25 296.420013428
577620.625 4180947.5 296.450012207
577620.625 4180947.75 296.470001221
577620.625 4180947.75 296.470001221
577620.625 4180948 296.450012207
577620.625 4180948.25 296.399993896
577620.625 4180948.5 296.329986572
577620.625 4180948.75 296.230010986
577620.625 4180948.75 296.130004883
577620.625 4180953.75 296.720001221
577620.8125 4180940.25 296.549987793
577620.8125 4180941 296.470001221
577620.8125 4180941.5 296.529998779
577620.8125 4180941.75 296.510009766
577620.8125 4180943 296.619995117
577620.8125 4180943 296.459991455
577620.8125 4180943.25 296.339996338
577620.8125 4180943.5 296.25
577620.8125 4180943.75 296.220001221
577620.8125 4180944 296.230010986
577620.8125 4180944 296.269989014
577620.8125 4180944.25 296.339996338
577620.8125 4180944.5 296.410003662
577620.8125 4180944.75 296.470001221
577620.8125 4180945 296.510009766
577620.8125 4180945 296.529998779
577620.8125 4180945.25 296.529998779
577620.8125 4180945.5 296.510009766
577620.8125 4180945.75 296.480010986
577620.8125 4180946 296.440002441
577620.8125 4180946 296.410003662
577620.8125 4180946.25 296.380004883
577620.8125 4180946.5 296.359985352
577620.8125 4180946.75 296.359985352
577620.8125 4180946.75 296.359985352
577620.8125 4180947 296.380004883
577620.8125 4180947.25 296.390014648
577620.8125 4180947.5 296.399993896
577620.8125 4180947.75 296.399993896
577620.8125 4180947.75 296.390014648
577620.8125 4180948 296.369995117
577620.8125 4180948.25 296.320007324
577620.8125 4180948.5 296.269989014
577620.8125 4180948.75 296.220001221
577620.8125 4180948.75 296.290008545
577620.8125 4180949 296.170013428
577620.8125 4180949.25 296.209991455
577620.8125 4180949.5 296.230010986
577620.8125 4180950 296.109985352
577620.8125 4180954 296.489990234
577620.8125 4180954.25 296.390014648
577620.8125 4180954.75 296.480010986
577621 4180940.25 296.320007324
577621 4180941.75 296.440002441
577621 4180943 296.640014648
577621 4180943 296.470001221
577621 4180943.25 296.320007324
577621 4180943.5 296.220001221
577621 4180943.75 296.179992676
577621 4180944 296.179992676
577621 4180944 296.230010986
577621 4180944.25 296.299987793
577621 4180944.5 296.380004883
577621 4180944.75 296.450012207
577621 4180945 296.5
577621 4180945 296.529998779
577621 4180945.25 296.529998779
577621 4180945.5 296.519989014
577621 4180945.75 296.480010986
577621 4180946 296.450012207
577621 4180946 296.420013428
577621 4180946.25 296.390014648
577621 4180946.5 296.299987793
577621 4180946.75 296.369995117
577621 4180946.75 296.359985352
577621 4180947 296.480010986
577621 4180947.25 296.359985352
577621 4180947.5 296.350006104
577621 4180947.75 296.529998779
577621 4180947.75 296.290008545
577621 4180948 296.260009766
577621 4180948.25 296.190002441
577621 4180948.5 296.209991455
577621 4180948.75 296.220001221
577621 4180949 296.380004883
577621 4180949.25 296.559997559
577621 4180953.5 296.170013428
577621 4180954.25 296.529998779
577621 4180954.25 296.190002441
577621 4180954.5 296.230010986
577621 4180954.75 296.609985352
577621.25 4180940.25 296.359985352
577621.25 4180941.5 295.980010986
577621.25 4180941.75 296.380004883
577621.25 4180943 296.480010986
577621.25 4180943.25 296.320007324
577621.25 4180943.5 296.200012207
577621.25 4180943.75 296.149993896
577621.25 4180944 296.149993896
577621.25 4180944 296.200012207
577621.25 4180944.25 296.269989014
577621.25 4180944.5 296.350006104
577621.25 4180944.75 296.510009766
577621.25 4180945 296.489990234
577621.25 4180945 296.519989014
577621.25 4180945.25 296.510009766
577621.25 4180945.5 296.510009766
577621.25 4180945.75 296.489990234
577621.25 4180946 296.269989014
577621.25 4180946 296.429992676
577621.25 4180946.25 296.410003662
577621.25 4180946.5 296.390014648
577621.25 4180946.75 296.380004883
577621.25 4180946.75 296.369995117
577621.25 4180947 296.350006104
577621.25 4180947.25 296.320007324
577621.25 4180947.5 296.279998779
577621.25 4180947.75 296.179992676
577621.25 4180948 296.140014648
577621.25 4180948.25 296.119995117
577621.25 4180948.5 296.149993896
577621.25 4180948.75 296.230010986
577621.25 4180948.75 296.390014648
577621.25 4180954.5 296.579986572
577621.4375 4180940.25 296.420013428
577621.4375 4180941.75 296.339996338
577621.4375 4180942.5 296.450012207
577621.4375 4180943 296.320007324
577621.4375 4180943.25 296.320007324
577621.4375 4180943.5 296.200012207
577621.4375 4180943.75 296.309997559
577621.4375 4180944 296.130004883
577621.4375 4180944 296.170013428
577621.4375 4180944.25 296.359985352
577621.4375 4180944.5 296.329986572
577621.4375 4180944.75 296.399993896
577621.4375 4180945 296.459991455
577621.4375 4180945 296.489990234
577621.4375 4180945.25 296.5
577621.4375 4180945.5 296.5
577621.4375 4180945.75 296.480010986
577621.4375 4180946 296.459991455
577621.4375 4180946 296.450012207
577621.4375 4180946.25 296.429992676
577621.4375 4180946.5 296.420013428
577621.4375 4180946.75 296.410003662
577621.4375 4180946.75 296.390014648
577621.4375 4180947 296.350006104
577621.4375 4180947.25 296.290008545
577621.4375 4180947.5 296.220001221
577621.4375 4180947.75 296.140014648
577621.4375 4180947.75 296.200012207
577621.4375 4180948 296.019989014
577621.4375 4180948.25 296.019989014
577621.4375 4180948.5 296.160003662
577621.4375 4180948.75 296.25
577621.4375 4180949 296.190002441
577621.4375 4180957 296.220001221
577621.625 4180940.25 296.450012207
577621.625 4180940.25 296.519989014
577621.625 4180940.75 296.380004883
577621.625 4180941.25 296.440002441
577621.625 4180941.75 296.320007324
577621.625 4180943 296.5
577621.625 4180943.25 296.329986572
577621.625 4180943.5 296.209991455
577621.625 4180943.75 296.140014648
577621.625 4180944 296.130004883
577621.625 4180944 296.170013428
577621.625 4180944.25 296.230010986
577621.625 4180944.5 296.299987793
577621.625 4180944.75 296.369995117
577621.625 4180945 296.420013428
577621.625 4180945 296.459991455
577621.625 4180945.25 296.480010986
577621.625 4180945.5 296.410003662
577621.625 4180945.75 296.480010986
577621.625 4180946 296.470001221
577621.625 4180946 296.570007324
577621.625 4180946.25 296.470001221
577621.625 4180946.5 296.459991455
577621.625 4180946.75 296.200012207
577621.625 4180946.75 296.410003662
577621.625 4180947 296.350006104
577621.625 4180947.25 296.220001221
577621.625 4180947.5 296.160003662
577621.625 4180947.75 296.049987793
577621.625 4180947.75 295.950012207
577621.625 4180948 295.899993896
577621.625 4180948.25 295.910003662
577621.625 4180948.5 296.029998779
577621.625 4180948.75 296.269989014
577621.625 4180954.5 296.149993896
577621.625 4180955.25 296.149993896
577621.625 4180955.75 296.369995117
577621.625 4180956.25 296.339996338
577621.8125 4180941.75 296.320007324
577621.8125 4180943 296.510009766
577621.8125 4180943.25 296.359985352
577621.8125 4180943.5 296.239990234
577621.8125 4180943.75 296.220001221
577621.8125 4180944 296.160003662
577621.8125 4180944 296.179992676
577621.8125 4180944.25 296.220001221
577621.8125 4180944.5 296.450012207
577621.8125 4180944.75 296.339996338
577621.8125 4180945 296.5
577621.8125 4180945 296.420013428
577621.8125 4180945.25 296.440002441
577621.8125 4180945.5 296.459991455
577621.8125 4180945.75 296.470001221
577621.8125 4180946 296.480010986
577621.8125 4180946 296.5
577621.8125 4180946.25 296.510009766
577621.8125 4180946.5 296.510009766
577621.8125 4180946.75 296.440002441
577621.8125 4180947 296.359985352
577621.8125 4180947.25 296.25
577621.8125 4180947.5 296.109985352
577621.8125 4180947.75 295.970001221
577621.8125 4180947.75 295.850006104
577621.8125 4180948 295.790008545
577621.8125 4180948.25 295.820007324
577621.8125 4180948.5 295.980010986
577621.8125 4180948.75 296.290008545
577621.8125 4180954 296.200012207
577621.8125 4180955.5 296.339996338
577621.8125 4180955.75 296.239990234
577621.8125 4180956 296.309997559
577621.8125 4180956.25 296.579986572
577622 4180940.5 296.179992676
577622 4180941.5 296.369995117
577622 4180941.75 296.329986572
577622 4180942.75 296.510009766
577622 4180943 296.510009766
577622 4180943.25 296.450012207
577622 4180943.5 296.290008545
577622 4180943.75 296.220001221
577622 4180944 296.200012207
577622 4180944 296.209991455
577622 4180944.25 296.230010986
577622 4180944.5 296.269989014
577622 4180944.75 296.309997559
577622 4180945 296.350006104
577622 4180945 296.380004883
577622 4180945.25 296.410003662
577622 4180945.5 296.429992676
577622 4180945.75 296.459991455
577622 4180946 296.489990234
577622 4180946 296.519989014
577622 4180946.25 296.549987793
577622 4180946.5 296.549987793
577622 4180946.75 296.529998779
577622 4180946.75 296.470001221
577622 4180947 296.369995117
577622 4180947.25 296.239990234
577622 4180947.5 296.070007324
577622 4180947.75 295.910003662
577622 4180947.75 295.769989014
577622 4180948 295.709991455
577622 4180948.25 295.75
577622 4180948.5 295.940002441
577622 4180955.25 296.470001221
577622 4180955.5 295.929992676
577622 4180956.25 296.170013428
577622.1875 4180940.25 296.399993896
577622.1875 4180941 296.450012207
577622.1875 4180941.25 296.010009766
577622.1875 4180941.5 296.170013428
577622.1875 4180941.75 296.359985352
577622.1875 4180943.25 296.420013428
577622.1875 4180943.5 296.339996338
577622.1875 4180943.75 296.290008545
577622.1875 4180944 296.260009766
577622.1875 4180944 296.25
577622.1875 4180944.25 296.260009766
577622.1875 4180944.5 296.269989014
577622.1875 4180944.75 296.299987793
577622.1875 4180945 296.320007324
577622.1875 4180945 296.339996338
577622.1875 4180945.25 296.369995117
577622.1875 4180945.5 296.410003662
577622.1875 4180945.75 296.450012207
577622.1875 4180946 296.5
577622.1875 4180946.75 296.510009766
577622.1875 4180947.25 296.230010986
577622.1875 4180947.5 296.049987793
577622.1875 4180948.5 295.910003662
577622.1875 4180948.75 296.220001221
577622.1875 4180955.25 296.260009766
577622.1875 4180955.25 296.519989014
577622.1875 4180955.5 295.75
577622.1875 4180955.75 296.010009766
577622.4375 4180941.25 296.25
577622.4375 4180941.75 296.399993896
577622.4375 4180943.5 296.399993896
577622.4375 4180943.75 296.359985352
577622.4375 4180944 296.329986572
577622.4375 4180944 296.309997559
577622.4375 4180944.25 296.290008545
577622.4375 4180944.5 296.290008545
577622.4375 4180945 296.299987793
577622.4375 4180945 296.309997559
577622.4375 4180945.25 296.339996338
577622.4375 4180945.5 296.390014648
577622.4375 4180945.75 296.440002441
577622.4375 4180946.5 296.390014648
577622.4375 4180947 296.470001221
577622.4375 4180947.25 296.239990234
577622.4375 4180947.75 296.260009766
577622.4375 4180948.25 296.170013428
577622.4375 4180955.5 295.75
577622.625 4180944 296.399993896
577622.625 4180944 296.369995117
577622.625 4180944.25 296.339996338
577622.625 4180944.5 296.309997559
577622.625 4180944.75 296.230010986
577622.625 4180945 296.279998779
577622.625 4180945 296.290008545
577622.625 4180945.25 296.309997559
577622.8125 4180942.5 296.220001221
577622.8125 4180944.25 296.350006104
577623 4180956.75 296.130004883
