# .PCD v.7 - Point Cloud Data file format
VERSION .7
FIELDS x y z
SIZE 4 4 4
TYPE F F F
COUNT 1 1 1
WIDTH 1005
HEIGHT 1
VIEWPOINT 0 0 0 1 0 0 0
POINTS 1005
DATA ascii
577615.5 4180959 303.85
577614.5 4180965 308.34
577612.1 4180966 308.34
577612.1 4180968 308.35
577611.9 4180963 308.37
577616.5 4180964 308.37
577616.1 4180957 303.91
577620.4 4180956 303.92
577620.4 4180957 303.92
577620.4 4180957 303.93
577613.1 4180966 308.4
577608.8 4180962 303.93
577614.3 4180962 308.41
577611.4 4180959 303.94
577614.1 4180962 308.44
577620.2 4180958 303.97
577613.8 4180960 308.46
577614.5 4180962 308.46
577616.1 4180957 303.99
577615.7 4180959 303.99
577615.5 4180962 308.47
577614.5 4180964 308.47
577620.6 4180957 304
577613.8 4180960 308.48
577613.3 4180960 308.48
577616.1 4180957 304.02
577614.9 4180961 308.49
577614.1 4180962 308.49
577621.2 4180956 304.03
577613.9 4180960 308.51
577613.9 4180962 308.52
577614.9 4180962 308.52
577616.7 4180964 308.52
577620.2 4180957 304.04
577620.2 4180958 304.05
577614.9 4180961 308.54
577611.8 4180963 308.54
577612.1 4180963 308.54
577611.9 4180964 308.54
577617.1 4180964 304.09
577614.1 4180962 308.57
577614.3 4180962 308.58
577621.8 4180958 304.11
577620.4 4180958 304.12
577616.7 4180956 304.13
577616.3 4180957 304.13
577616.3 4180966 308.62
577619.6 4180956 304.16
577616.5 4180956 304.16
577614.7 4180965 308.63
577615.5 4180958 304.16
577611.6 4180960 304.16
577620.6 4180956 304.17
577620.6 4180956 304.17
577612.9 4180966 308.64
577614.7 4180966 308.64
577612.9 4180966 308.64
577617.5 4180961 304.17
577609.2 4180962 304.17
577611.9 4180963 308.65
577620.4 4180958 304.18
577616.9 4180957 304.2
577613.8 4180960 308.68
577612.4 4180959 304.21
577615.7 4180959 304.21
577614.1 4180962 308.69
577620.6 4180956 304.22
577616.1 4180963 308.71
577614.7 4180965 308.71
577613.9 4180962 308.72
577611.4 4180960 304.25
577612.1 4180963 308.73
577620.2 4180957 304.26
577620.1 4180958 304.26
577615.3 4180961 304.27
577613.3 4180960 308.75
577613.9 4180962 308.75
577614.3 4180962 308.77
577618.4 4180957 304.3
577620.2 4180958 304.29
577617.2 4180966 308.77
577612.6 4180959 304.29
577616.3 4180957 304.31
577614.1 4180960 308.79
577618.2 4180957 304.33
577618.7 4180957 304.33
577620.1 4180957 304.33
577611.2 4180960 304.32
577613.9 4180962 308.81
577611.9 4180964 308.81
577620.1 4180958 304.34
577616.7 4180968 308.81
577611.2 4180959 304.34
577614.1 4180962 308.83
577620.6 4180956 304.36
577616.5 4180957 304.35
577610.9 4180960 304.35
577609 4180962 304.37
577613.6 4180960 308.85
577614.1 4180960 308.85
577616.5 4180957 304.38
577617.7 4180966 308.85
577619.6 4180957 304.39
577614.7 4180965 308.87
577616.3 4180957 304.4
577619.9 4180956 304.42
577621.6 4180958 304.42
577622.4 4180962 304.44
577616.3 4180957 304.45
577617.7 4180964 304.45
577612.9 4180963 308.93
577614.9 4180967 308.93
577617.1 4180967 308.93
577616.3 4180958 304.48
577609.2 4180962 304.48
577613.8 4180962 308.96
577611.6 4180960 304.49
577617.1 4180968 308.97
577613.9 4180962 308.98
577614.1 4180962 308.98
577616.7 4180957 304.51
577618.4 4180957 304.52
577620.1 4180957 304.51
577617.9 4180961 304.52
577613.9 4180962 308.99
577616.1 4180963 309
577616.3 4180963 309.01
577616.3 4180958 304.54
577620.1 4180958 304.54
577614.3 4180959 309.03
577613.6 4180960 309.03
577619.9 4180958 304.56
577612.8 4180962 309.05
577612.9 4180962 309.05
577619.9 4180956 304.57
577619.9 4180956 304.57
577620.4 4180956 304.58
577619.9 4180957 304.58
577621.8 4180958 304.57
577612.8 4180967 309.04
577616.5 4180968 309.05
577610 4180963 304.57
577616.5 4180957 304.59
577614.7 4180966 309.06
577612.6 4180959 304.59
577608.8 4180960 304.59
577616.3 4180963 309.07
577616.3 4180958 304.61
577615.3 4180961 304.6
577609 4180963 304.61
577613.9 4180960 309.09
577617.7 4180957 304.62
577614.9 4180964 309.11
577617.1 4180964 304.63
577619.6 4180956 304.64
577612.9 4180959 304.64
577613.9 4180963 309.12
577613.9 4180964 309.12
577619.4 4180956 304.66
577619.6 4180958 304.66
577619.9 4180958 304.66
577615.3 4180964 309.14
577614.1 4180963 309.15
577620.1 4180956 304.68
577612.8 4180959 304.69
577612.8 4180959 304.7
577614.9 4180960 304.7
577612.4 4180962 309.18
577615.1 4180966 309.19
577614.3 4180960 309.2
577613.9 4180966 309.2
577617.2 4180964 304.73
577617.5 4180957 304.74
577616.3 4180967 309.22
577615.9 4180960 304.75
577618.9 4180961 304.75
577617.2 4180964 304.75
577616.3 4180968 309.23
577610.2 4180960 304.76
577614.3 4180960 309.24
577614.9 4180966 309.24
577619.4 4180957 304.78
577608.4 4180961 304.78
577612.6 4180962 309.26
577613.8 4180966 309.26
577609.8 4180962 304.8
577615.3 4180963 309.28
577617.9 4180957 304.81
577612.1 4180959 304.81
577611.8 4180960 304.81
577615.7 4180960 304.81
577612.6 4180962 309.3
577615.5 4180964 309.3
577615.1 4180964 309.29
577617.2 4180957 304.83
577618.7 4180957 304.82
577616.1 4180968 309.29
577611.6 4180960 304.83
577618.4 4180957 304.84
577616.5 4180958 304.84
577619.6 4180958 304.84
577613.9 4180966 309.31
577614.9 4180967 309.31
577610.6 4180962 304.84
577614.1 4180963 309.33
577612.4 4180958 304.85
577619.9 4180958 304.85
577613.9 4180966 309.32
577609.6 4180962 304.85
577615.1 4180964 309.34
577618.2 4180957 304.88
577616.5 4180958 304.88
577613.8 4180966 309.36
577615.9 4180960 304.88
577618.2 4180957 304.89
577611.4 4180960 304.9
577614.3 4180963 309.38
577614.7 4180963 309.39
577608.6 4180961 304.92
577619.6 4180956 304.93
577612.6 4180960 304.93
577618.1 4180957 304.94
577616.5 4180958 304.94
577613.6 4180966 309.42
577610 4180963 304.95
577614.9 4180962 309.43
577614.5 4180963 309.43
577613.8 4180966 309.43
577612.8 4180959 304.96
577615.7 4180963 309.45
577615.7 4180960 304.99
577615.9 4180960 305
577622.8 4180962 305
577613.3 4180961 309.48
577616.1 4180964 309.48
577617.9 4180957 305.01
577614.7 4180963 309.49
577612.9 4180965 309.49
577609.6 4180962 305.03
577614.1 4180963 309.52
577616.7 4180963 309.52
577617.9 4180957 305.04
577609 4180963 305.04
577613.3 4180961 309.55
577612.4 4180962 309.54
577613.3 4180962 309.55
577614.9 4180963 309.55
577620.2 4180956 305.08
577617.7 4180957 305.08
577611.2 4180960 305.07
577614.3 4180963 309.56
577615.5 4180963 309.56
577610 4180960 305.09
577613.1 4180961 309.58
577613.1 4180962 309.58
577613.6 4180966 309.58
577615.7 4180968 309.57
577616.1 4180960 305.1
577615.9 4180960 305.1
577608.8 4180960 305.11
577608.6 4180961 305.11
577620.2 4180962 305.1
577615.1 4180963 309.59
577612.9 4180964 309.59
577619.9 4180958 305.12
577613.8 4180966 309.59
577612.9 4180967 309.6
577617.5 4180957 305.14
577615.5 4180960 305.14
577608.4 4180960 305.14
577613.3 4180964 309.62
577610.2 4180960 305.15
577615.7 4180960 305.15
577614.5 4180963 309.63
577616.1 4180960 305.16
577613.6 4180962 309.64
577615.9 4180964 309.64
577611.4 4180960 305.17
577611.6 4180960 305.17
577613.3 4180966 309.65
577616.7 4180958 305.19
577613.6 4180966 309.66
577613.1 4180967 309.67
577610.4 4180960 305.2
577613.1 4180965 309.68
577618.7 4180957 305.22
577610.6 4180960 305.22
577615.3 4180960 305.22
577610.8 4180960 305.22
577613.9 4180963 309.7
577614.1 4180963 309.7
577613.3 4180965 309.7
577609.8 4180960 305.23
577610.8 4180960 305.23
577612.8 4180964 309.71
577616.1 4180964 309.71
577617.1 4180961 305.24
577610 4180962 305.24
577613.1 4180961 309.72
577613.6 4180961 309.72
577614.3 4180963 309.72
577616.5 4180958 305.25
577616.7 4180958 305.27
577616.3 4180959 305.27
577613.9 4180963 309.75
577616.1 4180960 305.29
577610.8 4180961 305.29
577615.9 4180961 305.29
577617.2 4180962 305.29
577614.5 4180963 309.78
577611.9 4180964 309.78
577616.3 4180960 305.31
577611.2 4180964 305.31
577616.9 4180958 305.33
577613.1 4180966 309.8
577613.3 4180967 309.79
577611.2 4180960 305.33
577610.8 4180960 305.32
577610.9 4180961 305.32
577615.3 4180963 309.81
577616.9 4180958 305.34
577613.3 4180966 309.81
577611.9 4180960 305.34
577610.6 4180960 305.34
577610.9 4180960 305.34
577613.1 4180964 309.82
577613.1 4180967 309.83
577612.1 4180960 305.36
577610.6 4180961 305.35
577615.9 4180961 305.36
577608.8 4180962 305.36
577622 4180962 305.35
577612.8 4180964 309.84
577615.1 4180965 309.86
577619.1 4180958 305.38
577616.5 4180959 305.38
577616.3 4180960 305.38
577610.6 4180960 305.38
577619.1 4180958 305.39
577610.4 4180960 305.39
577611.4 4180960 305.39
577612.6 4180965 309.87
577612.9 4180968 309.87
577616.3 4180960 305.4
577617.5 4180961 305.4
577622.2 4180962 305.4
577614.5 4180964 309.88
577616.3 4180960 305.41
577612.9 4180965 309.89
577622 4180960 305.43
577615.1 4180963 309.91
577614.5 4180964 309.91
577614.7 4180964 309.91
577610.2 4180960 305.44
577614.7 4180964 309.92
577615.1 4180966 309.92
577622 4180960 305.45
577620.1 4180963 305.45
577614.5 4180964 309.93
577613.1 4180965 309.93
577612.9 4180964 309.94
577614.3 4180964 309.94
577613.8 4180965 309.94
577613.6 4180967 309.94
577615.9 4180961 305.47
577618.9 4180958 305.48
577609.4 4180960 305.48
577610.8 4180960 305.48
577609.6 4180960 305.48
577610.4 4180960 305.48
577612.1 4180962 309.96
577617.1 4180958 305.49
577616.5 4180958 305.49
577616.7 4180958 305.49
577610 4180960 305.49
577611.6 4180960 305.49
577622 4180961 305.49
577610.4 4180961 305.49
577613.6 4180962 309.97
577614.7 4180964 309.97
577615.9 4180964 309.97
577614.3 4180964 309.97
577614.9 4180964 309.97
577616.5 4180960 305.5
577610.4 4180961 305.5
577615.3 4180963 309.98
577616.9 4180958 305.52
577616.5 4180959 305.52
577609.8 4180960 305.51
577609 4180960 305.52
577610.4 4180961 305.51
577616.1 4180961 305.52
577610.4 4180961 305.52
577615.5 4180963 309.99
577613.6 4180964 310
577613.6 4180968 310
577616.3 4180960 305.53
577616.9 4180960 305.53
577618.7 4180958 305.55
577611.2 4180961 305.55
577622.2 4180962 305.54
577622 4180960 305.56
577610.9 4180964 305.56
577615.7 4180964 310.05
577613.8 4180965 310.05
577617.2 4180958 305.58
577611.4 4180960 305.57
577616.7 4180960 305.59
577613.6 4180965 310.08
577617.1 4180958 305.6
577617.1 4180960 305.61
577614.9 4180964 310.09
577619.1 4180958 305.62
577618.9 4180962 305.62
577614.9 4180964 310.1
577616.9 4180958 305.63
577610.2 4180960 305.63
577622.2 4180960 305.63
577616.5 4180959 305.64
577608.8 4180961 305.64
577618.4 4180961 305.64
577616.5 4180960 305.65
577615.7 4180961 305.65
577615.9 4180962 305.65
577622 4180962 305.65
577612.1 4180961 310.13
577619.2 4180958 305.67
577616.7 4180961 305.67
577618.4 4180962 305.67
577612.6 4180964 310.15
577620.6 4180958 305.68
577621.8 4180960 305.68
577617.1 4180958 305.7
577616.7 4180960 305.7
577610.2 4180962 305.7
577617.2 4180958 305.71
577610.9 4180962 305.71
577622.8 4180963 305.71
577618.9 4180958 305.73
577610.2 4180961 305.73
577611.2 4180961 305.73
577616.5 4180959 305.74
577618.1 4180960 305.74
577611.4 4180961 305.74
577611.4 4180964 305.74
577610.6 4180961 305.75
577616.3 4180959 305.76
577616.5 4180960 305.76
577622 4180960 305.77
577609.4 4180961 305.77
577612.9 4180964 310.24
577619.2 4180957 305.78
577617.5 4180958 305.78
577620.8 4180960 305.78
577610 4180960 305.78
577610.2 4180961 305.78
577616.9 4180962 305.78
577615.7 4180964 310.26
577618.7 4180958 305.8
577616.7 4180959 305.79
577616.5 4180960 305.8
577616.5 4180960 305.8
577609.2 4180960 305.79
577611.6 4180960 305.79
577610.2 4180961 305.79
577608.4 4180962 305.79
577618.4 4180962 305.79
577618.7 4180962 305.8
577617.1 4180962 305.79
577610.2 4180962 305.8
577617.7 4180958 305.81
577618.7 4180961 305.81
577617.9 4180958 305.83
577617.1 4180958 305.83
577617.2 4180958 305.82
577622.2 4180960 305.82
577609.8 4180961 305.82
577616.7 4180961 305.82
577610.2 4180962 305.82
577610.2 4180962 305.83
577618.1 4180958 305.84
577609.2 4180962 305.84
577617.9 4180958 305.86
577616.9 4180960 305.86
577610.4 4180962 305.85
577618.7 4180962 305.86
577617.2 4180962 305.85
577616.3 4180968 310.34
577609 4180962 305.87
577612.8 4180960 305.88
577618.2 4180958 305.89
577618.9 4180962 305.89
577617.5 4180958 305.9
577611.4 4180961 305.9
577618.9 4180962 305.9
577609.8 4180960 305.91
577618.1 4180960 305.91
577622 4180961 305.92
577613.3 4180964 310.4
577617.7 4180958 305.94
577609 4180961 305.94
577611.2 4180962 305.94
577617.5 4180962 305.94
577617.2 4180958 305.95
577616.7 4180959 305.95
577610.6 4180962 305.95
577618.2 4180962 305.95
577612.8 4180962 310.44
577620.4 4180958 305.97
577616.1 4180961 305.97
577619.1 4180962 305.97
577617.1 4180958 305.98
577617.1 4180960 305.98
577610 4180961 305.98
577610.6 4180962 305.98
577618.1 4180958 305.99
577618.7 4180958 305.99
577609.4 4180960 305.99
577611.2 4180961 305.99
577612.9 4180964 310.47
577612.9 4180964 310.47
577618.4 4180962 306
577619.9 4180962 306
577612.8 4180962 310.48
577618.4 4180958 306.01
577610.4 4180962 306.01
577617.5 4180958 306.03
577609.4 4180962 306.03
577610.9 4180962 306.04
577617.7 4180962 306.05
577621.8 4180959 306.06
577622.2 4180959 306.06
577612.8 4180960 306.06
577616.5 4180962 306.06
577618.2 4180963 306.06
577612.9 4180964 310.55
577617.7 4180958 306.07
577619.9 4180959 306.08
577616.7 4180959 306.08
577610 4180961 306.08
577611.6 4180961 306.08
577611.8 4180960 306.07
577611.4 4180961 306.08
577611.2 4180962 306.08
577617.9 4180958 306.09
577610 4180961 306.09
577618.1 4180958 306.11
577617.2 4180958 306.11
577609.6 4180962 306.1
577617.5 4180962 306.1
577616.9 4180959 306.12
577610 4180961 306.12
577617.9 4180964 306.12
577616.3 4180963 310.6
577618.2 4180958 306.13
577610.4 4180962 306.13
577617.9 4180963 306.13
577618.4 4180958 306.14
577618.7 4180958 306.14
577610.8 4180962 306.14
577617.1 4180958 306.15
577609 4180961 306.15
577617.9 4180962 306.15
577617.9 4180962 306.15
577610.4 4180962 306.16
577619.1 4180958 306.17
577617.5 4180958 306.18
577616.7 4180959 306.18
577619.6 4180959 306.19
577616.7 4180960 306.19
577616.3 4180962 306.19
577620.2 4180962 306.19
577617.7 4180963 306.19
577609 4180961 306.2
577613.1 4180964 310.68
577616.9 4180958 306.21
577618.7 4180963 306.21
577619.2 4180958 306.22
577616.7 4180960 306.22
577609.2 4180961 306.23
577618.1 4180962 306.23
577618.1 4180962 306.23
577621.8 4180960 306.24
577618.4 4180958 306.25
577618.7 4180958 306.25
577621.8 4180960 306.25
577613.6 4180964 310.73
577618.2 4180958 306.26
577621.6 4180960 306.26
577609 4180961 306.27
577622.2 4180961 306.26
577618.2 4180962 306.27
577619.6 4180962 306.27
577617.2 4180958 306.28
577616.9 4180960 306.28
577615.7 4180962 306.28
577618.4 4180962 306.28
577620.4 4180962 306.28
577613.3 4180965 310.76
577619.1 4180958 306.3
577619.4 4180959 306.29
577616.9 4180959 306.295
577615.9 4180962 306.29
577617.5 4180963 306.29
577622.4 4180960 306.31
577618.7 4180963 306.31
577618.7 4180964 306.31
577615.5 4180956 301.84
577609.6 4180961 306.33
577618.1 4180961 306.32
577621.8 4180961 306.32
577620.4 4180962 306.33
577616.3 4180964 306.33
577618.9 4180958 306.34
577617.1 4180959 306.34
577620.1 4180959 306.34
577613.3 4180964 310.83
577617.5 4180958 306.35
577618.7 4180958 306.35
577618.2 4180959 306.35
577611.6 4180961 306.35
577619.2 4180961 306.35
577619.2 4180959 306.37
577609.8 4180962 306.37
577619.1 4180959 306.38
577609.8 4180961 306.38
577609.8 4180962 306.38
577611.9 4180960 306.39
577619.9 4180961 306.39
577609.6 4180962 306.39
577617.2 4180960 306.41
577618.1 4180963 306.41
577616.1 4180962 306.42
577619.6 4180958 306.43
577618.9 4180959 306.43
577616.7 4180962 306.43
577621.8 4180961 306.44
577622 4180960 306.45
577617.5 4180960 306.45
577617.7 4180960 306.45
577617.7 4180962 306.45
577616.1 4180962 306.46
577618.1 4180959 306.47
577617.2 4180959 306.48
577611.8 4180961 306.48
577618.4 4180963 306.48
577620.1 4180964 306.48
577619.2 4180959 306.5
577620.2 4180962 306.5
577617.9 4180959 306.51
577618.9 4180959 306.51
577619.1 4180959 306.51
577622.2 4180959 306.51
577616.9 4180960 306.51
577620.6 4180962 306.51
577617.5 4180959 306.53
577617.7 4180959 306.53
577617.1 4180959 306.53
577616.9 4180959 306.53
577618.7 4180964 306.53
577618.2 4180959 306.55
577618.7 4180962 306.54
577620.6 4180964 306.56
577618.9 4180959 306.58
577618.1 4180962 306.57
577618.4 4180962 306.58
577618.4 4180959 306.59
577620.6 4180962 306.59
577618.2 4180962 306.59
577618.1 4180959 306.6
577619.1 4180959 306.6
577619.2 4180959 306.61
577619.6 4180960 306.6
577618.7 4180964 306.6
577620.6 4180959 306.62
577611.6 4180961 306.62
577618.7 4180959 306.63
577612.1 4180960 306.63
577618.9 4180959 306.64
577615.7 4180962 306.64
577617.7 4180959 306.65
577617.9 4180959 306.65
577618.4 4180959 306.65
577618.7 4180960 306.65
577618.2 4180963 306.65
577620.4 4180959 306.66
577612.8 4180960 306.66
577619.1 4180962 306.66
577613.9 4180964 311.14
577617.2 4180959 306.67
577620.2 4180959 306.67
577618.7 4180960 306.67
577618.7 4180960 306.67
577620.8 4180962 306.67
577619.1 4180959 306.68
577618.9 4180960 306.69
577617.2 4180960 306.69
577619.2 4180963 306.69
577617.9 4180958 306.7
577617.7 4180959 306.7
577619.2 4180959 306.7
577610.4 4180964 306.7
577614.1 4180968 306.7
577620.6 4180962 306.71
577617.5 4180959 306.72
577621.8 4180960 306.72
577618.9 4180960 306.72
577618.9 4180960 306.72
577619.1 4180960 306.73
577619.4 4180961 306.73
577619.4 4180963 306.73
577621.2 4180958 306.74
577619.6 4180960 306.74
577617.7 4180960 306.74
577614.7 4180964 311.22
577621.8 4180960 306.75
577621.8 4180965 306.75
577620.4 4180959 306.77
577615.9 4180962 306.77
577620.8 4180962 306.77
577614.3 4180966 306.77
577617.9 4180959 306.78
577619.2 4180960 306.78
577619.1 4180960 306.78
577620.8 4180961 306.78
577619.2 4180962 306.78
577622.4 4180959 306.8
577619.1 4180960 306.8
577620.8 4180962 306.79
577621 4180959 306.81
577620.1 4180961 306.81
577617.2 4180959 306.83
577620.1 4180959 306.83
577620.8 4180963 306.83
577619.4 4180960 306.84
577619.2 4180964 306.84
577614.3 4180967 306.84
577617.9 4180959 306.86
577622 4180959 306.85
577615.7 4180964 306.86
577617.5 4180959 306.87
577620.8 4180959 306.87
577617.2 4180960 306.87
577611.9 4180962 306.87
577610.8 4180963 306.87
577621 4180958 306.88
577622.2 4180959 306.88
577619.2 4180960 306.88
577620.8 4180962 306.88
577619.2 4180963 306.88
577621.4 4180964 306.88
577620.2 4180959 306.89
577619.2 4180960 306.89
577621.6 4180962 306.89
577620.1 4180963 306.9
577621 4180964 306.9
577622.4 4180958 306.91
577617.5 4180960 306.91
577611.9 4180961 306.91
577620.2 4180961 306.91
577619.6 4180963 306.91
577619.9 4180960 306.92
577619.4 4180962 306.92
577617.2 4180959 306.93
577620.1 4180961 306.93
577613.9 4180965 311.41
577620.6 4180959 306.94
577621 4180959 306.94
577617.7 4180959 306.94
577619.4 4180960 306.94
577619.4 4180960 306.95
577620.4 4180961 306.95
577611.2 4180962 306.95
577615.9 4180964 306.95
577617.7 4180960 306.96
577619.6 4180960 306.96
577617.5 4180959 306.97
577620.1 4180960 306.97
577619.9 4180960 306.98
577615.9 4180964 306.98
577617.5 4180960 306.99
577610.6 4180963 306.99
577619.1 4180963 306.99
577620.8 4180963 306.99
577620.4 4180959 307
577620.2 4180961 307
577620.6 4180963 307
577619.9 4180960 307.01
577620.1 4180960 307.01
577619.2 4180964 307.01
577622.6 4180966 307.01
577614.3 4180966 307.02
577620.4 4180961 307.03
577620.2 4180960 307.04
577621.8 4180962 307.05
577619.9 4180963 307.04
577610.6 4180964 307.05
577620.1 4180960 307.06
577620.2 4180960 307.06
577621 4180962 307.06
577620.1 4180960 307.07
577610.8 4180963 307.08
577619.4 4180963 307.08
577611.6 4180963 307.08
577622.6 4180958 307.09
577620.4 4180961 307.09
577610.4 4180964 307.09
577622.2 4180959 307.1
577620.1 4180960 307.1
577620.4 4180960 307.11
577620.2 4180960 307.11
577621 4180963 307.1
577620.2 4180960 307.12
577620.2 4180961 307.12
577621.8 4180962 307.13
577616.1 4180964 307.13
577620.6 4180959 307.14
577620.2 4180960 307.14
577620.6 4180961 307.14
577620.2 4180960 307.15
577619.6 4180964 307.15
577615.5 4180966 307.15
577620.8 4180959 307.16
577620.4 4180960 307.16
577621 4180959 307.17
577620.4 4180960 307.17
577619.1 4180964 307.17
577621.4 4180964 307.18
577621.2 4180959 307.19
577615.9 4180956 302.72
577617.7 4180960 307.2
577620.4 4180960 307.2
577615.9 4180964 307.2
577620.8 4180964 307.2
577620.4 4180960 307.21
577610.9 4180962 307.21
577619.6 4180963 307.21
577620.6 4180960 307.22
577620.8 4180963 307.23
577620.6 4180960 307.24
577620.6 4180964 307.24
577615.7 4180966 307.24
577621.8 4180963 307.25
577620.6 4180960 307.26
577620.6 4180960 307.26
577621.2 4180962 307.27
577621 4180963 307.26
577616.9 4180956 302.79
577620.4 4180960 307.29
577620.6 4180960 307.29
577620.8 4180961 307.3
577621.2 4180962 307.29
577621.2 4180965 307.3
577621.6 4180962 307.31
577610.9 4180963 307.31
577620.8 4180959 307.33
577620.8 4180961 307.33
577621.8 4180964 307.32
577621.6 4180962 307.34
577621.6 4180962 307.34
577621.2 4180963 307.34
577620.6 4180964 307.34
577621.2 4180964 307.34
577621 4180960 307.37
577621 4180962 307.37
577622 4180963 307.37
577619.1 4180956 302.9
577619.2 4180964 307.38
577620.8 4180960 307.4
577620.8 4180960 307.4
577621.2 4180960 307.41
577619.2 4180964 307.41
577619.6 4180959 307.42
577621 4180960 307.42
577612.4 4180964 307.42
577621.4 4180960 307.43
577621.4 4180961 307.44
577621.4 4180962 307.44
577621.8 4180963 307.44
577619.4 4180964 307.44
577621 4180962 307.45
577608.6 4180962 302.98
577619.2 4180956 303
577615.7 4180966 307.47
577617.2 4180956 303.01
577621 4180961 307.49
577621.4 4180962 307.49
577611.4 4180963 307.49
577621.4 4180963 307.5
577621.2 4180960 307.51
577621.4 4180961 307.51
577621.6 4180961 307.51
577620.8 4180962 307.51
577621.2 4180963 307.51
577613.6 4180966 307.51
577621 4180960 307.53
577619.1 4180960 307.53
577621.2 4180962 307.53
577615.9 4180956 303.06
577613.9 4180961 307.54
577621.2 4180961 307.54
577621.4 4180962 307.545
577622 4180963 307.55
577612.6 4180963 307.56
577621.2 4180961 307.58
577621.2 4180962 307.58
577621.6 4180962 307.57
577620.1 4180964 307.58
577621 4180958 303.1
577615.7 4180966 307.59
577611.2 4180963 307.6
577621.2 4180960 307.62
577612.9 4180966 307.63
577615.7 4180962 307.64
577617.1 4180956 303.18
577621.4 4180963 307.67
577611.2 4180963 307.68
577619.2 4180956 303.21
577621 4180964 307.71
577619.6 4180961 307.72
577620.8 4180964 307.72
577621 4180958 303.25
577621.2 4180958 303.25
577620.8 4180957 303.26
577611.6 4180963 307.75
577615.5 4180959 303.28
577621.2 4180963 307.76
577617.1 4180956 303.29
577615.9 4180957 303.29
577615.5 4180956 303.31
577622 4180964 307.79
577620.8 4180958 303.32
577619.1 4180956 303.36
577620.8 4180956 303.35
577620.6 4180965 307.83
577621.8 4180958 303.36
577614.5 4180961 307.84
577621 4180956 303.37
577622 4180964 307.85
577618.9 4180956 303.4
577615.9 4180957 303.42
577615.3 4180962 307.91
577608.6 4180962 303.44
577614.5 4180962 307.92
577615.5 4180962 307.92
577613.3 4180963 307.93
577621.4 4180963 307.93
577621.8 4180963 307.95
577622 4180964 307.95
577611.4 4180963 307.96
577611.8 4180963 307.96
577619.1 4180957 303.49
577615.9 4180957 303.49
577615.1 4180962 307.97
577616.5 4180956 303.5
577620.1 4180964 307.97
577616.9 4180956 303.51
577616.9 4180956 303.52
577620.6 4180957 303.52
577621.4 4180964 308.01
577620.2 4180956 303.55
577621.8 4180964 308.01
577620.4 4180966 308.01
577619.2 4180956 303.56
577615.3 4180959 303.56
577615.5 4180959 303.56
577612.8 4180966 308.04
577615.7 4180959 303.57
577621.2 4180963 308.08
577615.1 4180959 303.6
577621.6 4180963 308.09
577615.9 4180958 303.62
577613.6 4180961 308.11
577621 4180964 308.1
577615.3 4180960 303.63
577608.2 4180962 303.64
577614.9 4180959 303.65
577621 4180957 303.66
577614.3 4180961 308.15
577611.9 4180963 308.15
577615.3 4180962 308.16
577614.7 4180962 308.17
577614.3 4180962 308.18
577611.6 4180963 308.18
577615.9 4180958 303.71
577620.6 4180957 303.74
577613.6 4180960 308.22
577621.8 4180964 308.22
577617.2 4180956 303.75
577621.6 4180963 308.23
577616.1 4180957 303.76
577615.7 4180962 308.25
577621.4 4180963 308.25
577619.1 4180956 303.78
577615.7 4180959 303.78
577614.3 4180962 308.27
577619.9 4180955 303.79
577610.8 4180959 303.79
577619.9 4180956 303.81
577615.9 4180958 303.83
577611.6 4180959 303.82
577620.1 4180956 303.84
577614.3 4180961 308.32
577611.8 4180963 308.33
577612.1 4180963 308.33
