# .PCD v.7 - Point Cloud Data file format
VERSION .7
FIELDS x y z
SIZE 4 4 4
TYPE F F F
COUNT 1 1 1
WIDTH 1381
HEIGHT 1
VIEWPOINT 0 0 0 1 0 0 0
POINTS 1381
DATA ascii
577606.8125 4180959.5 301.089996338
577606.8125 4180959.75 301.220001221
577606.8125 4180960 301.140014648
577606.8125 4180960 301.320007324
577606.8125 4180960.75 301.429992676
577606.8125 4180961.25 301.429992676
577606.8125 4180961.75 301.079986572
577606.8125 4180961.75 301.239990234
577606.8125 4180962 301.369995117
577606.8125 4180962.25 301.420013428
577606.8125 4180962.5 301.369995117
577606.8125 4180962.75 301.200012207
577606.8125 4180962.75 300.890014648
577607 4180950.25 299.399993896
577607 4180950.5 299.540008545
577607 4180950.5 299.670013428
577607 4180950.75 299.790008545
577607 4180951 299.899993896
577607 4180951.25 300.010009766
577607 4180951.5 300.049987793
577607 4180951.5 300.079986572
577607 4180951.75 300.070007324
577607 4180952 300.089996338
577607 4180952.5 299.730010986
577607 4180952.75 300.019989014
577607 4180953 300.010009766
577607 4180953.25 300.010009766
577607 4180953.5 300.029998779
577607 4180953.5 300.049987793
577607 4180953.75 300.089996338
577607 4180954 300.119995117
577607 4180954.25 300.149993896
577607 4180954.25 300.190002441
577607 4180954.5 300.220001221
577607 4180954.75 300.25
577607 4180955 300.290008545
577607 4180955.25 300.329986572
577607 4180955.25 300.380004883
577607 4180955.5 300.429992676
577607 4180955.75 300.480010986
577607 4180956 300.540008545
577607 4180956.25 300.589996338
577607 4180956.25 300.640014648
577607 4180956.5 300.679992676
577607 4180956.75 300.709991455
577607 4180957 300.739990234
577607 4180957.25 300.760009766
577607 4180957.25 300.779998779
577607 4180957.5 300.799987793
577607 4180957.75 300.720001221
577607 4180958 300.859985352
577607 4180958 300.910003662
577607 4180958.25 300.799987793
577607 4180958.5 301.049987793
577607 4180958.75 301.119995117
577607 4180959 301.149993896
577607 4180959 301.25
577607 4180959.25 301.290008545
577607 4180959.5 301.290008545
577607 4180959.75 301.260009766
577607 4180960 301.200012207
577607 4180960 301.109985352
577607 4180960.25 301
577607 4180961.75 300.970001221
577607 4180961.75 301.130004883
577607 4180962 301.279998779
577607 4180962.25 301.380004883
577607 4180962.5 301.399993896
577607 4180962.75 301.299987793
577607 4180962.75 301.070007324
577607 4180963 300.700012207
577607 4180963.25 300.220001221
577607.1875 4180949.5 299.510009766
577607.1875 4180949.75 299.350006104
577607.1875 4180950 299.489990234
577607.1875 4180950.25 299.589996338
577607.1875 4180950.5 299.709991455
577607.1875 4180950.5 299.450012207
577607.1875 4180951 300.010009766
577607.1875 4180951.25 300.079986572
577607.1875 4180951.5 300.119995117
577607.1875 4180951.5 300.140014648
577607.1875 4180951.75 300.140014648
577607.1875 4180952 300.130004883
577607.1875 4180952.25 300.100006104
577607.1875 4180952.5 300.049987793
577607.1875 4180952.75 300.029998779
577607.1875 4180953 300.029998779
577607.1875 4180953.25 300.040008545
577607.1875 4180953.5 300.059997559
577607.1875 4180954 300.179992676
577607.1875 4180954.25 300.230010986
577607.1875 4180954.25 300.269989014
577607.1875 4180954.5 300.309997559
577607.1875 4180954.75 300.190002441
577607.1875 4180955 300.380004883
577607.1875 4180955.25 300.420013428
577607.1875 4180955.25 300.470001221
577607.1875 4180955.5 300.510009766
577607.1875 4180955.75 300.559997559
577607.1875 4180956 300.720001221
577607.1875 4180956.25 300.660003662
577607.1875 4180956.25 300.709991455
577607.1875 4180956.5 300.869995117
577607.1875 4180956.75 300.779998779
577607.1875 4180957 300.809997559
577607.1875 4180957.25 301.010009766
577607.1875 4180957.25 300.839996338
577607.1875 4180957.5 300.850006104
577607.1875 4180957.75 300.869995117
577607.1875 4180958 300.890014648
577607.1875 4180958 300.929992676
577607.1875 4180958.25 300.980010986
577607.1875 4180958.5 301.049987793
577607.1875 4180958.75 301.119995117
577607.1875 4180959 301.190002441
577607.1875 4180959 301.25
577607.1875 4180959.25 301.299987793
577607.1875 4180959.5 301.329986572
577607.1875 4180959.75 301.329986572
577607.1875 4180960 301.290008545
577607.1875 4180960 301.230010986
577607.1875 4180960.25 301.140014648
577607.1875 4180960.5 301.029998779
577607.1875 4180960.75 300.929992676
577607.1875 4180960.75 300.850006104
577607.1875 4180961 300.799987793
577607.1875 4180961.5 300.859985352
577607.1875 4180961.75 300.959991455
577607.1875 4180961.75 301.100006104
577607.1875 4180963 300.910003662
577607.1875 4180963.25 300.489990234
577607.4375 4180949.75 299.450012207
577607.4375 4180949.75 299.540008545
577607.4375 4180950 299.630004883
577607.4375 4180950.25 299.720001221
577607.4375 4180950.5 299.809997559
577607.4375 4180950.75 299.980010986
577607.4375 4180951 300.049987793
577607.4375 4180951.25 300.100006104
577607.4375 4180951.5 300.130004883
577607.4375 4180951.5 300.149993896
577607.4375 4180951.75 300.149993896
577607.4375 4180952 300.130004883
577607.4375 4180952.25 300.109985352
577607.4375 4180952.5 300.089996338
577607.4375 4180952.5 300.230010986
577607.4375 4180952.75 300.059997559
577607.4375 4180953 299.970001221
577607.4375 4180953.25 300.079986572
577607.4375 4180953.5 300.119995117
577607.4375 4180953.75 300.570007324
577607.4375 4180954.25 300.309997559
577607.4375 4180954.25 300.429992676
577607.4375 4180954.5 300.399993896
577607.4375 4180954.75 300.440002441
577607.4375 4180955 300.480010986
577607.4375 4180955.25 300.510009766
577607.4375 4180955.25 300.549987793
577607.4375 4180955.5 300.589996338
577607.4375 4180955.75 300.640014648
577607.4375 4180956 300.679992676
577607.4375 4180956.25 300.730010986
577607.4375 4180956.25 300.769989014
577607.4375 4180956.5 300.809997559
577607.4375 4180956.75 300.850006104
577607.4375 4180957 300.869995117
577607.4375 4180957.25 300.890014648
577607.4375 4180957.25 300.899993896
577607.4375 4180957.5 300.910003662
577607.4375 4180957.75 300.920013428
577607.4375 4180958 300.929992676
577607.4375 4180958 300.950012207
577607.4375 4180958.25 300.989990234
577607.4375 4180958.5 301.040008545
577607.4375 4180958.75 301.100006104
577607.4375 4180959 301.170013428
577607.4375 4180959 301.25
577607.4375 4180959.25 301.320007324
577607.4375 4180959.5 301.380004883
577607.4375 4180959.75 301.420013428
577607.4375 4180960 301.429992676
577607.4375 4180960 301.420013428
577607.4375 4180960.25 301.369995117
577607.4375 4180960.5 301.299987793
577607.4375 4180960.75 301.209991455
577607.4375 4180960.75 301.130004883
577607.4375 4180961 301.059997559
577607.4375 4180961.25 301.029998779
577607.4375 4180961.5 301.029998779
577607.4375 4180961.75 301.079986572
577607.4375 4180961.75 301.170013428
577607.4375 4180962.25 300.709991455
577607.4375 4180962.75 300.829986572
577607.4375 4180963 301.070007324
577607.4375 4180963.25 300.700012207
577607.4375 4180963.5 300.579986572
577607.4375 4180963.75 300.420013428
577607.625 4180949.25 299.510009766
577607.625 4180949.5 299.570007324
577607.625 4180949.75 299.619995117
577607.625 4180949.75 299.670013428
577607.625 4180950 299.730010986
577607.625 4180950.25 299.790008545
577607.625 4180950.5 299.850006104
577607.625 4180950.5 299.920013428
577607.625 4180950.75 299.839996338
577607.625 4180951 300.040008545
577607.625 4180951.25 300.079986572
577607.625 4180951.5 300.029998779
577607.625 4180951.5 300.130004883
577607.625 4180951.75 300.130004883
577607.625 4180952 300.160003662
577607.625 4180952.25 300.119995117
577607.625 4180952.5 300.100006104
577607.625 4180952.5 300.100006104
577607.625 4180952.75 300.100006104
577607.625 4180953 300.119995117
577607.625 4180953.25 300.140014648
577607.625 4180953.5 300.179992676
577607.625 4180953.5 300.230010986
577607.625 4180953.75 300.290008545
577607.625 4180954 300.350006104
577607.625 4180954.25 300.399993896
577607.625 4180954.25 300.450012207
577607.625 4180954.5 300.5
577607.625 4180954.75 300.529998779
577607.625 4180955 300.570007324
577607.625 4180955.25 300.600006104
577607.625 4180955.25 300.630004883
577607.625 4180955.5 300.670013428
577607.625 4180955.75 300.700012207
577607.625 4180956 300.739990234
577607.625 4180956.25 300.790008545
577607.625 4180956.25 300.829986572
577607.625 4180956.5 300.869995117
577607.625 4180956.75 300.910003662
577607.625 4180957 300.940002441
577607.625 4180957.25 300.959991455
577607.625 4180957.25 300.970001221
577607.625 4180957.5 300.970001221
577607.625 4180957.75 300.970001221
577607.625 4180958 300.970001221
577607.625 4180958 300.980010986
577607.625 4180958.25 300.989990234
577607.625 4180958.5 301.019989014
577607.625 4180958.75 301.079986572
577607.625 4180959 301.149993896
577607.625 4180959 301.239990234
577607.625 4180959.25 301.339996338
577607.625 4180959.5 301.450012207
577607.625 4180959.75 301.540008545
577607.625 4180961 301.070007324
577607.625 4180961.5 301.369995117
577607.625 4180961.75 301.25
577607.625 4180961.75 301.369995117
577607.625 4180963 301.170013428
577607.625 4180963.25 300.850006104
577607.625 4180963.5 300.399993896
577607.8125 4180948.75 299.600006104
577607.8125 4180949 299.470001221
577607.8125 4180949.25 299.700012207
577607.8125 4180949.75 299.450012207
577607.8125 4180950 299.790008545
577607.8125 4180950.25 299.779998779
577607.8125 4180950.5 299.869995117
577607.8125 4180950.5 299.910003662
577607.8125 4180950.75 299.959991455
577607.8125 4180951 300.010009766
577607.8125 4180951.25 300.040008545
577607.8125 4180951.5 300.070007324
577607.8125 4180951.5 300.100006104
577607.8125 4180951.75 300.109985352
577607.8125 4180952 300.119995117
577607.8125 4180952.25 300.119995117
577607.8125 4180952.5 300.130004883
577607.8125 4180952.5 300.140014648
577607.8125 4180952.75 300.149993896
577607.8125 4180953 300.179992676
577607.8125 4180953.25 300.220001221
577607.8125 4180953.5 300.269989014
577607.8125 4180953.5 300.320007324
577607.8125 4180953.75 300.380004883
577607.8125 4180954 300.440002441
577607.8125 4180954.25 300.5
577607.8125 4180954.25 300.549987793
577607.8125 4180954.5 300.589996338
577607.8125 4180954.75 300.630004883
577607.8125 4180955 300.660003662
577607.8125 4180955.25 300.679992676
577607.8125 4180955.25 300.709991455
577607.8125 4180955.5 300.730010986
577607.8125 4180955.75 300.760009766
577607.8125 4180956 300.799987793
577607.8125 4180956.25 300.839996338
577607.8125 4180956.25 300.880004883
577607.8125 4180956.5 300.929992676
577607.8125 4180956.75 300.970001221
577607.8125 4180957 301.010009766
577607.8125 4180957.25 301.029998779
577607.8125 4180957.25 301.049987793
577607.8125 4180957.5 301.040008545
577607.8125 4180957.75 301.029998779
577607.8125 4180958 301.010009766
577607.8125 4180958 300.989990234
577607.8125 4180958.25 301.179992676
577607.8125 4180958.5 301
577607.8125 4180958.75 301.260009766
577607.8125 4180959 301.109985352
577607.8125 4180959 301.220001221
577607.8125 4180959.25 301.170013428
577607.8125 4180960 301.230010986
577607.8125 4180960.5 301.160003662
577607.8125 4180963.25 300.940002441
577607.8125 4180963.5 300.529998779
577607.8125 4180964 300.369995117
577608 4180948.25 299.519989014
577608 4180948.75 299.799987793
577608 4180949.25 299.829986572
577608 4180949.5 299.829986572
577608 4180949.75 299.820007324
577608 4180950 299.829986572
577608 4180950.25 299.850006104
577608 4180950.5 299.869995117
577608 4180950.5 299.899993896
577608 4180950.75 299.940002441
577608 4180951 299.980010986
577608 4180951.25 300.010009766
577608 4180951.5 300.049987793
577608 4180951.5 300.070007324
577608 4180951.75 300.100006104
577608 4180952 300.119995117
577608 4180952.25 300.140014648
577608 4180952.5 300.160003662
577608 4180952.5 300.190002441
577608 4180952.75 300.220001221
577608 4180953 300.260009766
577608 4180953.25 300.299987793
577608 4180953.5 300.350006104
577608 4180953.5 300.410003662
577608 4180953.75 300.470001221
577608 4180954 300.529998779
577608 4180954.25 300.589996338
577608 4180954.25 300.640014648
577608 4180954.5 300.679992676
577608 4180954.75 300.709991455
577608 4180955 300.739990234
577608 4180955.25 300.760009766
577608 4180955.25 300.769989014
577608 4180955.5 300.790008545
577608 4180955.75 300.809997559
577608 4180956 300.839996338
577608 4180956.25 300.880004883
577608 4180956.25 300.929992676
577608 4180956.5 300.820007324
577608 4180956.75 301.029998779
577608 4180957 301.079986572
577608 4180957.25 301.019989014
577608 4180957.25 301.119995117
577608 4180957.5 301.119995117
577608 4180957.75 301.010009766
577608 4180958 301.049987793
577608 4180958 301.010009766
577608 4180958.25 300.970001221
577608 4180958.5 300.970001221
577608 4180959 301.070007324
577608 4180959 301.200012207
577608 4180961.75 300.730010986
577608 4180962.75 300.540008545
577608 4180963.5 300.609985352
577608.1875 4180948 299.609985352
577608.1875 4180948.25 299.760009766
577608.1875 4180948.75 299.940002441
577608.1875 4180949 299.929992676
577608.1875 4180949.25 299.910003662
577608.1875 4180949.5 299.890014648
577608.1875 4180949.75 299.869995117
577608.1875 4180949.75 299.859985352
577608.1875 4180950 299.859985352
577608.1875 4180950.25 299.869995117
577608.1875 4180950.5 299.880004883
577608.1875 4180950.5 299.910003662
577608.1875 4180950.75 299.940002441
577608.1875 4180951 299.970001221
577608.1875 4180951.25 300
577608.1875 4180951.5 300.040008545
577608.1875 4180951.5 300.070007324
577608.1875 4180951.75 300.109985352
577608.1875 4180952 300.140014648
577608.1875 4180952.25 300.179992676
577608.1875 4180952.5 300.209991455
577608.1875 4180952.5 300.25
577608.1875 4180952.75 300.290008545
577608.1875 4180953 300.339996338
577608.1875 4180953.25 300.390014648
577608.1875 4180953.5 300.440002441
577608.1875 4180953.5 300.470001221
577608.1875 4180953.75 300.570007324
577608.1875 4180954 300.630004883
577608.1875 4180954.25 300.679992676
577608.1875 4180954.25 300.730010986
577608.1875 4180954.5 300.769989014
577608.1875 4180954.75 300.989990234
577608.1875 4180955 300.820007324
577608.1875 4180955.25 300.829986572
577608.1875 4180955.25 300.760009766
577608.1875 4180955.5 300.850006104
577608.1875 4180955.75 300.859985352
577608.1875 4180956 300.730010986
577608.1875 4180956.25 300.929992676
577608.1875 4180956.25 300.980010986
577608.1875 4180956.5 301.040008545
577608.1875 4180956.75 301.100006104
577608.1875 4180957 301.149993896
577608.1875 4180957.25 301.179992676
577608.1875 4180957.25 301.200012207
577608.1875 4180957.5 301.179992676
577608.1875 4180957.75 301.140014648
577608.1875 4180958 301.079986572
577608.1875 4180958 301.010009766
577608.1875 4180958.25 300.950012207
577608.1875 4180958.5 300.920013428
577608.1875 4180958.75 300.940002441
577608.1875 4180959 301.019989014
577608.1875 4180959 301.179992676
577608.1875 4180963.25 301.010009766
577608.1875 4180963.5 300.649993896
577608.1875 4180963.75 300.220001221
577608.375 4180947.75 299.630004883
577608.375 4180948 299.820007324
577608.375 4180948.25 299.940002441
577608.375 4180948.5 300.010009766
577608.375 4180948.75 300.029998779
577608.375 4180948.75 300.019989014
577608.375 4180949 299.989990234
577608.375 4180949.25 299.959991455
577608.375 4180949.5 299.929992676
577608.375 4180949.75 299.899993896
577608.375 4180949.75 299.890014648
577608.375 4180950 299.890014648
577608.375 4180950.5 299.910003662
577608.375 4180950.5 299.940002441
577608.375 4180950.75 299.970001221
577608.375 4180951 300
577608.375 4180951.25 299.899993896
577608.375 4180951.5 300.070007324
577608.375 4180951.5 300.109985352
577608.375 4180951.75 300.140014648
577608.375 4180952 300.190002441
577608.375 4180952.25 300.230010986
577608.375 4180952.5 300.260009766
577608.375 4180952.5 300.320007324
577608.375 4180952.75 300.369995117
577608.375 4180953 300.440002441
577608.375 4180953.25 300.470001221
577608.375 4180953.5 300.529998779
577608.375 4180953.5 300.589996338
577608.375 4180953.75 300.649993896
577608.375 4180954 300.709991455
577608.375 4180954.25 300.769989014
577608.375 4180954.25 300.809997559
577608.375 4180954.5 300.850006104
577608.375 4180954.75 300.880004883
577608.375 4180955 300.890014648
577608.375 4180955.25 300.899993896
577608.375 4180955.25 300.899993896
577608.375 4180955.5 300.910003662
577608.375 4180955.75 300.920013428
577608.375 4180956 300.940002441
577608.375 4180956.25 300.980010986
577608.375 4180956.25 301.029998779
577608.375 4180956.5 301.089996338
577608.375 4180956.75 301.160003662
577608.375 4180957 301.209991455
577608.375 4180957.25 301.25
577608.375 4180957.25 301.260009766
577608.375 4180957.5 301.230010986
577608.375 4180957.75 301.269989014
577608.375 4180958 301.089996338
577608.375 4180958 301
577608.375 4180958.25 301.130004883
577608.375 4180958.5 300.869995117
577608.375 4180958.75 300.880004883
577608.375 4180959 301.140014648
577608.375 4180959 301.160003662
577608.375 4180959.25 301.440002441
577608.375 4180959.5 301.200012207
577608.375 4180963.25 301.049987793
577608.375 4180963.5 300.709991455
577608.375 4180963.75 300.309997559
577608.375 4180963.75 299.859985352
577608.625 4180947.75 299.799987793
577608.625 4180948 299.970001221
577608.625 4180948.25 300.070007324
577608.625 4180948.75 300.070007324
577608.625 4180949 300.029998779
577608.625 4180949.25 299.989990234
577608.625 4180949.5 299.950012207
577608.625 4180949.75 300.059997559
577608.625 4180949.75 299.920013428
577608.625 4180950.25 300.230010986
577608.625 4180950.5 299.970001221
577608.625 4180950.5 300.049987793
577608.625 4180950.75 300.029998779
577608.625 4180951 300.059997559
577608.625 4180951.25 300.089996338
577608.625 4180951.5 300.130004883
577608.625 4180951.5 300.170013428
577608.625 4180951.75 300.209991455
577608.625 4180952 300.260009766
577608.625 4180952.25 300.299987793
577608.625 4180952.5 300.350006104
577608.625 4180952.5 300.399993896
577608.625 4180952.75 300.450012207
577608.625 4180953 300.5
577608.625 4180953.25 300.549987793
577608.625 4180953.5 300.609985352
577608.625 4180953.5 300.670013428
577608.625 4180953.75 300.730010986
577608.625 4180954 300.790008545
577608.625 4180954.25 300.839996338
577608.625 4180954.25 300.890014648
577608.625 4180954.5 300.929992676
577608.625 4180954.75 300.950012207
577608.625 4180955 300.970001221
577608.625 4180955.25 300.970001221
577608.625 4180955.25 300.970001221
577608.625 4180955.5 300.970001221
577608.625 4180955.75 300.980010986
577608.625 4180956 300.899993896
577608.625 4180956.25 301.029998779
577608.625 4180956.25 301.079986572
577608.625 4180956.5 301.160003662
577608.625 4180956.75 301.209991455
577608.625 4180957 301.260009766
577608.625 4180957.25 301.220001221
577608.625 4180957.25 301.290008545
577608.625 4180957.5 301.25
577608.625 4180957.75 301.179992676
577608.625 4180958 301.079986572
577608.625 4180958 300.959991455
577608.625 4180958.25 300.859985352
577608.625 4180958.5 300.809997559
577608.625 4180958.75 300.820007324
577608.625 4180959 300.929992676
577608.625 4180959 301.149993896
577608.625 4180959.25 301.489990234
577608.625 4180962.25 302.980010986
577608.625 4180963.75 300.429992676
577608.625 4180963.75 300.029998779
577608.8125 4180947.25 299.779998779
577608.8125 4180947.75 299.670013428
577608.8125 4180947.75 299.660003662
577608.8125 4180948.5 299.679992676
577608.8125 4180948.75 300.109985352
577608.8125 4180949 299.859985352
577608.8125 4180949.25 300.019989014
577608.8125 4180949.5 299.980010986
577608.8125 4180949.75 299.970001221
577608.8125 4180949.75 299.970001221
577608.8125 4180950 299.980010986
577608.8125 4180950.25 300.010009766
577608.8125 4180950.5 300.040008545
577608.8125 4180950.5 300.079986572
577608.8125 4180950.75 300.119995117
577608.8125 4180951 300.149993896
577608.8125 4180951.25 300.190002441
577608.8125 4180951.5 300.230010986
577608.8125 4180951.5 300.269989014
577608.8125 4180951.75 300.309997559
577608.8125 4180952 300.350006104
577608.8125 4180952.25 300.390014648
577608.8125 4180952.5 300.429992676
577608.8125 4180952.5 300.480010986
577608.8125 4180952.75 300.529998779
577608.8125 4180953 300.570007324
577608.8125 4180953.25 300.619995117
577608.8125 4180953.5 300.679992676
577608.8125 4180953.5 300.739990234
577608.8125 4180953.75 300.679992676
577608.8125 4180954 300.859985352
577608.8125 4180954.25 300.799987793
577608.8125 4180954.25 300.959991455
577608.8125 4180954.5 301
577608.8125 4180954.75 300.950012207
577608.8125 4180955 301.040008545
577608.8125 4180955.25 301.040008545
577608.8125 4180955.25 301.220001221
577608.8125 4180955.5 301.029998779
577608.8125 4180955.75 301.040008545
577608.8125 4180956 301.049987793
577608.8125 4180956.25 301.079986572
577608.8125 4180956.25 301.130004883
577608.8125 4180956.5 301.190002441
577608.8125 4180956.75 301.239990234
577608.8125 4180957 301.290008545
577608.8125 4180957.25 301.309997559
577608.8125 4180957.25 301.299987793
577608.8125 4180957.5 301.239990234
577608.8125 4180957.75 301.149993896
577608.8125 4180958 301.029998779
577608.8125 4180958 300.910003662
577608.8125 4180958.25 300.799987793
577608.8125 4180958.5 300.75
577608.8125 4180958.75 300.769989014
577608.8125 4180959 300.910003662
577608.8125 4180959 301.170013428
577608.8125 4180959.25 301.549987793
577608.8125 4180963.5 300.200012207
577608.8125 4180963.75 300.239990234
577608.8125 4180964 300.029998779
577609 4180947.75 299.700012207
577609 4180948.75 300.149993896
577609 4180949 300.100006104
577609 4180949.25 300.059997559
577609 4180949.5 300.029998779
577609 4180949.75 300.019989014
577609 4180949.75 300.029998779
577609 4180950 300.059997559
577609 4180950.5 300.140014648
577609 4180950.5 300.190002441
577609 4180950.75 300.070007324
577609 4180951 300.269989014
577609 4180951.25 300.309997559
577609 4180951.5 300.459991455
577609 4180951.5 300.390014648
577609 4180951.75 300.420013428
577609 4180952 300.630004883
577609 4180952.25 300.489990234
577609 4180952.5 300.529998779
577609 4180952.5 300.730010986
577609 4180952.75 300.600006104
577609 4180953 300.649993896
577609 4180953.25 300.649993896
577609 4180953.5 300.739990234
577609 4180953.5 300.799987793
577609 4180953.75 300.859985352
577609 4180954 300.920013428
577609 4180954.25 300.980010986
577609 4180954.25 301.029998779
577609 4180954.5 301.070007324
577609 4180954.75 301.089996338
577609 4180955 301.109985352
577609 4180955.25 301.109985352
577609 4180955.25 301.100006104
577609 4180955.5 301.100006104
577609 4180955.75 301.100006104
577609 4180956 301.109985352
577609 4180956.25 301.130004883
577609 4180956.25 301.170013428
577609 4180956.5 301.220001221
577609 4180956.75 301.260009766
577609 4180957 301.290008545
577609 4180957.25 301.290008545
577609 4180957.25 301.260009766
577609 4180957.5 301.190002441
577609 4180957.75 301.089996338
577609 4180958 300.959991455
577609 4180958 300.839996338
577609 4180958.25 300.739990234
577609 4180958.5 300.700012207
577609 4180958.75 300.75
577609 4180959 300.920013428
577609 4180964 300.119995117
577609.1875 4180947.75 299.649993896
577609.1875 4180947.75 299.899993896
577609.1875 4180948 300.079986572
577609.1875 4180948.25 300.179992676
577609.1875 4180948.5 300.200012207
577609.1875 4180948.75 300.230010986
577609.1875 4180948.75 300.200012207
577609.1875 4180949 300.079986572
577609.1875 4180949.25 300.119995117
577609.1875 4180949.5 300.100006104
577609.1875 4180949.75 300.320007324
577609.1875 4180949.75 300.119995117
577609.1875 4180950 300.149993896
577609.1875 4180950.25 300.429992676
577609.1875 4180950.5 300.25
577609.1875 4180950.5 300.309997559
577609.1875 4180950.75 300.359985352
577609.1875 4180951 300.410003662
577609.1875 4180951.25 300.450012207
577609.1875 4180951.5 300.489990234
577609.1875 4180951.5 300.519989014
577609.1875 4180951.75 300.549987793
577609.1875 4180952 300.579986572
577609.1875 4180952.25 300.600006104
577609.1875 4180952.5 300.630004883
577609.1875 4180952.5 300.649993896
577609.1875 4180952.75 300.679992676
577609.1875 4180953 300.720001221
577609.1875 4180953.25 300.760009766
577609.1875 4180953.5 300.809997559
577609.1875 4180953.5 300.859985352
577609.1875 4180953.75 300.920013428
577609.1875 4180954 300.980010986
577609.1875 4180954.25 301.029998779
577609.1875 4180954.25 301.079986572
577609.1875 4180954.5 301.119995117
577609.1875 4180954.75 301.149993896
577609.1875 4180955 301.160003662
577609.1875 4180955.25 301.170013428
577609.1875 4180955.25 301.160003662
577609.1875 4180955.5 301.149993896
577609.1875 4180955.75 301.149993896
577609.1875 4180956 301.160003662
577609.1875 4180956.25 301.170013428
577609.1875 4180956.25 301.200012207
577609.1875 4180956.5 301.230010986
577609.1875 4180956.75 301.25
577609.1875 4180957 301.260009766
577609.1875 4180957.25 301.190002441
577609.1875 4180957.5 301.100006104
577609.1875 4180957.75 300.989990234
577609.1875 4180958 300.859985352
577609.1875 4180958 300.75
577609.1875 4180958.25 300.929992676
577609.1875 4180958.5 300.670013428
577609.1875 4180958.75 300.760009766
577609.1875 4180959 300.730010986
577609.1875 4180963.75 299.890014648
577609.375 4180947.25 299.739990234
577609.375 4180947.75 299.730010986
577609.375 4180948 300.019989014
577609.375 4180948.25 300.160003662
577609.375 4180948.5 300.239990234
577609.375 4180948.75 300.269989014
577609.375 4180948.75 300.260009766
577609.375 4180949 300.239990234
577609.375 4180949.25 300.220001221
577609.375 4180949.5 300.200012207
577609.375 4180949.75 300.209991455
577609.375 4180949.75 300.230010986
577609.375 4180950 300.260009766
577609.375 4180950.25 300.320007324
577609.375 4180950.5 300.380004883
577609.375 4180950.5 300.440002441
577609.375 4180950.75 300.5
577609.375 4180951 300.559997559
577609.375 4180951.25 300.600006104
577609.375 4180951.5 300.640014648
577609.375 4180951.5 300.670013428
577609.375 4180951.75 300.690002441
577609.375 4180952 300.709991455
577609.375 4180952.25 300.720001221
577609.375 4180952.5 300.730010986
577609.375 4180952.5 300.75
577609.375 4180952.75 300.769989014
577609.375 4180953 300.790008545
577609.375 4180953.25 300.829986572
577609.375 4180953.5 300.869995117
577609.375 4180953.5 300.920013428
577609.375 4180953.75 300.980010986
577609.375 4180954 301.029998779
577609.375 4180954.25 301.089996338
577609.375 4180954.25 301.140014648
577609.375 4180954.5 301.170013428
577609.375 4180954.75 301.200012207
577609.375 4180955 301.209991455
577609.375 4180955.25 301.209991455
577609.375 4180955.25 301.200012207
577609.375 4180955.5 301.200012207
577609.375 4180955.75 301.190002441
577609.375 4180956 301.190002441
577609.375 4180956.25 301.200012207
577609.375 4180956.25 301.209991455
577609.375 4180956.5 301.070007324
577609.375 4180956.75 301.220001221
577609.375 4180957.25 300.899993896
577609.375 4180957.25 301.079986572
577609.375 4180957.5 300.980010986
577609.375 4180957.75 301.029998779
577609.375 4180958 300.739990234
577609.375 4180958 300.649993896
577609.375 4180958.5 300.660003662
577609.375 4180958.75 300.799987793
577609.375 4180962.75 299.890014648
577609.375 4180963.25 299.670013428
577609.5625 4180948 299.920013428
577609.5625 4180948.25 300.109985352
577609.5625 4180948.5 300.239990234
577609.5625 4180948.75 300.309997559
577609.5625 4180948.75 300.339996338
577609.5625 4180949 300.350006104
577609.5625 4180949.25 300.339996338
577609.5625 4180949.5 300.329986572
577609.5625 4180949.75 300.329986572
577609.5625 4180949.75 300.350006104
577609.5625 4180950 300.390014648
577609.5625 4180950.25 300.440002441
577609.5625 4180950.5 300.5
577609.5625 4180950.5 300.570007324
577609.5625 4180950.75 300.640014648
577609.5625 4180951 300.700012207
577609.5625 4180951.25 300.75
577609.5625 4180951.5 300.790008545
577609.5625 4180951.5 300.820007324
577609.5625 4180951.75 300.829986572
577609.5625 4180952 300.839996338
577609.5625 4180952.25 300.839996338
577609.5625 4180952.5 300.839996338
577609.5625 4180952.5 300.839996338
577609.5625 4180952.75 300.850006104
577609.5625 4180953 300.869995117
577609.5625 4180953.25 300.899993896
577609.5625 4180953.5 300.940002441
577609.5625 4180953.5 300.980010986
577609.5625 4180953.75 301.029998779
577609.5625 4180954 301.089996338
577609.5625 4180954.25 301.140014648
577609.5625 4180954.25 301.089996338
577609.5625 4180954.5 301.209991455
577609.5625 4180954.75 301.230010986
577609.5625 4180955 301.429992676
577609.5625 4180955.25 301.239990234
577609.5625 4180955.25 301.230010986
577609.5625 4180955.5 301.339996338
577609.5625 4180955.75 301.209991455
577609.5625 4180956 301.209991455
577609.5625 4180956.25 301.440002441
577609.5625 4180956.25 301.200012207
577609.5625 4180956.5 301.190002441
577609.5625 4180956.75 301.160003662
577609.5625 4180957 301.109985352
577609.5625 4180957.25 301.040008545
577609.5625 4180957.25 300.940002441
577609.5625 4180957.5 300.829986572
577609.5625 4180957.75 300.709991455
577609.5625 4180958 300.619995117
577609.5625 4180958.25 300.570007324
577609.5625 4180959 301.220001221
577609.5625 4180959.25 300.480010986
577609.8125 4180948 299.790008545
577609.8125 4180948.25 300.049987793
577609.8125 4180948.5 300.239990234
577609.8125 4180948.75 300.359985352
577609.8125 4180948.75 300.440002441
577609.8125 4180949 300.470001221
577609.8125 4180949.25 300.480010986
577609.8125 4180949.5 300.480010986
577609.8125 4180949.75 300.480010986
577609.8125 4180949.75 300.5
577609.8125 4180950 300.519989014
577609.8125 4180950.25 300.570007324
577609.8125 4180950.5 300.630004883
577609.8125 4180950.5 300.700012207
577609.8125 4180950.75 300.769989014
577609.8125 4180951 300.839996338
577609.8125 4180951.25 300.890014648
577609.8125 4180951.5 300.940002441
577609.8125 4180951.5 300.959991455
577609.8125 4180951.75 300.970001221
577609.8125 4180952 301
577609.8125 4180952.25 300.959991455
577609.8125 4180952.5 300.950012207
577609.8125 4180952.5 300.970001221
577609.8125 4180952.75 300.940002441
577609.8125 4180953 300.950012207
577609.8125 4180953.25 300.899993896
577609.8125 4180953.5 301.010009766
577609.8125 4180953.5 301.049987793
577609.8125 4180953.75 301.040008545
577609.8125 4180954 301.140014648
577609.8125 4180954.25 301.179992676
577609.8125 4180954.25 301.209991455
577609.8125 4180954.5 301.239990234
577609.8125 4180954.75 301.25
577609.8125 4180955 301.25
577609.8125 4180955.25 301.239990234
577609.8125 4180955.25 301.230010986
577609.8125 4180955.5 301.220001221
577609.8125 4180955.75 301.209991455
577609.8125 4180956 301.200012207
577609.8125 4180956.25 301.190002441
577609.8125 4180956.25 301.170013428
577609.8125 4180956.5 301.130004883
577609.8125 4180956.75 301.079986572
577609.8125 4180957 301
577609.8125 4180957.25 300.910003662
577609.8125 4180957.25 300.790008545
577609.8125 4180957.5 300.670013428
577609.8125 4180957.75 300.570007324
577609.8125 4180958 300.940002441
577609.8125 4180958.75 301.100006104
577610 4180948.25 299.959991455
577610 4180948.5 300.220001221
577610 4180948.75 300.410003662
577610 4180948.75 300.529998779
577610 4180949 300.600006104
577610 4180949.25 300.630004883
577610 4180949.5 300.640014648
577610 4180949.75 300.5
577610 4180949.75 300.649993896
577610 4180950 300.670013428
577610 4180950.25 300.600006104
577610 4180950.5 300.760009766
577610 4180950.5 300.829986572
577610 4180950.75 300.920013428
577610 4180951 300.970001221
577610 4180951.25 301.019989014
577610 4180951.5 300.950012207
577610 4180951.5 301.089996338
577610 4180951.75 301.100006104
577610 4180952 301.100006104
577610 4180952.25 301.079986572
577610 4180952.5 301.059997559
577610 4180952.5 301.049987793
577610 4180952.75 301.040008545
577610 4180953 301.040008545
577610 4180953.25 301.059997559
577610 4180953.5 301.079986572
577610 4180953.5 301.119995117
577610 4180953.75 301.149993896
577610 4180954 301.190002441
577610 4180954.25 301.220001221
577610 4180954.25 301.239990234
577610 4180954.5 301.239990234
577610 4180954.75 301.239990234
577610 4180955 301.239990234
577610 4180955.25 301.220001221
577610 4180955.25 301.209991455
577610 4180955.5 301.190002441
577610 4180955.75 301.179992676
577610 4180956 300.959991455
577610 4180956.25 301.140014648
577610 4180956.25 300.950012207
577610 4180956.5 301.059997559
577610 4180956.75 300.980010986
577610 4180957 300.989990234
577610 4180957.25 300.769989014
577610 4180957.25 300.640014648
577610 4180957.5 300.829986572
577610 4180958.25 300.589996338
577610 4180958.5 300.839996338
577610 4180958.75 301.200012207
577610.1875 4180948 300.320007324
577610.1875 4180948.5 300.390014648
577610.1875 4180948.75 300.619995117
577610.1875 4180949 300.410003662
577610.1875 4180949.5 300.809997559
577610.1875 4180949.75 300.799987793
577610.1875 4180950 300.809997559
577610.1875 4180950.25 300.839996338
577610.1875 4180950.5 300.880004883
577610.1875 4180950.5 300.940002441
577610.1875 4180950.75 301.010009766
577610.1875 4180951 301.079986572
577610.1875 4180951.25 301.140014648
577610.1875 4180951.5 301.190002441
577610.1875 4180951.5 301.209991455
577610.1875 4180951.75 301.220001221
577610.1875 4180952 301.209991455
577610.1875 4180952.25 301.200012207
577610.1875 4180952.5 301.170013428
577610.1875 4180952.5 301.149993896
577610.1875 4180952.75 301.140014648
577610.1875 4180953 301.130004883
577610.1875 4180953.25 301.140014648
577610.1875 4180953.5 301.160003662
577610.1875 4180953.5 301.329986572
577610.1875 4180953.75 301.209991455
577610.1875 4180954 301.230010986
577610.1875 4180954.25 301.220001221
577610.1875 4180954.25 301.239990234
577610.1875 4180954.5 301.239990234
577610.1875 4180954.75 301.420013428
577610.1875 4180955 301.200012207
577610.1875 4180955.25 301.179992676
577610.1875 4180955.25 301
577610.1875 4180955.5 301.140014648
577610.1875 4180955.75 301.119995117
577610.1875 4180956 301.100006104
577610.1875 4180956.25 301.070007324
577610.1875 4180956.25 301.019989014
577610.1875 4180956.5 300.959991455
577610.1875 4180956.75 300.869995117
577610.1875 4180957 300.760009766
577610.1875 4180957.25 300.640014648
577610.1875 4180957.25 300.519989014
577610.1875 4180958 300.359985352
577610.1875 4180958 300.459991455
577610.1875 4180958.25 300.660003662
577610.1875 4180958.5 300.980010986
577610.375 4180948.75 300.690002441
577610.375 4180949.25 300.929992676
577610.375 4180949.5 300.959991455
577610.375 4180949.75 300.970001221
577610.375 4180949.75 300.959991455
577610.375 4180950 300.959991455
577610.375 4180950.25 300.970001221
577610.375 4180950.5 301
577610.375 4180950.5 301.049987793
577610.375 4180950.75 301.109985352
577610.375 4180951 301.179992676
577610.375 4180951.25 301.239990234
577610.375 4180951.5 301.209991455
577610.375 4180951.5 301.320007324
577610.375 4180951.75 301.369995117
577610.375 4180952 301.320007324
577610.375 4180952.5 300.959991455
577610.375 4180952.75 301.230010986
577610.375 4180953 301.079986572
577610.375 4180953.25 301.220001221
577610.375 4180953.5 301.230010986
577610.375 4180953.5 301.239990234
577610.375 4180953.75 301.25
577610.375 4180954 301.260009766
577610.375 4180954.25 301.25
577610.375 4180954.25 301.230010986
577610.375 4180954.5 301.209991455
577610.375 4180954.75 301.179992676
577610.375 4180955 301.140014648
577610.375 4180955.25 301.109985352
577610.375 4180955.25 301.079986572
577610.375 4180955.5 301.049987793
577610.375 4180955.75 301.029998779
577610.375 4180956 301
577610.375 4180956.25 300.970001221
577610.375 4180956.25 300.920013428
577610.375 4180956.5 300.850006104
577610.375 4180956.75 300.760009766
577610.375 4180957 300.649993896
577610.375 4180957.25 300.529998779
577610.375 4180957.25 300.420013428
577610.375 4180957.5 300.350006104
577610.375 4180957.75 300.320007324
577610.375 4180958.25 300.779998779
577610.375 4180958.5 301.149993896
577610.375 4180958.75 301.630004883
577610.5625 4180948.75 300.440002441
577610.5625 4180948.75 300.730010986
577610.5625 4180949 300.910003662
577610.5625 4180949.25 301.049987793
577610.5625 4180949.5 301.109985352
577610.5625 4180949.75 300.959991455
577610.5625 4180949.75 301.109985352
577610.5625 4180950 301.100006104
577610.5625 4180950.25 300.989990234
577610.5625 4180950.5 301.109985352
577610.5625 4180950.5 301.299987793
577610.5625 4180950.75 301.200012207
577610.5625 4180951 301.260009766
577610.5625 4180951.25 301.320007324
577610.5625 4180951.5 301.369995117
577610.5625 4180951.5 301.399993896
577610.5625 4180951.75 301.410003662
577610.5625 4180952 301.410003662
577610.5625 4180952.5 301.339996338
577610.5625 4180952.75 301.320007324
577610.5625 4180953 301.299987793
577610.5625 4180953.25 301.290008545
577610.5625 4180953.5 301.290008545
577610.5625 4180953.5 301.290008545
577610.5625 4180953.75 301.279998779
577610.5625 4180954 301.269989014
577610.5625 4180954.25 301.239990234
577610.5625 4180954.25 301.209991455
577610.5625 4180954.5 301.170013428
577610.5625 4180954.75 301.119995117
577610.5625 4180955 301.070007324
577610.5625 4180955.25 301.019989014
577610.5625 4180955.25 300.980010986
577610.5625 4180955.5 300.950012207
577610.5625 4180955.75 300.920013428
577610.5625 4180956 300.890014648
577610.5625 4180956.25 300.850006104
577610.5625 4180956.25 300.799987793
577610.5625 4180956.75 300.649993896
577610.5625 4180957 300.549987793
577610.5625 4180957.25 300.459991455
577610.5625 4180957.25 300.380004883
577610.5625 4180958 300.450012207
577610.5625 4180958.25 301.049987793
577610.5625 4180959 301.309997559
577610.75 4180948.5 300.390014648
577610.75 4180948.75 300.399993896
577610.75 4180948.75 300.739990234
577610.75 4180949 300.989990234
577610.75 4180949.25 301.149993896
577610.75 4180949.5 301.230010986
577610.75 4180949.75 301.25
577610.75 4180950 301.230010986
577610.75 4180950.25 301.220001221
577610.75 4180950.5 301.220001221
577610.75 4180950.5 301.239990234
577610.75 4180950.75 301.279998779
577610.75 4180951 301.329986572
577610.75 4180951.25 301.380004883
577610.75 4180951.5 301.420013428
577610.75 4180951.5 301.459991455
577610.75 4180951.75 301.470001221
577610.75 4180952 301.470001221
577610.75 4180952.25 301.459991455
577610.75 4180952.5 301.440002441
577610.75 4180952.5 301.410003662
577610.75 4180952.75 301.390014648
577610.75 4180953 301.369995117
577610.75 4180953.25 301.350006104
577610.75 4180953.5 301.329986572
577610.75 4180953.5 301.320007324
577610.75 4180953.75 301.290008545
577610.75 4180954 301.260009766
577610.75 4180954.25 301.220001221
577610.75 4180954.25 301.170013428
577610.75 4180954.5 301.109985352
577610.75 4180954.75 301.049987793
577610.75 4180955 300.980010986
577610.75 4180955.25 300.929992676
577610.75 4180955.25 300.869995117
577610.75 4180955.5 300.829986572
577610.75 4180955.75 300.790008545
577610.75 4180956 300.75
577610.75 4180956.25 300.709991455
577610.75 4180956.25 300.670013428
577610.75 4180956.5 300.429992676
577610.75 4180956.75 300.549987793
577610.75 4180957 300.480010986
577610.75 4180957.25 300.369995117
577610.75 4180957.25 300.390014648
577610.75 4180957.75 300.799987793
577610.75 4180958 300.600006104
577610.75 4180958 300.839996338
577610.9375 4180948.75 300.329986572
577610.9375 4180948.75 300.730010986
577610.9375 4180949 301.019989014
577610.9375 4180949.25 301.220001221
577610.9375 4180949.5 301.329986572
577610.9375 4180949.75 301.380004883
577610.9375 4180949.75 301.380004883
577610.9375 4180950 301.359985352
577610.9375 4180950.25 301.329986572
577610.9375 4180950.5 301.320007324
577610.9375 4180950.5 301.320007324
577610.9375 4180950.75 301.339996338
577610.9375 4180951 301.369995117
577610.9375 4180951.25 301.410003662
577610.9375 4180951.5 301.450012207
577610.9375 4180951.5 301.489990234
577610.9375 4180951.75 301.510009766
577610.9375 4180952 301.510009766
577610.9375 4180952.25 301.5
577610.9375 4180952.5 301.489990234
577610.9375 4180952.5 301.470001221
577610.9375 4180952.75 301.440002441
577610.9375 4180953 301.410003662
577610.9375 4180953.25 301.390014648
577610.9375 4180953.5 301.359985352
577610.9375 4180953.5 301.320007324
577610.9375 4180953.75 301.279998779
577610.9375 4180954 301.230010986
577610.9375 4180954.25 301.179992676
577610.9375 4180954.25 301.260009766
577610.9375 4180954.5 301.040008545
577610.9375 4180954.75 300.790008545
577610.9375 4180955 300.890014648
577610.9375 4180955.25 300.820007324
577610.9375 4180955.25 300.760009766
577610.9375 4180955.5 300.700012207
577610.9375 4180955.75 300.649993896
577610.9375 4180956 300.609985352
577610.9375 4180956.25 300.570007324
577610.9375 4180956.25 300.529998779
577610.9375 4180956.5 300.489990234
577610.9375 4180956.75 300.459991455
577610.9375 4180957 300.440002441
577610.9375 4180957.25 300.429992676
577610.9375 4180957.25 300.450012207
577610.9375 4180957.5 300.510009766
577611.1875 4180948.75 300.679992676
577611.1875 4180949 301.029998779
577611.1875 4180949.25 301.269989014
577611.1875 4180949.5 301.410003662
577611.1875 4180949.75 301.480010986
577611.1875 4180949.75 301.489990234
577611.1875 4180950 301.470001221
577611.1875 4180950.25 301.440002441
577611.1875 4180950.5 301.399993896
577611.1875 4180950.5 301.390014648
577611.1875 4180950.75 301.380004883
577611.1875 4180951 301.399993896
577611.1875 4180951.25 301.429992676
577611.1875 4180951.5 301.459991455
577611.1875 4180951.75 301.510009766
577611.1875 4180952 301.519989014
577611.1875 4180952.25 301.519989014
577611.1875 4180952.5 301.510009766
577611.1875 4180952.5 301.5
577611.1875 4180952.75 301.459991455
577611.1875 4180953 301.429992676
577611.1875 4180953.25 301.609985352
577611.1875 4180953.5 301.350006104
577611.1875 4180953.5 301.299987793
577611.1875 4180953.75 301.489990234
577611.1875 4180954.25 301.119995117
577611.1875 4180954.25 301.040008545
577611.1875 4180954.5 300.959991455
577611.1875 4180954.75 300.880004883
577611.1875 4180955 300.799987793
577611.1875 4180955.25 300.720001221
577611.1875 4180955.25 300.649993896
577611.1875 4180955.5 300.579986572
577611.1875 4180955.75 300.519989014
577611.1875 4180956 300.470001221
577611.1875 4180956.25 300.429992676
577611.1875 4180956.25 300.399993896
577611.1875 4180956.5 300.390014648
577611.1875 4180956.75 300.390014648
577611.1875 4180957 300.410003662
577611.1875 4180957.25 300.459991455
577611.1875 4180957.25 300.359985352
577611.1875 4180958 300.369995117
577611.375 4180948.75 300.619995117
577611.375 4180949 301.010009766
577611.375 4180949.25 301.290008545
577611.375 4180949.5 301.470001221
577611.375 4180949.75 301.570007324
577611.375 4180949.75 301.600006104
577611.375 4180950 301.579986572
577611.375 4180950.25 301.529998779
577611.375 4180950.5 301.660003662
577611.375 4180950.5 301.440002441
577611.375 4180950.75 301.410003662
577611.375 4180951 301.649993896
577611.375 4180951.25 301.410003662
577611.375 4180951.5 301.809997559
577611.375 4180952 301.5
577611.375 4180952.25 301.679992676
577611.375 4180952.5 301.5
577611.375 4180952.5 301.480010986
577611.375 4180952.75 301.450012207
577611.375 4180953 301.420013428
577611.375 4180953.25 301.369995117
577611.375 4180953.5 301.309997559
577611.375 4180953.5 301.25
577611.375 4180954 301.119995117
577611.375 4180954.25 301.040008545
577611.375 4180954.25 300.959991455
577611.375 4180954.5 300.880004883
577611.375 4180954.75 300.799987793
577611.375 4180955 300.709991455
577611.375 4180955.25 300.480010986
577611.375 4180955.25 300.549987793
577611.375 4180955.5 300.609985352
577611.375 4180955.75 300.399993896
577611.375 4180956 300.350006104
577611.375 4180956.25 300.559997559
577611.375 4180956.25 300.279998779
577611.375 4180956.5 300.290008545
577611.375 4180956.75 300.390014648
577611.375 4180957 300.399993896
577611.375 4180957.25 300.519989014
577611.5625 4180948.75 300.679992676
577611.5625 4180948.75 300.529998779
577611.5625 4180949.25 301.420013428
577611.5625 4180949.5 301.519989014
577611.5625 4180949.75 301.640014648
577611.5625 4180949.75 301.420013428
577611.5625 4180950 301.660003662
577611.5625 4180950.25 301.609985352
577611.5625 4180950.5 301.540008545
577611.5625 4180950.5 301.470001221
577611.5625 4180950.75 301.420013428
577611.5625 4180951 301.380004883
577611.5625 4180951.25 301.369995117
577611.5625 4180951.75 301.420013428
577611.5625 4180952 301.440002441
577611.5625 4180952.25 301.450012207
577611.5625 4180952.5 301.450012207
577611.5625 4180953 301.369995117
577611.5625 4180953.25 301.309997559
577611.5625 4180953.5 301.130004883
577611.5625 4180953.5 301.179992676
577611.5625 4180953.75 301.100006104
577611.5625 4180954 300.940002441
577611.5625 4180954.25 300.950012207
577611.5625 4180954.25 300.869995117
577611.5625 4180954.5 300.619995117
577611.5625 4180954.75 300.720001221
577611.5625 4180955 300.640014648
577611.5625 4180955.25 300.549987793
577611.5625 4180955.25 300.470001221
577611.5625 4180955.5 300.380004883
577611.5625 4180955.75 300.309997559
577611.5625 4180956 300.239990234
577611.5625 4180956.25 300.190002441
577611.5625 4180956.5 300.209991455
577611.5625 4180956.75 300.279998779
577611.5625 4180957 300.410003662
577611.5625 4180957.25 300.579986572
577611.5625 4180957.25 300.790008545
577611.75 4180949.25 301.279998779
577611.75 4180949.75 301.700012207
577611.75 4180950.25 301.670013428
577611.75 4180950.5 301.579986572
577611.75 4180950.5 301.480010986
577611.75 4180950.75 301.399993896
577611.75 4180951 301.339996338
577611.75 4180951.25 301.309997559
577611.75 4180951.5 301.299987793
577611.75 4180951.5 301.200012207
577611.75 4180951.75 301.329986572
577611.75 4180952 301.359985352
577611.75 4180952.25 301.190002441
577611.75 4180952.5 301.380004883
577611.75 4180952.75 300.980010986
577611.75 4180953.25 301.230010986
577611.75 4180953.5 301.160003662
577611.75 4180953.5 301.079986572
577611.75 4180953.75 301
577611.75 4180954 300.929992676
577611.75 4180954.25 300.850006104
577611.75 4180954.25 300.779998779
577611.75 4180954.5 300.720001221
577611.75 4180954.75 300.649993896
577611.75 4180955 300.570007324
577611.75 4180955.25 300.5
577611.75 4180955.25 300.410003662
577611.75 4180955.5 300.320007324
577611.75 4180955.75 300.239990234
577611.75 4180956 300.170013428
577611.75 4180956.25 300.119995117
577611.75 4180956.25 300.109985352
577611.75 4180956.5 300.149993896
577611.75 4180956.75 300.239990234
577611.75 4180957 300.399993896
577611.75 4180957.25 300.619995117
577611.9375 4180949.25 301.25
577611.9375 4180949.5 300.980010986
577611.9375 4180950 301.380004883
577611.9375 4180950.5 301.600006104
577611.9375 4180950.5 301.329986572
577611.9375 4180950.75 301.369995117
577611.9375 4180951 301.279998779
577611.9375 4180951.25 301.290008545
577611.9375 4180951.5 301.200012207
577611.9375 4180951.5 301.200012207
577611.9375 4180951.75 301.220001221
577611.9375 4180952 301.25
577611.9375 4180952.25 301.260009766
577611.9375 4180952.5 301.269989014
577611.9375 4180952.5 301.260009766
577611.9375 4180952.75 301.230010986
577611.9375 4180953 301.179992676
577611.9375 4180953.25 301.119995117
577611.9375 4180953.5 301.040008545
577611.9375 4180953.5 300.959991455
577611.9375 4180953.75 300.890014648
577611.9375 4180954 300.820007324
577611.9375 4180954.25 300.75
577611.9375 4180954.25 300.700012207
577611.9375 4180954.5 300.640014648
577611.9375 4180954.75 300.589996338
577611.9375 4180955 300.529998779
577611.9375 4180955.25 300.459991455
577611.9375 4180955.25 300.380004883
577611.9375 4180955.5 300.290008545
577611.9375 4180955.75 300.200012207
577611.9375 4180956.25 300.070007324
577611.9375 4180956.25 300.049987793
577611.9375 4180956.75 300.200012207
577611.9375 4180957 300.380004883
577611.9375 4180959 300.559997559
577612.125 4180948.75 301.260009766
577612.125 4180949.25 301.200012207
577612.125 4180950.25 301.730010986
577612.125 4180950.5 301.600006104
577612.125 4180950.5 301.459991455
577612.125 4180950.75 301.320007324
577612.125 4180951 301.209991455
577612.125 4180951.25 301.130004883
577612.125 4180951.5 301.089996338
577612.125 4180951.5 301.079986572
577612.125 4180951.75 301.089996338
577612.125 4180952 301.119995117
577612.125 4180952.25 301.140014648
577612.125 4180952.5 301.140014648
577612.125 4180952.5 301.130004883
577612.125 4180952.75 301.100006104
577612.125 4180953 301.049987793
577612.125 4180953.25 300.980010986
