# .PCD v.7 - Point Cloud Data file format
VERSION .7
FIELDS x y z
SIZE 4 4 4
TYPE F F F
COUNT 1 1 1
WIDTH 98
HEIGHT 1
VIEWPOINT 0 0 0 1 0 0 0
POINTS 98
DATA ascii
577601.9 4180961 299.84
577602.5 4180961 299.91
577602.9 4180961 300.15
577603.2 4180962 300.23
577603.1 4180961 300.27
577602.9 4180960 300.36
577603.2 4180961 300.35
577603.7 4180961 300.4
577603.9 4180962 300.42
577603.1 4180960 300.45
577603.9 4180960 300.47
577603.9 4180961 300.49
577603.1 4180960 300.5
577604.6 4180962 300.62
577604.6 4180961 300.65
577604.6 4180961 300.69
577604.6 4180961 300.71
577604.4 4180963 300.73
577605.1 4180962 300.74
577604.9 4180961 300.78
577605.1 4180960 300.81
577605.6 4180962 300.83
577604.6 4180963 300.87
577605.4 4180962 300.88
577605.2 4180960 300.91
577605.1 4180962 300.92
577606.6 4180963 300.97
577605.4 4180960 300.99
577605.2 4180962 301.01
577606.4 4180965 301.02
577605.1 4180961 301.03
577605.2 4180961 301.04
577605.6 4180960 301.04
577605.8 4180960 301.05
577605.4 4180961 301.05
577605.2 4180962 301.05
577606.6 4180963 301.06
577605.8 4180962 301.07
577606.1 4180963 301.1
577605.4 4180962 301.14
577606.2 4180961 301.15
577605.6 4180962 301.15
577605.2 4180961 301.16
577605.8 4180961 301.16
577605.2 4180962 301.19
577606.2 4180962 301.2
577606.8 4180963 301.2
577606.4 4180965 301.2
577606.1 4180961 301.21
577606.2 4180960 301.22
577606.4 4180962 301.23
577605.2 4180961 301.24
577606.8 4180962 301.24
577606.6 4180962 301.24
577605.2 4180961 301.25
577606.6 4180962 301.25
577606.6 4180962 301.26
577606.1 4180962 301.26
577607 4180962 301.28
577605.8 4180961 301.29
577606.4 4180962 301.29
577607 4180963 301.3
577606.2 4180961 301.33
577605.4 4180962 301.32
577606.6 4180962 301.33
577606.1 4180961 301.34
577605.8 4180962 301.36
577605.2 4180962 301.35
577606.8 4180962 301.37
577606.8 4180962 301.37
577605.6 4180962 301.38
577607 4180962 301.38
577606.1 4180963 301.38
577607 4180962 301.4
577605.8 4180961 301.42
577606.8 4180962 301.42
577606.8 4180961 301.43
577605.6 4180961 301.43
577606.8 4180961 301.43
577606.4 4180962 301.43
577606.4 4180962 301.45
577606.6 4180962 301.46
577606.1 4180961 301.47
577606.2 4180962 301.47
577606.1 4180962 301.5
577605.6 4180962 301.52
577606.4 4180962 301.52
577606.2 4180962 301.51
577605.8 4180961 301.54
577605.8 4180962 301.55
577606.2 4180962 301.55
577606.4 4180962 301.54
577603.1 4180964 301.56
577606.1 4180962 301.58
577605.8 4180962 301.62
577606.1 4180962 301.62
577605.8 4180962 301.63
577603.2 4180963 302.11
