# .PCD v.7 - Point Cloud Data file format
VERSION .7
FIELDS x y z
SIZE 4 4 4
TYPE F F F
COUNT 1 1 1
WIDTH 483
HEIGHT 1
VIEWPOINT 0 0 0 1 0 0 0
POINTS 483
DATA ascii
577613.8 4180956 299.39
577614.9 4180954 299.4
577614.5 4180957 299.4
577614.3 4180956 299.41
577614.1 4180956 299.42
577616.1 4180952 299.44
577615.7 4180953 299.44
577615.7 4180954 299.44
577613.3 4180956 299.44
577613.9 4180956 299.45
577614.1 4180956 299.45
577615.5 4180953 299.46
577614.3 4180956 299.46
577616.1 4180952 299.47
577614.3 4180955 299.47
577614.3 4180956 299.47
577614.3 4180956 299.47
577614.3 4180955 299.48
577615.3 4180953 299.49
577615.1 4180954 299.49
577614.9 4180955 299.49
577615.3 4180956 299.49
577613.9 4180956 299.49
577613.1 4180957 299.49
577615.9 4180951 299.5
577613.6 4180956 299.5
577613.9 4180957 299.5
577616.1 4180952 299.52
577615.9 4180952 299.52
577615.1 4180952 299.52
577613.6 4180956 299.52
577613.6 4180958 299.53
577616.1 4180952 299.54
577615.7 4180952 299.55
577613.1 4180956 299.58
577613.8 4180956 299.59
577613.1 4180957 299.59
577615.7 4180952 299.61
577615.5 4180952 299.61
577615.1 4180954 299.6
577614.1 4180956 299.61
577614.1 4180958 299.6
577613.3 4180956 299.62
577614.7 4180957 299.62
577615.9 4180951 299.63
577615.3 4180953 299.63
577614.9 4180954 299.63
577613.9 4180958 299.63
577615.1 4180954 299.64
577613.9 4180956 299.64
577615.9 4180952 299.66
577614.1 4180956 299.66
577615.9 4180952 299.67
577615.1 4180954 299.68
577615.3 4180958 299.69
577614.7 4180954 299.7
577613.6 4180956 299.71
577614.1 4180955 299.72
577613.9 4180958 299.72
577615.3 4180953 299.73
577613.1 4180956 299.73
577613.6 4180956 299.73
577613.3 4180958 299.73
577615.5 4180952 299.74
577614.1 4180955 299.74
577614.7 4180958 299.74
577615.1 4180953 299.75
577613.9 4180956 299.77
577614.7 4180957 299.76
577613.8 4180958 299.77
577613.8 4180956 299.78
577615.9 4180950 299.79
577615.9 4180952 299.79
577613.3 4180957 299.79
577615.9 4180952 299.81
577613.1 4180957 299.81
577614.9 4180954 299.83
577612.9 4180956 299.82
577613.3 4180956 299.82
577614.7 4180957 299.83
577613.3 4180958 299.83
577612.6 4180957 299.84
577615.7 4180951 299.85
577615.7 4180952 299.85
577613.9 4180956 299.86
577615.5 4180952 299.87
577612.9 4180957 299.87
577615.1 4180950 299.89
577615.3 4180952 299.89
577612.8 4180956 299.89
577615.1 4180953 299.9
577613.1 4180956 299.9
577614.7 4180954 299.91
577612.6 4180956 299.91
577614.1 4180954 299.93
577613.9 4180955 299.93
577613.8 4180956 299.93
577612.8 4180957 299.93
577615.3 4180951 299.94
577615.3 4180952 299.94
577614.5 4180954 299.94
577612.6 4180956 299.94
577613.8 4180954 299.95
577615.5 4180951 299.96
577612.9 4180956 299.96
577615.3 4180950 299.97
577614.9 4180954 299.97
577613.6 4180955 299.97
577612.4 4180956 299.97
577612.8 4180956 299.97
577612.6 4180957 299.97
577615.3 4180952 299.98
577613.9 4180955 299.98
577614.7 4180958 299.98
577615.5 4180952 299.99
577612.8 4180956 300
577614.1 4180954 300.02
577612.6 4180956 300.01
577613.3 4180956 300.01
577613.6 4180958 300.01
577615.7 4180952 300.03
577613.9 4180955 300.03
577613.3 4180958 300.03
577615.7 4180952 300.04
577615.1 4180952 300.05
577613.8 4180956 300.04
577611.9 4180956 300.05
577614.5 4180952 300.06
577613.8 4180954 300.06
577614.7 4180954 300.07
577613.9 4180955 300.07
577611.9 4180956 300.07
577613.1 4180956 300.08
577612.4 4180957 300.07
577612.1 4180957 300.08
577614.9 4180952 300.09
577614.3 4180953 300.09
577613.8 4180955 300.09
577615.3 4180952 300.11
577615.5 4180952 300.1
577614.3 4180952 300.11
577614.5 4180952 300.11
577614.7 4180952 300.11
577614.7 4180952 300.11
577614.9 4180953 300.1
577614.5 4180954 300.1
577614.3 4180954 300.1
577614.1 4180954 300.11
577611.8 4180956 300.11
577612.9 4180956 300.11
577612.6 4180957 300.11
577615.5 4180950 300.12
577614.1 4180952 300.12
577613.9 4180954 300.12
577611.8 4180956 300.12
577612.6 4180956 300.12
577614.1 4180952 300.13
577614.3 4180952 300.13
577615.1 4180952 300.13
577614.3 4180952 300.13
577614.5 4180952 300.13
577613.8 4180955 300.13
577612.8 4180957 300.13
577612.9 4180957 300.13
577614.7 4180959 300.13
577615.5 4180951 300.14
577613.9 4180952 300.14
577614.1 4180952 300.14
577612.1 4180957 300.14
577614.7 4180952 300.15
577614.9 4180952 300.15
577613.9 4180952 300.15
577614.7 4180952 300.15
577611.8 4180956 300.15
577613.9 4180954 300.16
577612.1 4180955 300.16
577613.8 4180952 300.17
577611.8 4180956 300.17
577612.8 4180957 300.17
577615.3 4180952 300.18
577613.8 4180952 300.18
577614.1 4180952 300.18
577614.3 4180952 300.18
577614.7 4180954 300.18
577614.3 4180954 300.18
577613.8 4180955 300.18
577615.5 4180952 300.19
577614.1 4180952 300.19
577613.8 4180952 300.19
577613.6 4180956 300.19
577612.1 4180956 300.19
577613.9 4180952 300.2
577614.3 4180952 300.2
577613.8 4180952 300.2
577614.7 4180953 300.2
577614.1 4180954 300.2
577611.9 4180956 300.2
577611.9 4180957 300.2
577615.1 4180950 300.21
577614.5 4180952 300.21
577613.9 4180954 300.21
577614.1 4180955 300.21
577612.4 4180956 300.21
577613.9 4180952 300.22
577614.3 4180954 300.22
577614.5 4180954 300.22
577613.8 4180955 300.22
577615.5 4180951 300.23
577613.8 4180952 300.23
577614.7 4180952 300.23
577615.1 4180952 300.23
577613.8 4180953 300.23
577613.9 4180953 300.23
577614.7 4180953 300.23
577614.7 4180953 300.23
577612.6 4180956 300.23
577613.1 4180956 300.23
577615.5 4180952 300.24
577614.9 4180952 300.24
577613.6 4180952 300.24
577613.6 4180952 300.24
577614.1 4180953 300.24
577614.5 4180953 300.24
577611.8 4180956 300.24
577613.6 4180952 300.25
577613.6 4180952 300.25
577614.3 4180953 300.25
577613.8 4180954 300.25
577612.8 4180956 300.25
577613.6 4180953 300.26
577614.5 4180952 300.26
577613.6 4180953 300.27
577613.8 4180953 300.26
577613.9 4180953 300.27
577613.6 4180953 300.27
577613.6 4180954 300.27
577613.9 4180954 300.26
577612.9 4180956 300.26
577613.9 4180958 300.27
577613.6 4180952 300.28
577613.8 4180953 300.28
577613.4 4180954 300.28
577613.6 4180954 300.28
577614.1 4180954 300.28
577614.3 4180954 300.28
577613.8 4180954 300.28
577612.6 4180958 300.28
577614.7 4180950 300.3
577613.9 4180952 300.29
577614.1 4180952 300.29
577615.3 4180952 300.29
577614.5 4180952 300.3
577613.3 4180953 300.3
577614.1 4180953 300.3
577614.5 4180953 300.29
577613.3 4180953 300.29
577612.9 4180954 300.3
577613.8 4180954 300.29
577613.9 4180954 300.3
577614.5 4180954 300.3
577613.3 4180954 300.3
577613.6 4180954 300.29
577611.9 4180956 300.29
577612.1 4180956 300.29
577613.3 4180956 300.3
577613.8 4180952 300.31
577614.3 4180952 300.31
577613.3 4180953 300.31
577613.1 4180954 300.31
577612.4 4180956 300.31
577612.8 4180956 300.31
577613.3 4180952 300.33
577613.3 4180952 300.32
577613.3 4180952 300.32
577613.9 4180952 300.33
577614.1 4180953 300.33
577614.5 4180953 300.32
577613.1 4180954 300.32
577613.9 4180954 300.32
577614.1 4180954 300.33
577613.1 4180954 300.32
577613.3 4180954 300.33
577613.6 4180954 300.33
577613.6 4180952 300.34
577615.1 4180952 300.34
577612.6 4180956 300.34
577614.7 4180952 300.35
577614.9 4180952 300.36
577613.3 4180952 300.35
577613.1 4180953 300.35
577614.3 4180953 300.35
577614.1 4180954 300.35
577614.3 4180954 300.35
577612.9 4180954 300.36
577613.1 4180954 300.35
577613.6 4180954 300.35
577613.6 4180955 300.36
577613.1 4180956 300.36
577612.9 4180954 300.37
577613.3 4180954 300.37
577614.5 4180951 300.38
577613.1 4180953 300.38
577613.9 4180953 300.38
577611.9 4180955 300.38
577612.9 4180956 300.38
577612.9 4180953 300.39
577612.4 4180955 300.39
577614.9 4180950 300.4
577613.3 4180952 300.4
577615.3 4180951 300.4
577613.1 4180952 300.4
577612.9 4180954 300.4
577613.1 4180954 300.4
577613.3 4180954 300.41
577613.8 4180952 300.42
577614.1 4180952 300.42
577613.1 4180952 300.42
577612.8 4180954 300.42
577612.6 4180955 300.42
577613.1 4180952 300.43
577612.8 4180954 300.43
577612.8 4180954 300.43
577613.6 4180952 300.44
577613.9 4180952 300.44
577613.1 4180954 300.44
577613.3 4180955 300.44
577613.1 4180955 300.44
577613.1 4180952 300.45
577612.8 4180954 300.45
577613.3 4180955 300.45
577612.8 4180955 300.45
577614.5 4180950 300.46
577612.8 4180954 300.46
577612.9 4180954 300.46
577612.4 4180955 300.46
577612.9 4180955 300.46
577613.1 4180952 300.48
577614.9 4180952 300.48
577612.9 4180953 300.48
577612.8 4180954 300.48
577613.1 4180955 300.48
577612.6 4180955 300.48
577613.3 4180952 300.49
577612.6 4180954 300.49
577613.1 4180955 300.49
577612.8 4180954 300.5
577612.6 4180954 300.5
577612.6 4180954 300.5
577612.4 4180955 300.5
577612.6 4180955 300.5
577612.8 4180955 300.5
577612.9 4180955 300.5
577613.1 4180955 300.5
577612.8 4180955 300.5
577615.1 4180951 300.52
577612.9 4180953 300.52
577612.4 4180955 300.52
577612.6 4180955 300.51
577612.8 4180955 300.51
577612.9 4180955 300.51
577613.6 4180950 300.53
577613.8 4180950 300.53
577613.9 4180950 300.53
577614.7 4180950 300.53
577612.6 4180954 300.53
577614.1 4180950 300.55
577614.7 4180950 300.54
577613.8 4180951 300.55
577613.9 4180951 300.55
577612.9 4180952 300.55
577612.9 4180952 300.55
577612.9 4180952 300.545
577612.4 4180954 300.54
577614.9 4180951 300.56
577614.1 4180951 300.56
577612.9 4180952 300.56
577613.1 4180952 300.56
577612.8 4180953 300.56
577612.9 4180952 300.58
577613.1 4180952 300.57
577613.6 4180951 300.57
577614.3 4180951 300.58
577614.9 4180951 300.58
577612.6 4180954 300.57
577612.4 4180954 300.57
577614.3 4180950 300.6
577613.3 4180951 300.61
577612.8 4180953 300.61
577612.4 4180954 300.6
577614.9 4180951 300.62
577612.6 4180954 300.63
577612.4 4180954 300.63
577614.1 4180950 300.64
577612.9 4180952 300.64
577612.8 4180953 300.65
577613.1 4180951 300.66
577614.7 4180951 300.67
577612.8 4180952 300.68
577612.8 4180952 300.68
577613.8 4180951 300.69
577613.9 4180951 300.69
577612.8 4180952 300.69
577612.8 4180952 300.69
577612.9 4180954 300.69
577614.3 4180951 300.7
577612.8 4180952 300.7
577613.6 4180951 300.72
577614.1 4180951 300.72
577614.3 4180950 300.73
577613.9 4180950 300.74
577612.9 4180951 300.74
577612.6 4180953 300.75
577614.1 4180951 300.78
577613.8 4180950 300.79
577613.3 4180950 300.79
577614.1 4180950 300.8
577613.9 4180951 300.8
577612.6 4180952 300.8
577613.1 4180951 300.81
577613.3 4180951 300.81
577613.8 4180951 300.83
577612.6 4180952 300.82
577612.8 4180951 300.83
577613.3 4180950 300.84
577613.6 4180950 300.84
577614.1 4180950 300.84
577613.3 4180950 300.85
577613.9 4180950 300.855
577612.8 4180952 300.86
577613.6 4180951 300.87
577612.9 4180951 300.88
577612.8 4180951 300.91
577613.3 4180951 300.92
577613.8 4180950 300.93
577612.8 4180951 300.96
577613.8 4180950 300.97
577613.1 4180951 300.98
577613.6 4180950 301
577613.6 4180950 301.03
577612.9 4180951 301.05
577613.3 4180950 301.08
577613.6 4180950 301.11
577613.1 4180950 301.13
577613.1 4180950 301.15
577613.3 4180949 301.17
577616.3 4180952 298.77
577616.1 4180952 298.78
577615.1 4180955 298.98
577616.3 4180952 299
577614.7 4180955 299
577615.3 4180955 299.05
577614.3 4180957 299.04
577616.1 4180952 299.06
577615.9 4180952 299.08
577615.5 4180953 299.09
577614.7 4180955 299.09
577616.3 4180952 299.1
577614.7 4180954 299.11
577614.3 4180957 299.12
577614.1 4180956 299.13
577616.3 4180952 299.15
577614.9 4180955 299.19
577616.3 4180952 299.2
577616.5 4180952 299.21
577616.3 4180952 299.22
577614.5 4180955 299.23
577614.9 4180956 299.23
577614.3 4180956 299.23
577615.5 4180954 299.24
577614.5 4180955 299.26
577616.1 4180952 299.28
577614.7 4180954 299.28
577614.1 4180956 299.28
577616.7 4180952 299.29
577615.5 4180953 299.29
577613.3 4180957 299.31
577616.7 4180952 299.32
577615.9 4180952 299.32
577615.1 4180956 299.32
577614.3 4180956 299.33
577614.5 4180957 299.33
577614.5 4180957 299.34
577615.7 4180952 299.36
