# .PCD v.7 - Point Cloud Data file format
VERSION .7
FIELDS x y z
SIZE 4 4 4
TYPE F F F
COUNT 1 1 1
WIDTH 103
HEIGHT 1
VIEWPOINT 0 0 0 1 0 0 0
POINTS 103
DATA ascii
577613.125 4180957 299.489990234
577613.3125 4180956.5 299.440002441
577613.3125 4180956.75 299.309997559
577613.5625 4180956.25 299.5
577613.5625 4180956.5 299.519989014
577613.75 4180956.25 299.589996338
577613.75 4180956.25 299.390014648
577613.9375 4180956 299.640014648
577613.9375 4180956.25 299.489990234
577613.9375 4180956.25 299.450012207
577613.9375 4180957 299.5
577614.125 4180955.5 299.660003662
577614.125 4180955.75 299.609985352
577614.125 4180956 299.450012207
577614.125 4180956.25 299.420013428
577614.125 4180956.25 299.279998779
577614.125 4180956.5 299.130004883
577614.3125 4180955.25 299.480010986
577614.3125 4180955.25 299.470001221
577614.3125 4180955.5 299.470001221
577614.3125 4180955.75 299.470001221
577614.3125 4180956 299.459991455
577614.3125 4180956.25 299.410003662
577614.3125 4180956.25 299.329986572
577614.3125 4180956.5 299.230010986
577614.3125 4180956.75 299.119995117
577614.3125 4180957 299.040008545
577614.5 4180955.25 299.230010986
577614.5 4180955.25 299.260009766
577614.5 4180957 299.339996338
577614.5 4180957.25 299.329986572
577614.5 4180957.25 299.399993896
577614.6875 4180954 299.700012207
577614.6875 4180954.25 299.279998779
577614.6875 4180954.5 299.109985352
577614.6875 4180955.25 299.089996338
577614.6875 4180957.25 299.619995117
577614.9375 4180953.5 299.829986572
577614.9375 4180953.75 299.630004883
577614.9375 4180954 299.399993896
577614.9375 4180954.75 299.489990234
577614.9375 4180955.25 299.190002441
577614.9375 4180955.5 299.230010986
577615.125 4180950.5 299.890014648
577615.125 4180952.5 299.519989014
577615.125 4180953 299.899993896
577615.125 4180953.25 299.75
577615.125 4180953.5 299.679992676
577615.125 4180953.5 299.489990234
577615.125 4180953.75 299.600006104
577615.125 4180954.25 299.640014648
577615.125 4180955.5 299.320007324
577615.3125 4180950.5 299.970001221
577615.3125 4180950.75 299.940002441
577615.3125 4180952 299.940002441
577615.3125 4180952.5 299.890014648
577615.3125 4180952.75 299.730010986
577615.3125 4180953 299.630004883
577615.3125 4180953.25 299.489990234
577615.3125 4180955.25 299.049987793
577615.3125 4180955.5 299.489990234
577615.3125 4180957.5 299.690002441
577615.5 4180950.75 299.959991455
577615.5 4180952 299.989990234
577615.5 4180952.25 299.869995117
577615.5 4180952.5 299.739990234
577615.5 4180952.5 299.609985352
577615.5 4180952.75 299.459991455
577615.5 4180953 299.290008545
577615.5 4180953.25 299.089996338
577615.5 4180954 299.239990234
577615.6875 4180951 299.850006104
577615.6875 4180951.5 300.040008545
577615.6875 4180951.5 300.029998779
577615.6875 4180952 299.850006104
577615.6875 4180952.25 299.609985352
577615.6875 4180952.5 299.549987793
577615.6875 4180952.5 299.359985352
577615.6875 4180952.75 299.440002441
577615.6875 4180953.5 299.440002441
577615.875 4180950.5 299.790008545
577615.875 4180951 299.5
577615.875 4180951.25 299.630004883
577615.875 4180951.5 299.790008545
577615.875 4180951.5 299.809997559
577615.875 4180951.75 299.660003662
577615.875 4180952 299.670013428
577615.875 4180952.25 299.519989014
577615.875 4180952.5 299.320007324
577615.875 4180952.5 299.079986572
577616.125 4180951.5 299.470001221
577616.125 4180951.5 299.540008545
577616.125 4180951.75 299.519989014
577616.125 4180952 299.440002441
577616.125 4180952.25 299.279998779
577616.125 4180952.5 299.059997559
577616.3125 4180951.5 299.100006104
577616.3125 4180951.5 299.200012207
577616.3125 4180951.75 299.220001221
577616.3125 4180952 299.149993896
577616.5 4180952.5 299.209991455
577616.6875 4180951.5 299.320007324
577616.6875 4180952 299.290008545
