# .PCD v.7 - Point Cloud Data file format
VERSION .7
FIELDS x y z
SIZE 4 4 4
TYPE F F F
COUNT 1 1 1
WIDTH 289
HEIGHT 1
VIEWPOINT 0 0 0 1 0 0 0
POINTS 289
DATA ascii
577614.5 4180965 308.34
577612.1 4180966 308.34
577612.1 4180968 308.35
577611.9 4180963 308.37
577616.5 4180964 308.37
577613.1 4180966 308.4
577614.3 4180962 308.41
577614.1 4180962 308.44
577613.8 4180960 308.46
577614.5 4180962 308.46
577615.5 4180962 308.47
577614.5 4180964 308.47
577613.8 4180960 308.48
577613.3 4180960 308.48
577614.9 4180961 308.49
577614.1 4180962 308.49
577613.9 4180960 308.51
577613.9 4180962 308.52
577614.9 4180962 308.52
577616.7 4180964 308.52
577614.9 4180961 308.54
577611.8 4180963 308.54
577612.1 4180963 308.54
577611.9 4180964 308.54
577614.1 4180962 308.57
577614.3 4180962 308.58
577616.3 4180966 308.62
577614.7 4180965 308.63
577612.9 4180966 308.64
577614.7 4180966 308.64
577612.9 4180966 308.64
577611.9 4180963 308.65
577613.8 4180960 308.68
577614.1 4180962 308.69
577616.1 4180963 308.71
577614.7 4180965 308.71
577613.9 4180962 308.72
577612.1 4180963 308.73
577613.3 4180960 308.75
577613.9 4180962 308.75
577614.3 4180962 308.77
577617.2 4180966 308.77
577614.1 4180960 308.79
577613.9 4180962 308.81
577611.9 4180964 308.81
577616.7 4180968 308.81
577614.1 4180962 308.83
577613.6 4180960 308.85
577614.1 4180960 308.85
577617.7 4180966 308.85
577614.7 4180965 308.87
577612.9 4180963 308.93
577614.9 4180967 308.93
577617.1 4180967 308.93
577613.8 4180962 308.96
577617.1 4180968 308.97
577613.9 4180962 308.98
577614.1 4180962 308.98
577613.9 4180962 308.99
577616.1 4180963 309
577616.3 4180963 309.01
577614.3 4180959 309.03
577613.6 4180960 309.03
577612.8 4180962 309.05
577612.9 4180962 309.05
577612.8 4180967 309.04
577616.5 4180968 309.05
577614.7 4180966 309.06
577616.3 4180963 309.07
577613.9 4180960 309.09
577614.9 4180964 309.11
577613.9 4180963 309.12
577613.9 4180964 309.12
577615.3 4180964 309.14
577614.1 4180963 309.15
577612.4 4180962 309.18
577615.1 4180966 309.19
577614.3 4180960 309.2
577613.9 4180966 309.2
577616.3 4180967 309.22
577616.3 4180968 309.23
577614.3 4180960 309.24
577614.9 4180966 309.24
577612.6 4180962 309.26
577613.8 4180966 309.26
577615.3 4180963 309.28
577612.6 4180962 309.3
577615.5 4180964 309.3
577615.1 4180964 309.29
577616.1 4180968 309.29
577613.9 4180966 309.31
577614.9 4180967 309.31
577614.1 4180963 309.33
577613.9 4180966 309.32
577615.1 4180964 309.34
577613.8 4180966 309.36
577614.3 4180963 309.38
577614.7 4180963 309.39
577613.6 4180966 309.42
577614.9 4180962 309.43
577614.5 4180963 309.43
577613.8 4180966 309.43
577615.7 4180963 309.45
577613.3 4180961 309.48
577616.1 4180964 309.48
577614.7 4180963 309.49
577612.9 4180965 309.49
577614.1 4180963 309.52
577616.7 4180963 309.52
577613.3 4180961 309.55
577612.4 4180962 309.54
577613.3 4180962 309.55
577614.9 4180963 309.55
577614.3 4180963 309.56
577615.5 4180963 309.56
577613.1 4180961 309.58
577613.1 4180962 309.58
577613.6 4180966 309.58
577615.7 4180968 309.57
577615.1 4180963 309.59
577612.9 4180964 309.59
577613.8 4180966 309.59
577612.9 4180967 309.6
577613.3 4180964 309.62
577614.5 4180963 309.63
577613.6 4180962 309.64
577615.9 4180964 309.64
577613.3 4180966 309.65
577613.6 4180966 309.66
577613.1 4180967 309.67
577613.1 4180965 309.68
577613.9 4180963 309.7
577614.1 4180963 309.7
577613.3 4180965 309.7
577612.8 4180964 309.71
577616.1 4180964 309.71
577613.1 4180961 309.72
577613.6 4180961 309.72
577614.3 4180963 309.72
577613.9 4180963 309.75
577614.5 4180963 309.78
577611.9 4180964 309.78
577613.1 4180966 309.8
577613.3 4180967 309.79
577615.3 4180963 309.81
577613.3 4180966 309.81
577613.1 4180964 309.82
577613.1 4180967 309.83
577612.8 4180964 309.84
577615.1 4180965 309.86
577612.6 4180965 309.87
577612.9 4180968 309.87
577614.5 4180964 309.88
577612.9 4180965 309.89
577615.1 4180963 309.91
577614.5 4180964 309.91
577614.7 4180964 309.91
577614.7 4180964 309.92
577615.1 4180966 309.92
577614.5 4180964 309.93
577613.1 4180965 309.93
577612.9 4180964 309.94
577614.3 4180964 309.94
577613.8 4180965 309.94
577613.6 4180967 309.94
577612.1 4180962 309.96
577613.6 4180962 309.97
577614.7 4180964 309.97
577615.9 4180964 309.97
577614.3 4180964 309.97
577614.9 4180964 309.97
577615.3 4180963 309.98
577615.5 4180963 309.99
577613.6 4180964 310
577613.6 4180968 310
577615.7 4180964 310.05
577613.8 4180965 310.05
577613.6 4180965 310.08
577614.9 4180964 310.09
577614.9 4180964 310.1
577612.1 4180961 310.13
577612.6 4180964 310.15
577617.9 4180967 310.21
577612.9 4180964 310.24
577615.7 4180964 310.26
577617.7 4180968 310.32
577616.3 4180968 310.34
577613.3 4180964 310.4
577612.8 4180962 310.44
577618.2 4180967 310.45
577612.9 4180964 310.47
577612.9 4180964 310.47
577612.8 4180962 310.48
577617.9 4180967 310.53
577612.8 4180960 306.06
577612.9 4180964 310.55
577611.6 4180961 306.08
577611.8 4180960 306.07
577611.4 4180961 306.08
577611.2 4180962 306.08
577616.3 4180963 310.6
577610.8 4180962 306.14
577618.7 4180967 310.63
577616.3 4180962 306.19
577613.1 4180964 310.68
577613.6 4180964 310.73
577615.7 4180962 306.28
577613.3 4180965 310.76
577615.9 4180962 306.29
577609.6 4180961 306.33
577616.3 4180964 306.33
577613.3 4180964 310.83
577611.6 4180961 306.35
577609.8 4180962 306.37
577618.7 4180968 310.86
577609.8 4180961 306.38
577609.8 4180962 306.38
577611.9 4180960 306.39
577609.6 4180962 306.39
577616.1 4180962 306.42
577616.7 4180962 306.43
577619.1 4180967 310.92
577616.1 4180962 306.46
577611.8 4180961 306.48
577611.6 4180961 306.62
577612.1 4180960 306.63
577615.7 4180962 306.64
577612.8 4180960 306.66
577613.9 4180964 311.14
577610.4 4180964 306.7
577614.1 4180968 306.7
577614.7 4180964 311.22
577615.9 4180962 306.77
577614.3 4180966 306.77
577614.3 4180967 306.84
577615.7 4180964 306.86
577611.9 4180962 306.87
577610.8 4180963 306.87
577611.9 4180961 306.91
577613.9 4180965 311.41
577611.2 4180962 306.95
577615.9 4180964 306.95
577615.9 4180964 306.98
577610.6 4180963 306.99
577614.3 4180966 307.02
577610.6 4180964 307.05
577610.8 4180963 307.08
577611.6 4180963 307.08
577610.4 4180964 307.09
577616.1 4180964 307.13
577615.5 4180966 307.15
577615.9 4180964 307.2
577610.9 4180962 307.21
577615.7 4180966 307.24
577610.9 4180963 307.31
577612.4 4180964 307.42
577615.7 4180966 307.47
577611.4 4180963 307.49
577613.6 4180966 307.51
577613.9 4180961 307.54
577612.6 4180963 307.56
577615.7 4180966 307.59
577611.2 4180963 307.6
577612.9 4180966 307.63
577615.7 4180962 307.64
577611.2 4180963 307.68
577611.6 4180963 307.75
577614.5 4180961 307.84
577615.3 4180962 307.91
577614.5 4180962 307.92
577615.5 4180962 307.92
577613.3 4180963 307.93
577611.4 4180963 307.96
577611.8 4180963 307.96
577615.1 4180962 307.97
577612.8 4180966 308.04
577613.6 4180961 308.11
577614.3 4180961 308.15
577611.9 4180963 308.15
577615.3 4180962 308.16
577614.7 4180962 308.17
577614.3 4180962 308.18
577611.6 4180963 308.18
577613.6 4180960 308.22
577615.7 4180962 308.25
577614.3 4180962 308.27
577614.3 4180961 308.32
577611.8 4180963 308.33
577612.1 4180963 308.33
