# .PCD v.7 - Point Cloud Data file format
VERSION .7
FIELDS x y z
SIZE 4 4 4
TYPE F F F
COUNT 1 1 1
WIDTH 1381
HEIGHT 1
VIEWPOINT 0 0 0 1 0 0 0
POINTS 1381
DATA ascii
577602.6875 4180943.75 296.579986572
577602.6875 4180944 296.559997559
577602.6875 4180944 296.540008545
577602.6875 4180944.25 296.519989014
577602.6875 4180944.5 296.5
577602.6875 4180945 296.489990234
577602.6875 4180945 296.559997559
577602.6875 4180945.25 296.700012207
577602.6875 4180945.5 296.929992676
577602.6875 4180945.75 297.279998779
577602.6875 4180951.5 296.640014648
577602.6875 4180952 296.630004883
577602.6875 4180952.25 296.779998779
577602.6875 4180952.5 296.480010986
577602.6875 4180952.5 296.329986572
577602.6875 4180952.75 296.299987793
577602.6875 4180953 296.359985352
577602.6875 4180953.25 296.489990234
577602.6875 4180953.5 296.640014648
577602.6875 4180953.5 296.799987793
577602.6875 4180953.75 296.929992676
577602.6875 4180954 297.029998779
577602.6875 4180954.25 297.079986572
577602.6875 4180954.25 297.079986572
577602.6875 4180954.5 297.049987793
577602.6875 4180954.75 297
577602.6875 4180955 296.940002441
577602.6875 4180955.25 296.890014648
577602.6875 4180955.25 296.859985352
577602.6875 4180955.5 296.869995117
577602.6875 4180955.75 296.920013428
577602.6875 4180956 297.010009766
577602.6875 4180956.25 297.140014648
577602.6875 4180956.25 297.309997559
577602.6875 4180956.5 297.5
577602.6875 4180956.75 297.350006104
577602.6875 4180957.25 298.269989014
577602.6875 4180957.5 297.989990234
577602.875 4180940.5 296.589996338
577602.875 4180941.25 296.709991455
577602.875 4180941.5 297.100006104
577602.875 4180941.75 297.380004883
577602.875 4180942 297.529998779
577602.875 4180942.25 297.559997559
577602.875 4180942.25 297.489990234
577602.875 4180942.5 297.350006104
577602.875 4180942.75 297.179992676
577602.875 4180943 297.010009766
577602.875 4180943 296.869995117
577602.875 4180943.25 296.769989014
577602.875 4180943.5 296.700012207
577602.875 4180943.75 296.649993896
577602.875 4180944 296.630004883
577602.875 4180944 296.609985352
577602.875 4180944.25 296.589996338
577602.875 4180944.5 296.559997559
577602.875 4180944.75 296.529998779
577602.875 4180945 296.519989014
577602.875 4180945.25 296.630004883
577602.875 4180945.5 296.790008545
577602.875 4180945.75 297.059997559
577602.875 4180952.5 296.429992676
577602.875 4180952.5 296.260009766
577602.875 4180952.75 296.209991455
577602.875 4180953 296.269989014
577602.875 4180953.25 296.390014648
577602.875 4180953.5 296.549987793
577602.875 4180953.5 296.720001221
577602.875 4180953.75 296.859985352
577602.875 4180954 296.970001221
577602.875 4180954.25 297.029998779
577602.875 4180954.25 297.049987793
577602.875 4180954.5 297.059997559
577602.875 4180954.75 296.989990234
577602.875 4180955 296.950012207
577602.875 4180955.25 296.920013428
577602.875 4180955.25 296.920013428
577602.875 4180955.5 296.670013428
577602.875 4180956 297.170013428
577602.875 4180956.25 297.339996338
577602.875 4180956.25 297.329986572
577603.0625 4180941.25 296.25
577603.0625 4180941.25 296.730010986
577603.0625 4180941.5 297.149993896
577603.0625 4180941.75 297.459991455
577603.0625 4180942 297.640014648
577603.0625 4180942.25 297.700012207
577603.0625 4180942.25 297.649993896
577603.0625 4180942.5 297.519989014
577603.0625 4180942.75 297.350006104
577603.0625 4180943 297.170013428
577603.0625 4180943 297.010009766
577603.0625 4180943.25 296.880004883
577603.0625 4180943.5 296.790008545
577603.0625 4180943.75 296.730010986
577603.0625 4180944 296.690002441
577603.0625 4180944 296.670013428
577603.0625 4180944.25 296.640014648
577603.0625 4180944.5 296.609985352
577603.0625 4180944.75 296.570007324
577603.0625 4180945 296.529998779
577603.0625 4180945 296.519989014
577603.0625 4180945.25 296.549987793
577603.0625 4180945.5 296.649993896
577603.0625 4180946.25 296.329986572
577603.0625 4180952.25 296.470001221
577603.0625 4180952.5 296.420013428
577603.0625 4180952.5 296.220001221
577603.0625 4180952.75 296.459991455
577603.0625 4180953 296.190002441
577603.0625 4180953.5 296.700012207
577603.0625 4180953.5 296.619995117
577603.0625 4180954 297.079986572
577603.0625 4180954.25 296.980010986
577603.0625 4180954.25 297.019989014
577603.0625 4180954.5 297.029998779
577603.0625 4180954.75 297.019989014
577603.0625 4180955 297.019989014
577603.0625 4180955.25 297.029998779
577603.0625 4180955.25 297.059997559
577603.0625 4180956.25 297.609985352
577603.25 4180940.25 296.119995117
577603.25 4180941.25 296.260009766
577603.25 4180941.25 296.75
577603.25 4180941.5 297.190002441
577603.25 4180941.75 297.529998779
577603.25 4180942 297.739990234
577603.25 4180942.25 297.820007324
577603.25 4180942.5 297.670013428
577603.25 4180942.75 297.489990234
577603.25 4180943 297.309997559
577603.25 4180943 297.130004883
577603.25 4180943.25 296.980010986
577603.25 4180943.75 296.799987793
577603.25 4180944 296.75
577603.25 4180944 296.709991455
577603.25 4180944.25 296.679992676
577603.25 4180944.5 296.690002441
577603.25 4180944.75 296.589996338
577603.25 4180945 296.529998779
577603.25 4180945 296.709991455
577603.25 4180945.25 296.470001221
577603.25 4180945.5 296.5
577603.25 4180945.75 296.480010986
577603.25 4180952.5 296.450012207
577603.25 4180952.5 296.230010986
577603.25 4180953 296.140014648
577603.25 4180953.5 296.529998779
577603.25 4180953.75 296.690002441
577603.25 4180954 296.829986572
577603.25 4180954.25 296.940002441
577603.25 4180954.25 297.019989014
577603.25 4180954.5 297.070007324
577603.25 4180954.75 297.109985352
577603.25 4180955 297.149993896
577603.25 4180955.25 297.200012207
577603.25 4180955.25 297.279998779
577603.25 4180956.25 297.929992676
577603.5 4180940.25 296.25
577603.5 4180941.25 296.279998779
577603.5 4180941.25 296.760009766
577603.5 4180941.5 297.209991455
577603.5 4180942.25 297.429992676
577603.5 4180942.75 297.609985352
577603.5 4180943 297.399993896
577603.5 4180943 297.230010986
577603.5 4180943.25 297.059997559
577603.5 4180943.5 297.179992676
577603.5 4180943.75 296.850006104
577603.5 4180944 296.709991455
577603.5 4180944 296.75
577603.5 4180944.25 296.700012207
577603.5 4180944.5 296.660003662
577603.5 4180944.75 296.600006104
577603.5 4180945 296.519989014
577603.5 4180945 296.450012207
577603.5 4180945.25 296.399993896
577603.5 4180945.5 296.390014648
577603.5 4180946 296.609985352
577603.5 4180952.25 296.869995117
577603.5 4180952.5 296.510009766
577603.5 4180952.5 296.269989014
577603.5 4180952.75 296.149993896
577603.5 4180953 296.130004883
577603.5 4180953.25 296.200012207
577603.5 4180953.5 296.320007324
577603.5 4180953.5 296.480010986
577603.5 4180953.75 296.640014648
577603.5 4180954 296.799987793
577603.5 4180954.25 296.940002441
577603.5 4180954.25 297.059997559
577603.5 4180954.5 297.160003662
577603.5 4180954.75 297.25
577603.5 4180955.25 297.450012207
577603.5 4180955.25 297.570007324
577603.6875 4180940.25 296.359985352
577603.6875 4180940.5 296.540008545
577603.6875 4180941.25 296.570007324
577603.6875 4180941.25 296.769989014
577603.6875 4180941.5 297.220001221
577603.6875 4180941.75 297.140014648
577603.6875 4180942.5 297.850006104
577603.6875 4180942.75 297.679992676
577603.6875 4180943 297.480010986
577603.6875 4180943 297.290008545
577603.6875 4180943.25 297.119995117
577603.6875 4180943.5 296.980010986
577603.6875 4180943.75 296.880004883
577603.6875 4180944 296.809997559
577603.6875 4180944 296.760009766
577603.6875 4180944.25 296.709991455
577603.6875 4180944.5 296.660003662
577603.6875 4180944.75 296.600006104
577603.6875 4180945 296.519989014
577603.6875 4180945 296.429992676
577603.6875 4180945.25 296.359985352
577603.6875 4180945.5 296.320007324
577603.6875 4180945.75 296.339996338
577603.6875 4180946 296.380004883
577603.6875 4180946 296.670013428
577603.6875 4180952.5 296.600006104
577603.6875 4180952.5 296.359985352
577603.6875 4180953 296.179992676
577603.6875 4180953.25 296.220001221
577603.6875 4180953.5 296.329986572
577603.6875 4180953.5 296.480010986
577603.6875 4180953.75 296.649993896
577603.6875 4180954 296.820007324
577603.6875 4180954.25 296.989990234
577603.6875 4180954.25 297.149993896
577603.6875 4180955.25 297.160003662
577603.875 4180941.25 296.309997559
577603.875 4180941.25 296.769989014
577603.875 4180941.5 297.209991455
577603.875 4180942 297.820007324
577603.875 4180942.25 297.950012207
577603.875 4180942.75 297.700012207
577603.875 4180943 297.5
577603.875 4180943.25 297.130004883
577603.875 4180943.5 296.989990234
577603.875 4180943.75 296.880004883
577603.875 4180944 296.480010986
577603.875 4180944.25 296.709991455
577603.875 4180944.5 296.660003662
577603.875 4180944.75 296.739990234
577603.875 4180945 296.510009766
577603.875 4180945 296.429992676
577603.875 4180945.25 296.440002441
577603.875 4180945.5 296.290008545
577603.875 4180945.75 296.290008545
577603.875 4180946 296.369995117
577603.875 4180946 296.549987793
577603.875 4180952.5 296.489990234
577603.875 4180952.75 296.549987793
577603.875 4180953 296.299987793
577603.875 4180953.5 296.640014648
577603.875 4180953.5 296.549987793
577603.875 4180953.75 296.720001221
577603.875 4180954 296.910003662
577603.875 4180954.25 297.109985352
577603.875 4180954.25 297.309997559
577603.875 4180954.5 297.010009766
577604.0625 4180940.25 296.450012207
577604.0625 4180941.25 296.760009766
577604.0625 4180941.5 297.179992676
577604.0625 4180941.75 297.529998779
577604.0625 4180942 297.760009766
577604.0625 4180942.25 297.890014648
577604.0625 4180942.5 297.510009766
577604.0625 4180942.75 297.660003662
577604.0625 4180943 297.470001221
577604.0625 4180943 297.679992676
577604.0625 4180943.5 296.970001221
577604.0625 4180943.75 296.859985352
577604.0625 4180944 296.790008545
577604.0625 4180944 296.730010986
577604.0625 4180944.25 296.690002441
577604.0625 4180944.5 296.640014648
577604.0625 4180944.75 296.589996338
577604.0625 4180945 296.519989014
577604.0625 4180945 296.440002441
577604.0625 4180945.25 296.369995117
577604.0625 4180945.5 296.309997559
577604.0625 4180945.75 296.299987793
577604.0625 4180946 296.359985352
577604.0625 4180946 296.510009766
577604.0625 4180951.5 296.450012207
577604.0625 4180952.25 296.290008545
577604.0625 4180952.5 296.679992676
577604.0625 4180952.75 296.549987793
577604.0625 4180953 296.489990234
577604.0625 4180953.25 296.5
577604.0625 4180953.5 296.570007324
577604.0625 4180953.5 296.700012207
577604.0625 4180954 297.059997559
577604.0625 4180954.25 297.279998779
577604.25 4180940.25 296.5
577604.25 4180940.75 296.739990234
577604.25 4180941.25 297.019989014
577604.25 4180941.5 297.130004883
577604.25 4180941.75 297.459991455
577604.25 4180942 297.679992676
577604.25 4180942.25 297.790008545
577604.25 4180942.25 297.790008545
577604.25 4180942.5 297.700012207
577604.25 4180942.75 297.559997559
577604.25 4180943 297.380004883
577604.25 4180943.5 296.910003662
577604.25 4180943.75 296.809997559
577604.25 4180944 296.75
577604.25 4180944 296.700012207
577604.25 4180944.25 296.660003662
577604.25 4180944.5 296.630004883
577604.25 4180944.75 296.589996338
577604.25 4180945 296.540008545
577604.25 4180945 296.480010986
577604.25 4180945.25 296.420013428
577604.25 4180945.5 296.369995117
577604.25 4180945.75 296.369995117
577604.25 4180946 296.410003662
577604.25 4180946 296.540008545
577604.25 4180946.25 296.769989014
577604.25 4180946.5 297.100006104
577604.25 4180953.25 296.75
577604.25 4180953.5 296.809997559
577604.25 4180953.5 296.929992676
577604.4375 4180940.25 296.380004883
577604.4375 4180941.25 296.720001221
577604.4375 4180941.5 297.070007324
577604.4375 4180941.75 297.359985352
577604.4375 4180942 297.549987793
577604.4375 4180942.25 297.640014648
577604.4375 4180942.25 297.630004883
577604.4375 4180942.5 297.549987793
577604.4375 4180942.75 297.420013428
577604.4375 4180943 297.260009766
577604.4375 4180943 297.100006104
577604.4375 4180943.25 296.950012207
577604.4375 4180943.5 296.829986572
577604.4375 4180943.75 296.75
577604.4375 4180944 296.690002441
577604.4375 4180944 296.660003662
577604.4375 4180944.25 296.630004883
577604.4375 4180944.5 296.619995117
577604.4375 4180944.75 296.589996338
577604.4375 4180945 296.559997559
577604.4375 4180945 296.529998779
577604.4375 4180945.25 296.489990234
577604.4375 4180945.5 296.470001221
577604.4375 4180945.75 296.459991455
577604.4375 4180946 296.480010986
577604.4375 4180946 296.609985352
577604.4375 4180946.25 296.790008545
577604.4375 4180946.5 296.920013428
577604.4375 4180952 297.510009766
577604.4375 4180952.25 297.399993896
577604.4375 4180952.5 297.290008545
577604.4375 4180952.75 297.540008545
577604.4375 4180953.25 297.079986572
577604.4375 4180953.5 296.820007324
577604.4375 4180954 296.970001221
577604.625 4180940 297.019989014
577604.625 4180940.25 296.290008545
577604.625 4180940.25 295.869995117
577604.625 4180941 296.019989014
577604.625 4180941.25 296.690002441
577604.625 4180941.5 297
577604.625 4180941.75 297.25
577604.625 4180942.25 297.450012207
577604.625 4180942.5 297.369995117
577604.625 4180942.75 297.239990234
577604.625 4180943 297.100006104
577604.625 4180943 296.959991455
577604.625 4180943.25 296.829986572
577604.625 4180943.5 296.739990234
577604.625 4180943.75 296.670013428
577604.625 4180944 296.630004883
577604.625 4180944 296.609985352
577604.625 4180944.25 296.600006104
577604.625 4180944.5 296.600006104
577604.625 4180944.75 296.519989014
577604.625 4180945 296.600006104
577604.625 4180945.25 296.290008545
577604.625 4180945.5 296.570007324
577604.625 4180945.75 296.579986572
577604.625 4180946 296.609985352
577604.625 4180946 296.690002441
577604.625 4180946.25 296.839996338
577604.625 4180946.5 297.049987793
577604.625 4180951.5 297
577604.625 4180952 297.579986572
577604.625 4180952.25 297.410003662
577604.625 4180952.5 297.540008545
577604.625 4180952.5 297.510009766
577604.625 4180952.75 297.470001221
577604.625 4180953 297.450012207
577604.875 4180940 296.839996338
577604.875 4180941.25 296.350006104
577604.875 4180941.25 296.649993896
577604.875 4180941.75 297.130004883
577604.875 4180942.25 297.25
577604.875 4180942.5 297.160003662
577604.875 4180942.75 297.049987793
577604.875 4180943 296.920013428
577604.875 4180943 297.049987793
577604.875 4180943.5 296.510009766
577604.875 4180943.75 296.589996338
577604.875 4180944 296.570007324
577604.875 4180944 296.579986572
577604.875 4180944.25 296.579986572
577604.875 4180944.5 296.589996338
577604.875 4180944.75 296.609985352
577604.875 4180945 296.630004883
577604.875 4180945 296.649993896
577604.875 4180945.5 296.670013428
577604.875 4180945.75 296.679992676
577604.875 4180946 296.720001221
577604.875 4180946 296.769989014
577604.875 4180946.5 297.019989014
577604.875 4180946.75 297.230010986
577604.875 4180951.5 297.339996338
577604.875 4180952 297.700012207
577605.0625 4180940 296.660003662
577605.0625 4180940.25 296.540008545
577605.0625 4180940.75 296.529998779
577605.0625 4180941.25 296.350006104
577605.0625 4180941.25 296.429992676
577605.0625 4180941.75 297.010009766
577605.0625 4180942 296.820007324
577605.0625 4180942.25 297.100006104
577605.0625 4180942.25 297.049987793
577605.0625 4180942.5 296.970001221
577605.0625 4180942.75 296.859985352
577605.0625 4180943 296.75
577605.0625 4180943.5 296.529998779
577605.0625 4180943.75 296.510009766
577605.0625 4180944 296.510009766
577605.0625 4180944 296.519989014
577605.0625 4180944.25 296.549987793
577605.0625 4180944.5 296.589996338
577605.0625 4180944.75 296.619995117
577605.0625 4180945 296.660003662
577605.0625 4180945 296.700012207
577605.0625 4180945.5 296.75
577605.0625 4180945.75 296.769989014
577605.0625 4180946 296.829986572
577605.0625 4180946 296.820007324
577605.0625 4180946.25 296.880004883
577605.0625 4180946.5 297.010009766
577605.0625 4180946.75 297.089996338
577605.0625 4180946.75 297.279998779
577605.0625 4180947 296.989990234
577605.0625 4180947.75 296.899993896
577605.25 4180940 296.5
577605.25 4180941.25 296.359985352
577605.25 4180941.25 296.589996338
577605.25 4180942 296.950012207
577605.25 4180942.25 296.929992676
577605.25 4180942.5 296.779998779
577605.25 4180942.75 296.690002441
577605.25 4180943 296.600006104
577605.25 4180943 296.519989014
577605.25 4180943.25 296.470001221
577605.25 4180943.5 296.450012207
577605.25 4180943.75 296.450012207
577605.25 4180944 296.459991455
577605.25 4180944 296.649993896
577605.25 4180944.25 296.529998779
577605.25 4180944.5 296.579986572
577605.25 4180944.75 296.679992676
577605.25 4180945 296.679992676
577605.25 4180945 296.730010986
577605.25 4180945.25 297.019989014
577605.25 4180945.5 296.799987793
577605.25 4180945.75 296.820007324
577605.25 4180946 296.829986572
577605.25 4180946 296.839996338
577605.25 4180946.25 296.859985352
577605.25 4180946.5 296.890014648
577605.25 4180946.75 296.940002441
577605.25 4180946.75 297.040008545
577605.25 4180947 297.190002441
577605.25 4180947.25 297.390014648
577605.4375 4180940 296.359985352
577605.4375 4180941 296.140014648
577605.4375 4180941.25 296.369995117
577605.4375 4180941.25 296.570007324
577605.4375 4180941.75 296.299987793
577605.4375 4180942.25 296.399993896
577605.4375 4180942.5 296.630004883
577605.4375 4180942.75 296.540008545
577605.4375 4180943 296.450012207
577605.4375 4180943 296.420013428
577605.4375 4180943.25 296.390014648
577605.4375 4180943.5 296.390014648
577605.4375 4180943.75 296.399993896
577605.4375 4180944 296.429992676
577605.4375 4180944 296.470001221
577605.4375 4180944.25 296.519989014
577605.4375 4180944.5 296.570007324
577605.4375 4180944.75 296.630004883
577605.4375 4180945 296.679992676
577605.4375 4180945 296.739990234
577605.4375 4180945.25 296.779998779
577605.4375 4180945.5 296.809997559
577605.4375 4180945.75 296.829986572
577605.4375 4180946 296.829986572
577605.4375 4180946 296.820007324
577605.4375 4180946.25 296.799987793
577605.4375 4180946.5 296.779998779
577605.4375 4180946.75 296.779998779
577605.4375 4180946.75 296.809997559
577605.4375 4180947 296.880004883
577605.4375 4180947.25 296.989990234
577605.4375 4180947.75 297.359985352
577605.625 4180939.5 296.660003662
577605.625 4180939.75 296.829986572
577605.625 4180940.25 296.700012207
577605.625 4180940.75 296.540008545
577605.625 4180941.25 296.390014648
577605.625 4180941.25 296.559997559
577605.625 4180941.5 296.670013428
577605.625 4180942 296.709991455
577605.625 4180942.25 296.660003662
577605.625 4180942.25 296.589996338
577605.625 4180942.5 296.510009766
577605.625 4180942.75 296.440002441
577605.625 4180943 296.380004883
577605.625 4180943 296.350006104
577605.625 4180943.25 296.339996338
577605.625 4180943.5 296.350006104
577605.625 4180943.75 296.380004883
577605.625 4180944 296.410003662
577605.625 4180944 296.459991455
577605.625 4180944.25 296.510009766
577605.625 4180944.5 296.570007324
577605.625 4180944.75 296.619995117
577605.625 4180945 296.679992676
577605.625 4180945 296.730010986
577605.625 4180945.25 296.769989014
577605.625 4180945.5 296.799987793
577605.625 4180945.75 296.809997559
577605.625 4180946 296.799987793
577605.625 4180946 296.769989014
577605.625 4180946.25 296.720001221
577605.625 4180946.5 296.670013428
577605.625 4180946.75 296.619995117
577605.625 4180946.75 296.600006104
577605.625 4180947 296.609985352
577605.625 4180947.25 296.660003662
577605.625 4180947.5 296.75
577605.625 4180947.75 296.899993896
577605.8125 4180939.75 296.670013428
577605.8125 4180941 296.260009766
577605.8125 4180941.25 296.420013428
577605.8125 4180941.25 296.549987793
577605.8125 4180941.5 296.630004883
577605.8125 4180941.75 296.660003662
577605.8125 4180942 296.630004883
577605.8125 4180942.25 296.579986572
577605.8125 4180942.25 296.5
577605.8125 4180942.5 296.429992676
577605.8125 4180942.75 296.369995117
577605.8125 4180943 296.329986572
577605.8125 4180943 296.309997559
577605.8125 4180943.25 296.320007324
577605.8125 4180943.5 296.339996338
577605.8125 4180943.75 296.369995117
577605.8125 4180944 296.420013428
577605.8125 4180944 296.459991455
577605.8125 4180944.25 296.510009766
577605.8125 4180944.5 296.559997559
577605.8125 4180944.75 296.609985352
577605.8125 4180945 296.660003662
577605.8125 4180945 296.700012207
577605.8125 4180945.25 296.730010986
577605.8125 4180945.5 296.75
577605.8125 4180945.75 296.75
577605.8125 4180946 296.730010986
577605.8125 4180946 296.690002441
577605.8125 4180946.25 296.619995117
577605.8125 4180946.5 296.549987793
577605.8125 4180946.75 296.480010986
577605.8125 4180946.75 296.510009766
577605.8125 4180947 296.390014648
577605.8125 4180947.25 296.390014648
577605.8125 4180947.5 296.5
577605.8125 4180947.75 296.549987793
577605.8125 4180947.75 296.399993896
577605.8125 4180948.5 296.459991455
577606.0625 4180939.75 296.559997559
577606.0625 4180940 296.209991455
577606.0625 4180940.75 296.190002441
577606.0625 4180941 296.329986572
577606.0625 4180941.25 296.459991455
577606.0625 4180941.25 296.559997559
577606.0625 4180941.5 296.609985352
577606.0625 4180941.75 296.609985352
577606.0625 4180942 296.579986572
577606.0625 4180942.25 296.519989014
577606.0625 4180942.25 296.450012207
577606.0625 4180942.5 296.390014648
577606.0625 4180942.75 296.339996338
577606.0625 4180943 296.309997559
577606.0625 4180943 296.309997559
577606.0625 4180943.25 296.329986572
577606.0625 4180943.5 296.350006104
577606.0625 4180943.75 296.390014648
577606.0625 4180944 296.440002441
577606.0625 4180944 296.480010986
577606.0625 4180944.25 296.519989014
577606.0625 4180944.5 296.529998779
577606.0625 4180944.75 296.600006104
577606.0625 4180945 296.630004883
577606.0625 4180945 296.519989014
577606.0625 4180945.25 296.679992676
577606.0625 4180945.5 296.690002441
577606.0625 4180945.75 296.559997559
577606.0625 4180946 296.649993896
577606.0625 4180946 296.600006104
577606.0625 4180946.25 296.489990234
577606.0625 4180946.5 296.440002441
577606.0625 4180946.75 296.359985352
577606.0625 4180946.75 296.279998779
577606.0625 4180947 296.230010986
577606.0625 4180947.25 296.209991455
577606.0625 4180947.5 296.239990234
577606.0625 4180947.75 296.320007324
577606.0625 4180947.75 296.440002441
577606.0625 4180948 296.600006104
577606.0625 4180948.25 296.769989014
577606.0625 4180948.75 297.279998779
577606.0625 4180949 297.399993896
577606.25 4180939.75 296.489990234
577606.25 4180940 296.230010986
577606.25 4180940.25 296.119995117
577606.25 4180941 296.420013428
577606.25 4180941.25 296.510009766
577606.25 4180941.25 296.570007324
577606.25 4180941.5 296.600006104
577606.25 4180941.75 296.579986572
577606.25 4180942 296.540008545
577606.25 4180942.25 296.459991455
577606.25 4180942.25 296.420013428
577606.25 4180942.5 296.369995117
577606.25 4180942.75 296.459991455
577606.25 4180943 296.329986572
577606.25 4180943 296.329986572
577606.25 4180943.25 296.579986572
577606.25 4180943.5 296.390014648
577606.25 4180943.75 296.429992676
577606.25 4180944 296.329986572
577606.25 4180944 296.5
577606.25 4180944.25 296.540008545
577606.25 4180944.5 296.559997559
577606.25 4180944.75 296.589996338
577606.25 4180945 296.609985352
577606.25 4180945 296.630004883
577606.25 4180945.25 296.630004883
577606.25 4180945.5 296.630004883
577606.25 4180945.75 296.609985352
577606.25 4180946 296.570007324
577606.25 4180946 296.510009766
577606.25 4180946.25 296.440002441
577606.25 4180946.5 296.350006104
577606.25 4180946.75 296.269989014
577606.25 4180946.75 296.200012207
577606.25 4180947 296.149993896
577606.25 4180947.5 296.149993896
577606.25 4180947.75 296.220001221
577606.25 4180947.75 296.339996338
577606.25 4180948 296.489990234
577606.25 4180948.25 296.510009766
577606.25 4180948.75 297.059997559
577606.25 4180948.75 297.239990234
577606.25 4180949 297.369995117
577606.4375 4180939.5 296.730010986
577606.4375 4180939.75 296.440002441
577606.4375 4180940 296.279998779
577606.4375 4180940.25 296.239990234
577606.4375 4180940.5 296.760009766
577606.4375 4180941 296.369995117
577606.4375 4180941.25 296.570007324
577606.4375 4180941.25 296.600006104
577606.4375 4180941.5 296.559997559
577606.4375 4180941.75 296.559997559
577606.4375 4180942 296.519989014
577606.4375 4180942.25 296.470001221
577606.4375 4180942.25 296.420013428
577606.4375 4180942.5 296.380004883
577606.4375 4180942.75 296.359985352
577606.4375 4180943 296.359985352
577606.4375 4180943 296.369995117
577606.4375 4180943.25 296.399993896
577606.4375 4180943.5 296.440002441
577606.4375 4180943.75 296.470001221
577606.4375 4180944 296.5
577606.4375 4180944 296.529998779
577606.4375 4180944.25 296.559997559
577606.4375 4180944.5 296.579986572
577606.4375 4180944.75 296.589996338
577606.4375 4180945 296.600006104
577606.4375 4180945 296.600006104
577606.4375 4180945.25 296.589996338
577606.4375 4180945.5 296.570007324
577606.4375 4180945.75 296.540008545
577606.4375 4180946 296.5
577606.4375 4180946 296.589996338
577606.4375 4180946.25 296.369995117
577606.4375 4180946.5 296.299987793
577606.4375 4180946.75 296.519989014
577606.4375 4180947.25 296.470001221
577606.4375 4180947.75 296.25
577606.4375 4180947.75 296.410003662
577606.4375 4180948 296.540008545
577606.4375 4180948.25 296.730010986
577606.4375 4180948.75 297.140014648
577606.4375 4180948.75 297.350006104
577606.4375 4180949 297.540008545
577606.625 4180939.75 296.510009766
577606.625 4180940.25 296.359985352
577606.625 4180940.25 296.410003662
577606.625 4180940.5 296.480010986
577606.625 4180940.75 296.540008545
577606.625 4180941 296.600006104
577606.625 4180941.25 296.619995117
577606.625 4180941.25 296.619995117
577606.625 4180941.5 296.600006104
577606.625 4180941.75 296.559997559
577606.625 4180942 296.510009766
577606.625 4180942.25 296.459991455
577606.625 4180942.25 296.420013428
577606.625 4180942.5 296.399993896
577606.625 4180942.75 296.390014648
577606.625 4180943 296.399993896
577606.625 4180943.25 296.450012207
577606.625 4180943.5 296.480010986
577606.625 4180943.75 296.450012207
577606.625 4180944 296.549987793
577606.625 4180944 296.570007324
577606.625 4180944.25 296.700012207
577606.625 4180944.5 296.600006104
577606.625 4180944.75 296.600006104
577606.625 4180945 296.450012207
577606.625 4180945 296.579986572
577606.625 4180945.25 296.559997559
577606.625 4180945.5 296.399993896
577606.625 4180945.75 296.489990234
577606.625 4180946 296.450012207
577606.625 4180946 296.390014648
577606.625 4180946.25 296.329986572
577606.625 4180946.5 296.269989014
577606.625 4180946.75 296.220001221
577606.625 4180946.75 296.190002441
577606.625 4180947 296.190002441
577606.625 4180947.25 296.220001221
577606.625 4180947.5 296.290008545
577606.625 4180947.75 296.390014648
577606.625 4180947.75 296.540008545
577606.625 4180948 296.720001221
577606.625 4180948.25 296.920013428
577606.625 4180948.5 297.140014648
577606.625 4180948.75 297.579986572
577606.8125 4180940.25 296.470001221
577606.8125 4180940.25 296.540008545
577606.8125 4180940.5 296.600006104
577606.8125 4180940.75 296.649993896
577606.8125 4180941 296.679992676
577606.8125 4180941.25 296.670013428
577606.8125 4180941.25 296.649993896
577606.8125 4180941.5 296.600006104
577606.8125 4180941.75 296.549987793
577606.8125 4180942 296.470001221
577606.8125 4180942.25 296.459991455
577606.8125 4180942.25 296.429992676
577606.8125 4180942.5 296.380004883
577606.8125 4180942.75 296.420013428
577606.8125 4180943 296.440002441
577606.8125 4180943 296.730010986
577606.8125 4180943.25 296.5
577606.8125 4180943.5 296.529998779
577606.8125 4180943.75 296.559997559
577606.8125 4180944 296.589996338
577606.8125 4180944 296.609985352
577606.8125 4180944.25 296.619995117
577606.8125 4180944.5 296.619995117
577606.8125 4180944.75 296.619995117
577606.8125 4180945 296.600006104
577606.8125 4180945 296.579986572
577606.8125 4180945.25 296.549987793
577606.8125 4180945.5 296.510009766
577606.8125 4180945.75 296.470001221
577606.8125 4180946 296.420013428
577606.8125 4180946 296.369995117
577606.8125 4180946.25 296.329986572
577606.8125 4180946.5 296.290008545
577606.8125 4180946.75 296.269989014
577606.8125 4180946.75 296.269989014
577606.8125 4180947 296.309997559
577606.8125 4180947.25 296.380004883
577606.8125 4180947.75 296.630004883
577606.8125 4180947.75 296.799987793
577606.8125 4180948 297
577606.8125 4180948.25 297.220001221
577607 4180939.75 296.570007324
577607 4180940 296.480010986
577607 4180940.25 296.570007324
577607 4180940.25 296.720001221
577607 4180940.5 296.709991455
577607 4180940.75 296.739990234
577607 4180941 296.609985352
577607 4180941.25 296.720001221
577607 4180941.25 296.600006104
577607 4180941.5 296.609985352
577607 4180941.75 296.549987793
577607 4180942 296.5
577607 4180942.25 296.459991455
577607 4180942.25 296.440002441
577607 4180942.5 296.440002441
577607 4180942.75 296.450012207
577607 4180943 296.470001221
577607 4180943 296.5
577607 4180943.25 296.529998779
577607 4180943.5 296.570007324
577607 4180943.75 296.600006104
577607 4180944 296.619995117
577607 4180944 296.640014648
577607 4180944.25 296.649993896
577607 4180944.5 296.649993896
577607 4180944.75 296.640014648
577607 4180945 296.630004883
577607 4180945 296.600006104
577607 4180945.25 296.559997559
577607 4180945.5 296.519989014
577607 4180945.75 296.470001221
577607 4180946 296.420013428
577607 4180946 296.380004883
577607 4180946.25 296.350006104
577607 4180946.5 296.339996338
577607 4180946.75 296.359985352
577607 4180946.75 296.399993896
577607 4180947 296.480010986
577607 4180947.75 296.940002441
577607 4180947.75 297.140014648
577607 4180948 297.369995117
577607 4180948.25 297.600006104
577607.1875 4180939.75 296.420013428
577607.1875 4180940 296.529998779
577607.1875 4180940.25 296.630004883
577607.1875 4180940.25 296.720001221
577607.1875 4180940.5 296.779998779
577607.1875 4180940.75 296.799987793
577607.1875 4180941 296.790008545
577607.1875 4180941.25 296.75
577607.1875 4180941.25 296.690002441
577607.1875 4180941.5 296.619995117
577607.1875 4180941.75 296.559997559
577607.1875 4180942 296.5
577607.1875 4180942.25 296.459991455
577607.1875 4180942.25 296.440002441
577607.1875 4180942.5 296.440002441
577607.1875 4180942.75 296.450012207
577607.1875 4180943 296.480010986
577607.1875 4180943 296.510009766
577607.1875 4180943.25 296.549987793
577607.1875 4180943.5 296.589996338
577607.1875 4180943.75 296.619995117
577607.1875 4180944 296.649993896
577607.1875 4180944 296.670013428
577607.1875 4180944.25 296.690002441
577607.1875 4180944.5 296.690002441
577607.1875 4180944.75 296.679992676
577607.1875 4180945 296.649993896
577607.1875 4180945 296.619995117
577607.1875 4180945.25 296.579986572
577607.1875 4180945.5 296.529998779
577607.1875 4180945.75 296.489990234
577607.1875 4180946 296.450012207
577607.1875 4180946 296.420013428
577607.1875 4180946.25 296.410003662
577607.1875 4180946.5 296.429992676
577607.1875 4180946.75 296.480010986
577607.1875 4180946.75 296.529998779
577607.1875 4180947 296.709991455
577607.1875 4180947.5 297.230010986
577607.1875 4180947.75 297.290008545
577607.1875 4180947.75 297.529998779
577607.1875 4180948 297.369995117
577607.4375 4180939.5 296.299987793
577607.4375 4180939.75 296.420013428
577607.4375 4180940 296.549987793
577607.4375 4180940.25 296.670013428
577607.4375 4180940.25 296.760009766
577607.4375 4180940.5 296.820007324
577607.4375 4180940.75 296.829986572
577607.4375 4180941 296.809997559
577607.4375 4180941.25 296.760009766
577607.4375 4180941.25 296.690002441
577607.4375 4180941.5 296.619995117
577607.4375 4180941.75 296.549987793
577607.4375 4180942 296.5
577607.4375 4180942.25 296.459991455
577607.4375 4180942.25 296.440002441
577607.4375 4180942.5 296.440002441
577607.4375 4180942.75 296.450012207
577607.4375 4180943 296.480010986
577607.4375 4180943 296.510009766
577607.4375 4180943.25 296.549987793
577607.4375 4180943.5 296.600006104
577607.4375 4180943.75 296.640014648
577607.4375 4180944 296.670013428
577607.4375 4180944 296.700012207
577607.4375 4180944.25 296.709991455
577607.4375 4180944.5 296.720001221
577607.4375 4180944.75 296.709991455
577607.4375 4180945 296.679992676
577607.4375 4180945 296.399993896
577607.4375 4180945.25 296.600006104
577607.4375 4180945.5 296.559997559
577607.4375 4180945.75 296.589996338
577607.4375 4180946 296.480010986
577607.4375 4180946 296.470001221
577607.4375 4180946.25 296.440002441
577607.4375 4180946.5 296.549987793
577607.4375 4180946.75 296.649993896
577607.4375 4180947.25 297.179992676
577607.625 4180939.5 296.299987793
577607.625 4180939.75 296.429992676
577607.625 4180940 296.559997559
577607.625 4180940.25 296.679992676
577607.625 4180940.25 296.760009766
577607.625 4180940.5 296.809997559
577607.625 4180940.75 296.829986572
577607.625 4180941 296.799987793
577607.625 4180941.25 296.760009766
577607.625 4180941.25 296.690002441
577607.625 4180941.5 296.619995117
577607.625 4180941.75 296.549987793
577607.625 4180942 296.489990234
577607.625 4180942.25 296.450012207
577607.625 4180942.25 296.429992676
577607.625 4180942.5 296.420013428
577607.625 4180942.75 296.440002441
577607.625 4180943 296.320007324
577607.625 4180943 296.5
577607.625 4180943.25 296.540008545
577607.625 4180943.5 296.609985352
577607.625 4180943.75 296.640014648
577607.625 4180944 296.679992676
577607.625 4180944 296.630004883
577607.625 4180944.25 296.739990234
577607.625 4180944.5 296.739990234
577607.625 4180944.75 296.809997559
577607.625 4180945 296.709991455
577607.625 4180945 296.670013428
577607.625 4180945.25 296.619995117
577607.625 4180945.5 296.579986572
577607.625 4180945.75 296.540008545
577607.625 4180946 296.529998779
577607.625 4180946 296.540008545
577607.625 4180946.25 296.589996338
577607.625 4180946.5 296.690002441
577607.625 4180946.75 296.829986572
577607.8125 4180939.5 296.320007324
577607.8125 4180939.75 296.440002441
577607.8125 4180940 296.559997559
577607.8125 4180940.25 296.660003662
577607.8125 4180940.25 296.730010986
577607.8125 4180940.5 296.679992676
577607.8125 4180940.75 296.790008545
577607.8125 4180941 296.779998779
577607.8125 4180941.25 296.709991455
577607.8125 4180941.25 296.679992676
577607.8125 4180941.5 296.609985352
577607.8125 4180941.75 296.600006104
577607.8125 4180942 296.489990234
577607.8125 4180942.25 296.440002441
577607.8125 4180942.25 296.420013428
577607.8125 4180942.5 296.399993896
577607.8125 4180942.75 296.410003662
577607.8125 4180943 296.440002441
577607.8125 4180943 296.470001221
577607.8125 4180943.25 296.519989014
577607.8125 4180943.5 296.579986572
577607.8125 4180943.75 296.630004883
577607.8125 4180944 296.679992676
577607.8125 4180944 296.720001221
577607.8125 4180944.25 296.75
577607.8125 4180944.5 296.75
577607.8125 4180944.75 296.739990234
577607.8125 4180945 296.709991455
577607.8125 4180945 296.670013428
577607.8125 4180945.5 296.589996338
577607.8125 4180945.75 296.559997559
577607.8125 4180946 296.609985352
577607.8125 4180946.25 296.700012207
577607.8125 4180946.5 296.630004883
577607.8125 4180947 296.910003662
577607.8125 4180966.5 296.109985352
577608 4180939.25 296.579986572
577608 4180939.75 296.450012207
577608 4180940 296.640014648
577608 4180940.25 296.619995117
577608 4180940.25 296.679992676
577608 4180940.5 296.720001221
577608 4180940.75 296.739990234
577608 4180941 296.730010986
577608 4180941.25 296.700012207
577608 4180941.25 296.649993896
577608 4180941.5 296.589996338
577608 4180941.75 296.540008545
577608 4180942 296.480010986
577608 4180942.25 296.429992676
577608 4180942.25 296.399993896
577608 4180942.5 296.390014648
577608 4180942.75 296.390014648
577608 4180943 296.410003662
577608 4180943 296.450012207
577608 4180943.25 296.5
577608 4180943.5 296.549987793
577608 4180943.75 296.619995117
577608 4180944 296.670013428
577608 4180944 296.690002441
577608 4180944.25 296.739990234
577608 4180944.5 296.75
577608 4180944.75 296.899993896
577608 4180945 296.700012207
577608 4180945.25 296.970001221
577608 4180946 296.929992676
577608 4180946 296.670013428
577608 4180946.25 296.799987793
577608.1875 4180940 296.519989014
577608.1875 4180940.25 296.570007324
577608.1875 4180940.25 296.609985352
577608.1875 4180940.5 296.649993896
577608.1875 4180940.75 296.660003662
577608.1875 4180941 296.670013428
577608.1875 4180941.25 296.649993896
577608.1875 4180941.25 296.619995117
577608.1875 4180941.5 296.570007324
577608.1875 4180941.75 296.519989014
577608.1875 4180942 296.5
577608.1875 4180942.25 296.429992676
577608.1875 4180942.25 296.429992676
577608.1875 4180942.5 296.369995117
577608.1875 4180942.75 296.369995117
577608.1875 4180943 296.459991455
577608.1875 4180943 296.420013428
577608.1875 4180943.25 296.470001221
577608.1875 4180943.5 296.380004883
577608.1875 4180943.75 296.600006104
577608.1875 4180944 296.660003662
577608.1875 4180944 296.700012207
577608.1875 4180944.25 296.730010986
577608.1875 4180944.5 296.739990234
577608.1875 4180944.75 296.720001221
577608.1875 4180945 296.679992676
577608.1875 4180945 296.630004883
577608.1875 4180945.75 296.549987793
577608.1875 4180946 296.709991455
577608.1875 4180946.25 296.880004883
577608.1875 4180946.5 297.119995117
577608.1875 4180966.5 296.730010986
577608.375 4180939.5 296.459991455
577608.375 4180939.75 296.480010986
577608.375 4180940 296.489990234
577608.375 4180940.25 296.559997559
577608.375 4180940.25 296.540008545
577608.375 4180940.5 296.570007324
577608.375 4180940.75 296.619995117
577608.375 4180941 296.600006104
577608.375 4180941.25 296.600006104
577608.375 4180941.25 296.440002441
577608.375 4180941.5 296.549987793
577608.375 4180941.75 296.510009766
577608.375 4180942 296.470001221
577608.375 4180942.25 296.420013428
577608.375 4180942.25 296.390014648
577608.375 4180942.5 296.359985352
577608.375 4180942.75 296.350006104
577608.375 4180943 296.359985352
577608.375 4180943 296.399993896
577608.375 4180943.25 296.450012207
577608.375 4180943.5 296.510009766
577608.375 4180943.75 296.570007324
577608.375 4180944 296.640014648
577608.375 4180944 296.679992676
577608.375 4180944.25 296.709991455
577608.375 4180944.5 296.709991455
577608.375 4180944.75 296.679992676
577608.375 4180945 296.630004883
577608.375 4180945 296.579986572
577608.375 4180945.25 296.529998779
577608.375 4180945.5 296.5
577608.375 4180945.75 296.519989014
577608.375 4180946 296.589996338
577608.375 4180946 296.730010986
577608.375 4180946.25 296.940002441
577608.375 4180965.25 296.230010986
577608.375 4180965.5 296.420013428
577608.375 4180966 296.570007324
577608.375 4180967 296.279998779
577608.625 4180939.25 296.570007324
577608.625 4180939.5 296.529998779
577608.625 4180939.75 296.5
577608.625 4180940 296.480010986
577608.625 4180940.25 296.470001221
577608.625 4180940.25 296.480010986
577608.625 4180940.5 296.489990234
577608.625 4180940.75 296.510009766
577608.625 4180941 296.529998779
577608.625 4180941.25 296.540008545
577608.625 4180941.25 296.540008545
577608.625 4180941.5 296.529998779
577608.625 4180941.75 296.5
577608.625 4180942 296.459991455
577608.625 4180942.25 296.420013428
577608.625 4180942.25 296.390014648
577608.625 4180942.5 296.359985352
577608.625 4180942.75 296.350006104
577608.625 4180943 296.350006104
577608.625 4180943 296.380004883
577608.625 4180943.25 296.429992676
577608.625 4180943.5 296.489990234
577608.625 4180943.75 296.549987793
577608.625 4180944 296.609985352
577608.625 4180944 296.660003662
577608.625 4180944.25 296.679992676
577608.625 4180944.5 296.670013428
577608.625 4180944.75 296.640014648
577608.625 4180945 296.579986572
577608.625 4180945 296.519989014
577608.625 4180945.25 296.470001221
577608.625 4180945.5 296.440002441
577608.625 4180945.75 296.470001221
577608.625 4180946 296.559997559
577608.625 4180946 296.730010986
577608.625 4180965.25 296.679992676
577608.625 4180965.5 296.380004883
577608.625 4180965.5 296.170013428
577608.625 4180966.5 296.279998779
577608.625 4180966.75 296.410003662
577608.625 4180967 296.510009766
577608.625 4180967.25 296.600006104
577608.8125 4180939.25 296.660003662
577608.8125 4180939.5 296.589996338
577608.8125 4180939.75 296.519989014
577608.8125 4180940 296.470001221
577608.8125 4180940.25 296.440002441
577608.8125 4180940.25 296.429992676
577608.8125 4180940.5 296.440002441
577608.8125 4180940.75 296.450012207
577608.8125 4180941 296.470001221
577608.8125 4180941.25 296.489990234
577608.8125 4180941.25 296.5
577608.8125 4180941.5 296.5
577608.8125 4180941.75 296.489990234
577608.8125 4180942 296.459991455
577608.8125 4180942.25 296.429992676
577608.8125 4180942.25 296.390014648
577608.8125 4180942.5 296.369995117
577608.8125 4180942.75 296.350006104
577608.8125 4180943 296.359985352
577608.8125 4180943 296.380004883
577608.8125 4180943.25 296.420013428
577608.8125 4180943.5 296.480010986
577608.8125 4180943.75 296.540008545
577608.8125 4180944 296.589996338
577608.8125 4180944 296.630004883
577608.8125 4180944.25 296.640014648
577608.8125 4180944.5 296.630004883
577608.8125 4180944.75 296.589996338
577608.8125 4180945 296.529998779
577608.8125 4180945 296.459991455
577608.8125 4180945.25 296.470001221
577608.8125 4180945.5 296.380004883
577608.8125 4180945.75 296.410003662
577608.8125 4180946 296.440002441
577608.8125 4180946 296.700012207
577608.8125 4180946.25 296.440002441
577608.8125 4180965.5 296.839996338
577608.8125 4180965.5 296.609985352
577608.8125 4180965.75 296.459991455
577608.8125 4180966 296.390014648
577608.8125 4180966.25 296.390014648
577608.8125 4180966.5 296.600006104
577608.8125 4180966.5 296.540008545
577608.8125 4180966.75 296.640014648
577608.8125 4180967 296.390014648
577609 4180939.5 296.630004883
577609 4180939.75 296.540008545
577609 4180940 296.470001221
577609 4180940.25 296.420013428
577609 4180940.25 296.399993896
577609 4180940.5 296.399993896
577609 4180940.75 296.410003662
577609 4180941 296.429992676
577609 4180941.25 296.459991455
577609 4180941.25 296.480010986
577609 4180941.5 296.480010986
577609 4180941.75 296.480010986
577609 4180942 296.459991455
577609 4180942.25 296.429992676
577609 4180942.25 296.410003662
577609 4180942.5 296.380004883
577609 4180942.75 296.369995117
577609 4180943 296.369995117
577609 4180943 296.380004883
577609 4180943.25 296.420013428
577609 4180943.5 296.470001221
577609 4180943.75 296.519989014
577609 4180944 296.570007324
577609 4180944 296.480010986
577609 4180944.25 296.609985352
577609 4180944.5 296.589996338
577609 4180944.75 296.390014648
577609 4180945 296.480010986
577609 4180945 296.399993896
577609 4180945.25 296.350006104
577609 4180945.5 296.320007324
577609 4180945.75 296.359985352
577609 4180946 296.459991455
577609 4180946 296.649993896
577609 4180965.25 296.670013428
577609 4180965.75 296.589996338
577609 4180966 296.690002441
577609 4180966.25 296.660003662
577609 4180966.5 296.679992676
577609 4180966.5 296.739990234
577609.1875 4180939.5 296.649993896
577609.1875 4180939.75 296.559997559
577609.1875 4180940 296.480010986
577609.1875 4180940.25 296.420013428
577609.1875 4180940.25 296.390014648
577609.1875 4180940.5 296.380004883
577609.1875 4180940.75 296.390014648
577609.1875 4180941 296.410003662
577609.1875 4180941.25 296.459991455
577609.1875 4180941.25 296.459991455
577609.1875 4180941.5 296.470001221
577609.1875 4180941.75 296.420013428
577609.1875 4180942 296.459991455
577609.1875 4180942.25 296.440002441
577609.1875 4180942.25 296.5
577609.1875 4180942.5 296.399993896
577609.1875 4180942.75 296.380004883
577609.1875 4180943 296.369995117
577609.1875 4180943 296.399993896
577609.1875 4180943.25 296.429992676
577609.1875 4180943.5 296.470001221
577609.1875 4180943.75 296.510009766
577609.1875 4180944 296.549987793
577609.1875 4180944 296.579986572
577609.1875 4180944.25 296.579986572
577609.1875 4180944.5 296.559997559
577609.1875 4180944.75 296.510009766
577609.1875 4180945 296.440002441
577609.1875 4180945 296.369995117
577609.1875 4180945.25 296.309997559
577609.1875 4180945.5 296.279998779
577609.1875 4180945.75 296.309997559
577609.1875 4180946 296.410003662
577609.1875 4180946 296.589996338
577609.1875 4180946.5 296.369995117
577609.1875 4180966 296.869995117
577609.1875 4180966.25 296.799987793
577609.1875 4180966.5 296.799987793
577609.1875 4180966.5 296.829986572
577609.1875 4180966.75 296.880004883
577609.1875 4180967 296.940002441
577609.375 4180939.25 296.480010986
577609.375 4180939.5 296.649993896
577609.375 4180940 296.440002441
577609.375 4180940.25 296.440002441
577609.375 4180940.25 296.410003662
577609.375 4180940.5 296.5
577609.375 4180940.75 296.399993896
577609.375 4180941 296.420013428
577609.375 4180941.25 296.440002441
577609.375 4180941.25 296.450012207
577609.375 4180941.5 296.470001221
577609.375 4180941.75 296.470001221
577609.375 4180942 296.459991455
577609.375 4180942.25 296.450012207
577609.375 4180942.25 296.429992676
577609.375 4180942.5 296.410003662
577609.375 4180942.75 296.399993896
577609.375 4180943 296.399993896
577609.375 4180943 296.410003662
577609.375 4180943.25 296.440002441
577609.375 4180943.5 296.470001221
577609.375 4180943.75 296.510009766
577609.375 4180944 296.540008545
577609.375 4180944 296.559997559
577609.375 4180944.25 296.559997559
577609.375 4180944.5 296.529998779
577609.375 4180944.75 296.470001221
577609.375 4180945 296.420013428
577609.375 4180945 296.350006104
577609.375 4180945.25 296.589996338
577609.375 4180946 296.640014648
577609.375 4180946 296.510009766
577609.375 4180946.25 296.75
577609.375 4180966.25 296.790008545
577609.375 4180966.5 296.769989014
577609.375 4180966.75 296.820007324
577609.5625 4180940 296.5
577609.5625 4180940.25 296.470001221
577609.5625 4180940.25 296.440002441
577609.5625 4180940.5 296.429992676
577609.5625 4180940.75 296.429992676
577609.5625 4180941 296.440002441
577609.5625 4180941.25 296.450012207
577609.5625 4180941.25 296.459991455
577609.5625 4180941.5 296.470001221
577609.5625 4180941.75 296.470001221
577609.5625 4180942 296.470001221
577609.5625 4180942.25 296.459991455
577609.5625 4180942.25 296.640014648
577609.5625 4180942.5 296.429992676
577609.5625 4180942.75 296.420013428
577609.5625 4180943 296.320007324
577609.5625 4180943 296.429992676
577609.5625 4180943.25 296.450012207
577609.5625 4180943.5 296.579986572
577609.5625 4180943.75 296.510009766
577609.5625 4180944 296.529998779
577609.5625 4180944 296.549987793
577609.5625 4180944.25 296.549987793
577609.5625 4180944.5 296.519989014
577609.5625 4180944.75 296.480010986
577609.5625 4180945 296.420013428
577609.5625 4180945 296.359985352
577609.5625 4180945.5 296.260009766
577609.5625 4180945.75 296.260009766
577609.5625 4180946 296.440002441
577609.5625 4180946.25 296.640014648
577609.5625 4180946.5 296.920013428
577609.5625 4180966 296.380004883
577609.5625 4180966.25 296.630004883
577609.5625 4180966.5 296.600006104
577609.5625 4180966.5 296.470001221
577609.5625 4180966.75 296.640014648
577609.5625 4180967 296.690002441
577609.8125 4180939.75 296.519989014
577609.8125 4180940 296.510009766
577609.8125 4180940.25 296.510009766
577609.8125 4180940.25 296.489990234
577609.8125 4180940.5 296.480010986
577609.8125 4180940.75 296.489990234
577609.8125 4180941 296.480010986
577609.8125 4180941.25 296.480010986
577609.8125 4180941.25 296.440002441
577609.8125 4180941.5 296.480010986
577609.8125 4180941.75 296.359985352
577609.8125 4180942 296.470001221
577609.8125 4180942.25 296.459991455
577609.8125 4180942.25 296.450012207
577609.8125 4180942.5 296.440002441
577609.8125 4180942.75 296.440002441
577609.8125 4180943 296.440002441
577609.8125 4180943 296.450012207
577609.8125 4180943.25 296.470001221
577609.8125 4180943.5 296.489990234
577609.8125 4180943.75 296.510009766
577609.8125 4180944 296.529998779
577609.8125 4180944 296.540008545
577609.8125 4180944.25 296.540008545
577609.8125 4180944.5 296.529998779
577609.8125 4180944.75 296.489990234
577609.8125 4180945 296.440002441
577609.8125 4180945 296.380004883
577609.8125 4180945.25 296.320007324
577609.8125 4180945.5 296.279998779
577609.8125 4180945.75 296.260009766
577609.8125 4180946 296.279998779
577609.8125 4180946 296.369995117
577609.8125 4180946.25 296.519989014
577609.8125 4180946.5 296.75
577609.8125 4180946.75 297.040008545
577609.8125 4180965.5 296.579986572
