# .PCD v.7 - Point Cloud Data file format
VERSION .7
FIELDS x y z
SIZE 4 4 4
TYPE F F F
COUNT 1 1 1
WIDTH 177
HEIGHT 1
VIEWPOINT 0 0 0 1 0 0 0
POINTS 177
DATA ascii
577611.9375 4180964 308.809997559
577611.9375 4180964.5 309.779998779
577612.125 4180961.25 310.130004883
577612.125 4180961.75 309.959991455
577612.375 4180961.75 309.540008545
577612.375 4180962.25 309.179992676
577612.5625 4180962.25 309.260009766
577612.5625 4180962.5 309.299987793
577612.5625 4180964.25 310.149993896
577612.5625 4180964.75 309.869995117
577612.75 4180961.5 310.480010986
577612.75 4180962 310.440002441
577612.75 4180962.5 309.049987793
577612.75 4180963.75 309.709991455
577612.75 4180964 309.839996338
577612.75 4180966.75 309.040008545
577612.9375 4180962.5 309.049987793
577612.9375 4180962.75 308.929992676
577612.9375 4180963.5 309.589996338
577612.9375 4180963.75 309.940002441
577612.9375 4180964 310.470001221
577612.9375 4180964.25 310.549987793
577612.9375 4180964.5 310.470001221
577612.9375 4180964.5 310.239990234
577612.9375 4180964.75 309.890014648
577612.9375 4180965 309.489990234
577612.9375 4180966.75 309.600006104
577612.9375 4180967.5 309.869995117
577613.125 4180961 309.579986572
577613.125 4180961.25 309.720001221
577613.125 4180961.75 309.579986572
577613.125 4180963.5 309.820007324
577613.125 4180964.5 310.679992676
577613.125 4180965 309.929992676
577613.125 4180965.25 309.679992676
577613.125 4180966.5 309.799987793
577613.125 4180966.75 309.829986572
577613.125 4180967 309.670013428
577613.3125 4180960.25 308.75
577613.3125 4180961 309.480010986
577613.3125 4180961.25 309.549987793
577613.3125 4180961.5 309.549987793
577613.3125 4180963.75 309.619995117
577613.3125 4180964.25 310.399993896
577613.3125 4180964.5 310.829986572
577613.3125 4180964.75 310.760009766
577613.3125 4180965.25 309.700012207
577613.3125 4180966.5 309.649993896
577613.3125 4180966.5 309.809997559
577613.3125 4180966.75 309.790008545
577613.5625 4180960 308.850006104
577613.5625 4180960.25 309.029998779
577613.5625 4180961.25 309.720001221
577613.5625 4180961.75 309.970001221
577613.5625 4180962.5 309.640014648
577613.5625 4180963.5 310
577613.5625 4180964.5 310.730010986
577613.5625 4180965 310.079986572
577613.5625 4180966.25 309.420013428
577613.5625 4180966.5 309.579986572
577613.5625 4180966.5 309.660003662
577613.5625 4180967 309.940002441
577613.5625 4180967.5 310
577613.75 4180960 308.679992676
577613.75 4180962.25 308.959991455
577613.75 4180965 309.940002441
577613.75 4180965.25 310.049987793
577613.75 4180966 309.260009766
577613.75 4180966.25 309.359985352
577613.75 4180966.5 309.589996338
577613.75 4180966.5 309.429992676
577613.9375 4180960.25 309.089996338
577613.9375 4180961.5 308.720001221
577613.9375 4180961.75 308.75
577613.9375 4180962 308.809997559
577613.9375 4180962.25 308.980010986
577613.9375 4180962.5 308.989990234
577613.9375 4180962.75 309.119995117
577613.9375 4180963 309.75
577613.9375 4180963.25 309.700012207
577613.9375 4180963.5 309.119995117
577613.9375 4180964.25 311.140014648
577613.9375 4180964.75 311.410003662
577613.9375 4180966.25 309.309997559
577613.9375 4180966.5 309.320007324
577613.9375 4180966.5 309.200012207
577614.125 4180960.25 308.850006104
577614.125 4180960.5 308.790008545
577614.125 4180961.75 308.570007324
577614.125 4180962 308.690002441
577614.125 4180962.25 308.829986572
577614.125 4180962.5 308.980010986
577614.125 4180962.75 309.149993896
577614.125 4180962.75 309.329986572
577614.125 4180963 309.519989014
577614.125 4180963.25 309.700012207
577614.3125 4180959 309.029998779
577614.3125 4180959.5 309.200012207
577614.3125 4180960 309.239990234
577614.3125 4180962 308.579986572
577614.3125 4180962.25 308.769989014
577614.3125 4180962.75 309.380004883
577614.3125 4180963 309.559997559
577614.3125 4180963.25 309.720001221
577614.3125 4180963.75 309.940002441
577614.3125 4180963.75 309.970001221
577614.5 4180962.75 309.429992676
577614.5 4180963 309.630004883
577614.5 4180963.25 309.779998779
577614.5 4180963.5 309.880004883
577614.5 4180963.75 309.929992676
577614.5 4180963.75 309.910003662
577614.6875 4180962.75 309.489990234
577614.6875 4180963 309.390014648
577614.6875 4180963.5 309.970001221
577614.6875 4180963.75 309.910003662
577614.6875 4180963.75 309.920013428
577614.6875 4180964.25 311.220001221
577614.6875 4180964.75 308.869995117
577614.6875 4180965 308.709991455
577614.6875 4180965.25 308.630004883
577614.6875 4180965.5 308.640014648
577614.6875 4180966.5 309.059997559
577614.9375 4180960.75 308.489990234
577614.9375 4180961.25 308.540008545
577614.9375 4180961.75 309.429992676
577614.9375 4180962.25 308.519989014
577614.9375 4180962.75 309.549987793
577614.9375 4180963.5 310.100006104
577614.9375 4180963.75 310.089996338
577614.9375 4180963.75 309.970001221
577614.9375 4180964.5 309.109985352
577614.9375 4180966.5 309.239990234
577614.9375 4180966.75 308.929992676
577614.9375 4180967.25 309.309997559
577615.125 4180962.75 309.589996338
577615.125 4180963 309.910003662
577615.125 4180964.25 309.290008545
577615.125 4180964.5 309.339996338
577615.125 4180965 309.859985352
577615.125 4180965.5 309.920013428
577615.125 4180966.5 309.190002441
577615.3125 4180962.75 309.809997559
577615.3125 4180963 309.980010986
577615.3125 4180963.25 309.279998779
577615.3125 4180963.75 309.140014648
577615.5 4180962.5 308.470001221
577615.5 4180962.75 309.559997559
577615.5 4180963 309.989990234
577615.5 4180964 309.299987793
577615.6875 4180962.75 309.450012207
577615.6875 4180963.5 310.260009766
577615.6875 4180963.75 310.049987793
577615.6875 4180967.75 309.570007324
577615.875 4180963.5 309.970001221
577615.875 4180963.75 309.640014648
577616.125 4180962.75 309
577616.125 4180963 308.709991455
577616.125 4180963.5 309.480010986
577616.125 4180963.75 309.709991455
577616.125 4180967.5 309.290008545
577616.3125 4180962.75 310.600006104
577616.3125 4180963 309.010009766
577616.3125 4180963.25 309.070007324
577616.3125 4180966.5 308.619995117
577616.3125 4180967.25 309.220001221
577616.3125 4180967.5 309.230010986
577616.3125 4180967.75 310.339996338
577616.5 4180964.25 308.369995117
577616.5 4180967.5 309.049987793
577616.6875 4180963.25 309.519989014
577616.6875 4180963.75 308.519989014
577616.6875 4180967.5 308.809997559
577617.0625 4180966.75 308.929992676
577617.0625 4180967.5 308.970001221
577617.25 4180966.5 308.769989014
577617.6875 4180966.5 308.850006104
