# .PCD v.7 - Point Cloud Data file format
VERSION .7
FIELDS x y z
SIZE 4 4 4
TYPE F F F
COUNT 1 1 1
WIDTH 64
HEIGHT 1
VIEWPOINT 0 0 0 1 0 0 0
POINTS 64
DATA ascii
577594.375 4180963.5 303.679992676
577594.375 4180964 303.910003662
577595 4180963.5 304
577595 4180963.75 304.769989014
577595.1875 4180963.25 304.010009766
577595.1875 4180963.75 304.390014648
577595.75 4180963 303.920013428
577595.75 4180963.5 305.070007324
577595.75 4180963.75 304.970001221
577596 4180963.25 304.260009766
577596 4180963.5 305.019989014
577596 4180965.25 305.510009766
577596.1875 4180963.25 304.109985352
577596.1875 4180963.75 305.440002441
577596.1875 4180965 305.170013428
577596.1875 4180965.25 305.200012207
577596.1875 4180965.5 305.390014648
577596.375 4180963.5 304.660003662
577596.375 4180964.75 304.970001221
577596.375 4180965 304.959991455
577596.375 4180965.25 304.989990234
577596.375 4180965.5 305.130004883
577596.375 4180965.5 305.480010986
577596.5625 4180963 304.760009766
577596.5625 4180963.5 304.369995117
577596.5625 4180963.75 304.510009766
577596.5625 4180964.25 305.070007324
577596.5625 4180964.5 305.220001221
577596.5625 4180964.75 304.989990234
577596.5625 4180965 304.829986572
577596.5625 4180965.25 304.799987793
577596.5625 4180965.5 304.940002441
577596.75 4180963.75 304.700012207
577596.75 4180964 305.440002441
577596.75 4180964.5 305.380004883
577596.75 4180965.25 304.709991455
577596.75 4180965.5 304.820007324
577596.9375 4180963.75 304.320007324
577596.9375 4180964.5 305.299987793
577596.9375 4180965.25 304.679992676
577596.9375 4180965.5 304.589996338
577597.1875 4180963.75 304.320007324
577597.1875 4180963.75 304.519989014
577597.1875 4180965.25 304.690002441
577597.1875 4180965.5 304.760009766
577597.1875 4180965.5 305.010009766
577597.1875 4180965.75 305.429992676
577597.375 4180965.25 304.730010986
577597.375 4180965.5 304.799987793
577597.375 4180965.5 305.029998779
577597.5625 4180965.5 305.109985352
577597.75 4180964.5 304.510009766
577597.75 4180964.75 304.010009766
577597.75 4180965.5 305.290008545
577597.75 4180965.5 305.25
577597.9375 4180963.75 303.75
577597.9375 4180965.5 305.149993896
577598.3125 4180965 304.75
577598.3125 4180965.5 305.179992676
577598.5625 4180964.75 304.549987793
577598.5625 4180965 304.980010986
577598.75 4180964.75 304.670013428
577599.125 4180964.5 304.970001221
577599.75 4180963.75 304.450012207
