# .PCD v.7 - Point Cloud Data file format
VERSION .7
FIELDS x y z
SIZE 4 4 4
TYPE F F F
COUNT 1 1 1
WIDTH 79
HEIGHT 1
VIEWPOINT 0 0 0 1 0 0 0
POINTS 79
DATA ascii
577596.2 4180967 308.34
577596.4 4180967 308.34
577596.4 4180966 308.35
577596.4 4180967 308.36
577596.8 4180967 308.39
577597.2 4180967 308.4
577596.4 4180967 308.46
577594 4180966 308.8
577610 4180961 306.12
577610.4 4180962 306.16
577609 4180961 306.2
577609.2 4180961 306.23
577609 4180961 306.27
577599.5 4180965 307.07
577599.8 4180965 307.09
577599.3 4180965 307.12
577597.6 4180966 307.21
577596.6 4180966 307.22
577596.4 4180966 307.24
577596.9 4180967 307.25
577599.8 4180965 307.29
577597.2 4180966 307.38
577594.4 4180966 307.42
577595 4180967 307.44
577599.5 4180966 307.45
577598.9 4180966 307.46
577599.9 4180965 307.48
577597.6 4180968 307.49
577599.8 4180965 307.5
577597.9 4180967 307.51
577594.6 4180966 307.56
577594 4180966 307.57
577595.4 4180967 307.59
577599.9 4180964 307.6
577598.8 4180966 307.6
577594.4 4180966 307.63
577594.6 4180967 307.63
577597.8 4180968 307.65
577599.9 4180964 307.66
577594.8 4180966 307.66
577597.8 4180966 307.67
577597.9 4180966 307.67
577598.3 4180966 307.7
577594.4 4180966 307.71
577595.2 4180967 307.71
577597.4 4180968 307.73
577599.3 4180966 307.74
577597.6 4180966 307.74
577593.8 4180968 307.75
577599.9 4180965 307.76
577597.8 4180967 307.77
577597.8 4180967 307.76
577594.2 4180968 307.77
577599.1 4180966 307.8
577593.8 4180966 307.8
577597.9 4180967 307.84
577597.4 4180966 307.85
577597.9 4180967 307.88
577597.2 4180968 307.88
577596 4180967 307.89
577598.9 4180966 307.97
577595.2 4180966 307.98
577598.3 4180968 307.98
577598.3 4180966 307.99
577598.6 4180966 308
577594.8 4180966 308.01
577597.8 4180967 308.01
577597.6 4180967 308.02
577594 4180966 308.03
577598.8 4180966 308.04
577596.4 4180968 308.04
577596.9 4180968 308.1
577596.2 4180967 308.13
577594.4 4180966 308.18
577596.2 4180966 308.25
577596.6 4180966 308.25
577597.4 4180967 308.25
577595.4 4180966 308.27
577595.6 4180968 308.28
