# .PCD v.7 - Point Cloud Data file format
VERSION .7
FIELDS x y z
SIZE 4 4 4
TYPE F F F
COUNT 1 1 1
WIDTH 149
HEIGHT 1
VIEWPOINT 0 0 0 1 0 0 0
POINTS 149
DATA ascii
577599.1 4180966 308.32
577605.1 4180966 308.33
577601.1 4180966 308.34
577604.6 4180966 308.35
577598.8 4180966 308.36
577599.1 4180967 308.36
577601.5 4180966 308.38
577599.3 4180966 308.38
577601.1 4180966 308.41
577598.9 4180966 308.41
577600.3 4180964 308.42
577601.3 4180966 308.45
577604.4 4180967 308.45
577600.7 4180965 308.48
577600.3 4180966 308.49
577600.9 4180966 308.49
577599.1 4180967 308.5
577600.3 4180965 308.51
577600.9 4180965 308.56
577603.5 4180966 308.56
577600.5 4180966 308.58
577600.7 4180966 308.58
577600.9 4180966 308.62
577600.3 4180966 308.63
577599.3 4180966 308.63
577604.9 4180966 308.63
577600.5 4180965 308.65
577604.6 4180966 308.72
577598.9 4180966 308.73
577601.1 4180965 308.79
577604.9 4180966 308.83
577599.1 4180968 308.82
577603.7 4180965 308.84
577600.7 4180966 308.9
577600.9 4180966 308.92
577600.3 4180966 308.93
577600.9 4180964 308.94
577603.1 4180966 308.94
577601.5 4180966 308.94
577600.5 4180966 308.95
577601.3 4180964 308.96
577603.9 4180966 309.01
577604.4 4180966 309.01
577600.5 4180964 309.03
577599.8 4180966 309.03
577604.9 4180966 309.04
577599.8 4180968 309.06
577600.5 4180968 309.06
577601.1 4180964 309.07
577601.3 4180965 309.1
577603.5 4180965 309.11
577600.7 4180966 309.1
577603.5 4180964 309.12
577603.2 4180966 309.13
577603.7 4180966 309.17
577604.1 4180964 309.18
577604.6 4180967 309.19
577603.5 4180966 309.21
577599.9 4180966 309.21
577600.1 4180966 309.29
577604.6 4180966 309.3
577600.7 4180964 309.33
577602.1 4180966 309.33
577600.3 4180966 309.33
577600.5 4180966 309.34
577604.1 4180965 309.35
577600.7 4180966 309.35
577600.9 4180966 309.36
577600.5 4180964 309.37
577604.6 4180966 309.39
577600.5 4180964 309.4
577600.9 4180964 309.41
577604.1 4180967 309.42
577601.3 4180964 309.46
577600.9 4180964 309.48
577600.7 4180965 309.48
577600.5 4180964 309.49
577600.7 4180964 309.51
577604.4 4180967 309.59
577604.4 4180966 309.61
577602.1 4180966 309.62
577604.2 4180967 309.65
577603.9 4180967 309.66
577601.7 4180966 309.76
577600.3 4180967 309.83
577599.8 4180967 309.85
577603.9 4180967 309.89
577601.1 4180966 309.93
577600.5 4180967 309.94
577601.9 4180966 309.96
577600.7 4180967 309.98
577599.9 4180967 310.03
577604.2 4180967 310.03
577601.1 4180967 310.05
577600.9 4180967 310.06
577599.9 4180967 310.1
577603.9 4180966 310.12
577599.9 4180966 310.16
577600.1 4180967 310.16
577601.1 4180967 310.17
577601.1 4180968 310.17
577601.3 4180966 310.19
577601.5 4180966 310.24
577600.3 4180967 310.25
577600.1 4180966 310.26
577603.1 4180966 310.3
577601.3 4180967 310.32
577604.1 4180966 310.34
577601.1 4180966 310.38
577601.7 4180966 310.47
577601.5 4180967 310.52
577603.9 4180966 310.54
577604.1 4180966 310.57
577603.5 4180967 310.64
577602.5 4180966 310.69
577602.7 4180966 310.76
577601.7 4180967 310.77
577603.5 4180967 310.77
577602.5 4180967 310.8
577603.9 4180968 310.85
577602.7 4180966 310.88
577603.2 4180967 310.89
577602.7 4180967 310.97
577602.9 4180966 311
577602.7 4180967 311.03
577603.1 4180967 311.03
577601.9 4180967 311.04
577602.9 4180967 311.05
577602.7 4180966 311.2
577601.7 4180967 311.26
577601.7 4180966 311.33
577602.1 4180967 311.33
577602.1 4180967 311.35
577602.5 4180966 311.5
577601.9 4180967 311.56
577603.5 4180968 311.59
577602.3 4180967 311.6
577602.5 4180968 311.63
577601.9 4180966 311.64
577602.1 4180968 311.92
577605.2 4180967 307.51
577605.4 4180967 307.58
577605.2 4180968 307.61
577603.2 4180966 307.88
577605.4 4180966 308.06
577601.3 4180966 308.16
577598.9 4180967 308.22
577604.6 4180967 308.26
577604.9 4180967 308.31
