# .PCD v.7 - Point Cloud Data file format
VERSION .7
FIELDS x y z
SIZE 4 4 4
TYPE F F F
COUNT 1 1 1
WIDTH 58
HEIGHT 1
VIEWPOINT 0 0 0 1 0 0 0
POINTS 58
DATA ascii
577599.9375 4180966.5 310.160003662
577599.9375 4180966.75 310.029998779
577599.9375 4180967 310.100006104
577600.125 4180966.5 310.260009766
577600.125 4180966.75 310.160003662
577600.3125 4180966.75 310.25
577600.6875 4180967 309.980010986
577600.875 4180967 310.059997559
577601.125 4180966.25 309.929992676
577601.125 4180966.5 310.380004883
577601.125 4180966.75 310.049987793
577601.125 4180967 310.170013428
577601.125 4180967.5 310.170013428
577601.3125 4180966.25 310.190002441
577601.3125 4180967 310.320007324
577601.5 4180966.25 310.239990234
577601.5 4180967 310.519989014
577601.6875 4180966.25 310.470001221
577601.6875 4180966.5 311.329986572
577601.6875 4180966.75 311.260009766
577601.6875 4180967 310.769989014
577601.875 4180966 309.959991455
577601.875 4180966.5 311.640014648
577601.875 4180966.75 311.559997559
577601.875 4180967 311.040008545
577602.0625 4180966.75 311.350006104
577602.0625 4180967 311.329986572
577602.0625 4180967.5 311.920013428
577602.3125 4180967 311.600006104
577602.5 4180966 310.690002441
577602.5 4180966.25 311.5
577602.5 4180967.25 310.799987793
577602.5 4180967.5 311.630004883
577602.6875 4180965.75 310.760009766
577602.6875 4180966 310.880004883
577602.6875 4180966.5 311.200012207
577602.6875 4180967 311.029998779
577602.6875 4180967.25 310.970001221
577602.875 4180966 311
577602.875 4180967.25 311.049987793
577603.0625 4180965.75 310.299987793
577603.0625 4180967.25 311.029998779
577603.25 4180967.25 310.890014648
577603.5 4180967 310.769989014
577603.5 4180967.25 310.640014648
577603.5 4180967.5 311.589996338
577603.875 4180966 310.119995117
577603.875 4180966.25 310.540008545
577603.875 4180967 309.660003662
577603.875 4180967.25 309.890014648
577603.875 4180967.5 310.850006104
577604.0625 4180965.75 310.339996338
577604.0625 4180966.5 310.570007324
577604.0625 4180966.5 310.570007324
577604.25 4180966.75 310.029998779
577604.25 4180967 309.649993896
577604.4375 4180966.5 309.609985352
577604.4375 4180966.75 309.589996338
