# .PCD v.7 - Point Cloud Data file format
VERSION .7
FIELDS x y z
SIZE 4 4 4
TYPE F F F
COUNT 1 1 1
WIDTH 907
HEIGHT 1
VIEWPOINT 0 0 0 1 0 0 0
POINTS 907
DATA ascii
577593.625 4180966.75 306.850006104
577593.625 4180967 306.790008545
577593.625 4180967.75 306.510009766
577593.8125 4180966.25 307.799987793
577593.8125 4180966.5 307.070007324
577593.8125 4180967.5 307.75
577594 4180965.5 308.799987793
577594 4180966 307.570007324
577594 4180966.25 308.029998779
577594.1875 4180967.25 307.429992676
577594.1875 4180967.75 307.769989014
577594.375 4180964.75 306.600006104
577594.375 4180965.5 307.420013428
577594.375 4180965.5 307.709991455
577594.375 4180966 307.630004883
577594.375 4180966.5 308.179992676
577594.5625 4180964.75 306.420013428
577594.5625 4180965 306.790008545
577594.5625 4180965.25 307.170013428
577594.5625 4180965.5 307.559997559
577594.5625 4180967.25 307.630004883
577594.5625 4180967.5 306.549987793
577594.8125 4180964.5 306.519989014
577594.8125 4180965 307.049987793
577594.8125 4180965.5 307.660003662
577594.8125 4180965.5 308.010009766
577595 4180964.5 306.739990234
577595 4180964.75 306.899993896
577595 4180967 307.440002441
577595 4180967.5 306.649993896
577595.1875 4180965.25 306.529998779
577595.1875 4180965.75 307.209991455
577595.1875 4180966.5 307.980010986
577595.1875 4180967 307.709991455
577595.1875 4180967.25 306.799987793
577595.375 4180964.5 307.230010986
577595.375 4180965 306.600006104
577595.375 4180965.25 306.709991455
577595.375 4180965.5 306.920013428
577595.375 4180966.25 308.269989014
577595.375 4180967 307.589996338
577595.5625 4180965.25 306.309997559
577595.5625 4180965.5 306.510009766
577595.5625 4180965.5 306.630004883
577595.5625 4180966.5 306.549987793
577595.5625 4180967.5 308.279998779
577595.75 4180964.25 306.230010986
577595.75 4180964.5 305.929992676
577595.75 4180964.5 306
577595.75 4180964.75 305.880004883
577595.75 4180965 305.890014648
577595.75 4180965.25 305.890014648
577595.75 4180965.5 306.420013428
577595.75 4180965.75 306.850006104
577595.75 4180966.25 308.660003662
577596 4180964 306.059997559
577596 4180964.25 306.029998779
577596 4180964.5 305.899993896
577596 4180964.5 305.709991455
577596 4180964.75 305.549987793
577596 4180965.5 305.709991455
577596 4180965.5 306.059997559
577596 4180967 307.890014648
577596.1875 4180964.5 305.690002441
577596.1875 4180966 306.809997559
577596.1875 4180966.5 308.25
577596.1875 4180966.75 308.339996338
577596.1875 4180967 308.130004883
577596.375 4180966.25 307.239990234
577596.375 4180966.5 308.350006104
577596.375 4180966.75 308.459991455
577596.375 4180967 308.359985352
577596.375 4180967.25 308.339996338
577596.375 4180967.75 308.040008545
577596.5625 4180966 307.220001221
577596.5625 4180966.25 307.079986572
577596.5625 4180966.5 308.25
577596.5625 4180966.75 308.549987793
577596.5625 4180967 308.549987793
577596.75 4180967.25 308.390014648
577596.9375 4180964.75 305.670013428
577596.9375 4180965.75 305.5
577596.9375 4180966 305.5
577596.9375 4180966.75 307.25
577596.9375 4180967.5 308.100006104
577597.1875 4180964.25 305.660003662
577597.1875 4180966.5 307.380004883
577597.1875 4180967.25 308.399993896
577597.1875 4180967.5 307.880004883
577597.375 4180966 305.980010986
577597.375 4180966.5 307.850006104
577597.375 4180967.25 308.25
577597.375 4180967.5 307.730010986
577597.5625 4180965.75 305.489990234
577597.5625 4180966.5 307.209991455
577597.5625 4180966.5 307.739990234
577597.5625 4180967.25 308.019989014
577597.5625 4180967.5 307.489990234
577597.5625 4180967.5 306.619995117
577597.5625 4180967.75 306.410003662
577597.75 4180965.75 305.619995117
577597.75 4180966 305.579986572
577597.75 4180966.5 307.670013428
577597.75 4180966.75 307.769989014
577597.75 4180967 308.010009766
577597.75 4180967.25 307.760009766
577597.75 4180967.5 307.649993896
577597.9375 4180965.5 305.440002441
577597.9375 4180966.5 307.670013428
577597.9375 4180966.75 307.880004883
577597.9375 4180967 307.839996338
577597.9375 4180967.25 307.510009766
577598.125 4180965.5 305.339996338
577598.3125 4180966.25 307.989990234
577598.3125 4180966.5 307.700012207
577598.3125 4180966.75 306.950012207
577598.3125 4180967.5 307.980010986
577598.5625 4180966.5 308
577598.75 4180966 307.600006104
577598.75 4180966.25 308.040008545
577598.75 4180966.5 308.359985352
577598.9375 4180965.75 307.459991455
577598.9375 4180966 307.970001221
577598.9375 4180966.25 308.410003662
577598.9375 4180966.5 308.730010986
577598.9375 4180967 308.220001221
577599.125 4180965.75 307.799987793
577599.125 4180966 308.320007324
577599.125 4180966.75 308.359985352
577599.125 4180967 308.5
577599.125 4180967.5 308.820007324
577599.3125 4180965 307.119995117
577599.3125 4180965.5 307.739990234
577599.3125 4180966 308.630004883
577599.3125 4180966.25 308.380004883
577599.5 4180965.25 307.070007324
577599.5 4180965.5 307.450012207
577599.75 4180964.75 307.089996338
577599.75 4180965 307.290008545
577599.75 4180965.25 307.5
577599.75 4180965.5 306.670013428
577599.75 4180966.25 309.029998779
577599.75 4180966.75 309.850006104
577599.75 4180967.5 309.059997559
577599.9375 4180964.5 307.600006104
577599.9375 4180964.5 307.660003662
577599.9375 4180964.75 307.760009766
577599.9375 4180965 307.480010986
577599.9375 4180966 309.209991455
577600.125 4180966 309.290008545
577600.3125 4180964 308.420013428
577600.3125 4180965.25 308.510009766
577600.3125 4180965.5 308.489990234
577600.3125 4180965.5 308.630004883
577600.3125 4180965.75 308.929992676
577600.3125 4180966 309.329986572
577600.3125 4180967 309.829986572
577600.5 4180964 309.029998779
577600.5 4180964.25 309.399993896
577600.5 4180964.5 309.489990234
577600.5 4180964.5 309.369995117
577600.5 4180965.25 308.649993896
577600.5 4180965.5 308.579986572
577600.5 4180965.75 308.950012207
577600.5 4180966 309.339996338
577600.5 4180967 309.940002441
577600.5 4180967.5 309.059997559
577600.6875 4180964 309.329986572
577600.6875 4180964.5 309.510009766
577600.6875 4180964.75 309.480010986
577600.6875 4180965.25 308.480010986
577600.6875 4180965.5 308.579986572
577600.6875 4180965.75 309.100006104
577600.6875 4180966 309.350006104
577600.6875 4180966.5 308.899993896
577600.875 4180963.75 309.480010986
577600.875 4180964.25 308.940002441
577600.875 4180964.5 309.410003662
577600.875 4180965.25 308.559997559
577600.875 4180965.5 308.489990234
577600.875 4180965.5 308.619995117
577600.875 4180965.75 308.920013428
577600.875 4180966 309.359985352
577601.125 4180964.5 309.070007324
577601.125 4180964.75 308.790008545
577601.125 4180965.5 308.339996338
577601.125 4180965.5 308.410003662
577601.3125 4180964 309.459991455
577601.3125 4180964.5 308.959991455
577601.3125 4180965 309.100006104
577601.3125 4180965.5 308.160003662
577601.3125 4180965.5 308.450012207
577601.5 4180965.5 308.380004883
577601.5 4180965.75 308.940002441
577601.5 4180967.5 306.630004883
577601.6875 4180966 309.760009766
577601.6875 4180967.5 306.790008545
577601.875 4180964 305.929992676
577601.875 4180964.25 306.350006104
577601.875 4180964.75 305.839996338
577601.875 4180965.5 306.690002441
577601.875 4180967.5 306.869995117
577602.0625 4180963.75 306.339996338
577602.0625 4180964.25 306.079986572
577602.0625 4180964.5 306.029998779
577602.0625 4180965.75 309.329986572
577602.0625 4180966.25 309.619995117
577602.3125 4180964.5 305.670013428
577603.0625 4180964.25 305.489990234
577603.0625 4180965.5 308.940002441
577603.25 4180965.5 309.130004883
577603.25 4180966.25 307.880004883
577603.5 4180964.5 309.119995117
577603.5 4180965.25 309.109985352
577603.5 4180965.5 309.209991455
577603.5 4180965.75 308.559997559
577603.6875 4180965.25 308.839996338
577603.6875 4180965.5 309.170013428
577603.875 4180965.5 309.010009766
577604.0625 4180964.5 309.179992676
577604.0625 4180965.25 309.350006104
577604.0625 4180967.25 309.420013428
577604.4375 4180966 309.010009766
577604.4375 4180967.25 308.450012207
577604.625 4180965.75 308.350006104
577604.625 4180966 308.720001221
577604.625 4180966.5 309.299987793
577604.625 4180966.5 309.390014648
577604.625 4180966.75 309.190002441
577604.625 4180967.25 308.260009766
577604.875 4180966 308.630004883
577604.875 4180966.25 308.829986572
577604.875 4180966.5 309.040008545
577604.875 4180967 308.309997559
577605.0625 4180965.25 306.489990234
577605.0625 4180966 308.329986572
577608.375 4180960.25 305.140014648
577608.375 4180960.75 304.779998779
577608.375 4180961.5 305.790008545
577608.625 4180960.75 304.920013428
577608.625 4180961 305.109985352
577608.8125 4180960.25 304.589996338
577608.8125 4180960.5 305.109985352
577608.8125 4180961.25 305.640014648
577608.8125 4180961.5 305.359985352
577609 4180960.5 305.519989014
577609 4180960.75 305.940002441
577609 4180960.75 306.200012207
577609 4180961 306.269989014
577609 4180961.25 306.149993896
577609 4180961.5 305.869995117
577609 4180962 304.369995117
577609 4180962.75 305.040008545
577609 4180963.25 304.609985352
577609.1875 4180960.5 305.790008545
577609.1875 4180960.75 306.230010986
577609.1875 4180961.75 305.839996338
577609.1875 4180962 304.480010986
577609.375 4180960 305.480010986
577609.375 4180960.5 305.989990234
577609.375 4180961 305.769989014
577609.375 4180961.75 306.029998779
577609.5625 4180960.25 305.480010986
577609.5625 4180960.75 306.329986572
577609.5625 4180961.5 306.390014648
577609.5625 4180961.75 306.100006104
577609.5625 4180962.25 304.850006104
577609.5625 4180962.5 305.029998779
577609.8125 4180960 305.230010986
577609.8125 4180960.25 305.510009766
577609.8125 4180960.5 305.910003662
577609.8125 4180960.75 305.820007324
577609.8125 4180961.25 306.380004883
577609.8125 4180961.5 306.369995117
577609.8125 4180962 306.380004883
577609.8125 4180962.5 304.799987793
577610 4180960 305.089996338
577610 4180960.25 305.489990234
577610 4180960.5 305.779998779
577610 4180960.75 305.980010986
577610 4180960.75 306.079986572
577610 4180961 306.119995117
577610 4180961.25 306.089996338
577610 4180962.5 305.239990234
577610 4180962.75 304.950012207
577610 4180962.75 304.570007324
577610.1875 4180960 304.760009766
577610.1875 4180960 305.149993896
577610.1875 4180960.25 305.440002441
577610.1875 4180960.5 305.630004883
577610.1875 4180960.75 305.730010986
577610.1875 4180960.75 305.779998779
577610.1875 4180961 305.790008545
577610.1875 4180961.75 305.820007324
577610.1875 4180962 305.829986572
577610.1875 4180962.25 305.799987793
577610.1875 4180962.5 305.700012207
577610.375 4180960 305.200012207
577610.375 4180960.25 305.390014648
577610.375 4180960.5 305.480010986
577610.375 4180960.75 305.510009766
577610.375 4180960.75 305.5
577610.375 4180961 305.489990234
577610.375 4180961.25 305.519989014
577610.375 4180961.75 305.850006104
577610.375 4180962 306.010009766
577610.375 4180962.25 306.130004883
577610.375 4180962.5 306.160003662
577610.375 4180963.75 307.089996338
577610.375 4180964.5 306.700012207
577610.5625 4180960 305.220001221
577610.5625 4180960.25 305.339996338
577610.5625 4180960.5 305.380004883
577610.5625 4180960.75 305.350006104
577610.5625 4180961 305.75
577610.5625 4180961.5 304.839996338
577610.5625 4180961.75 305.950012207
577610.5625 4180962 305.980010986
577610.5625 4180962.75 306.989990234
577610.5625 4180963.5 307.049987793
577610.75 4180960 305.480010986
577610.75 4180960 305.230010986
577610.75 4180960.25 305.220001221
577610.75 4180960.5 305.320007324
577610.75 4180960.75 305.290008545
577610.75 4180961.75 306.140014648
577610.75 4180962.75 307.079986572
577610.75 4180962.75 306.869995117
577610.9375 4180959.5 304.350006104
577610.9375 4180960.5 305.339996338
577610.9375 4180960.75 305.320007324
577610.9375 4180961.5 305.709991455
577610.9375 4180961.75 306.040008545
577610.9375 4180962.25 307.209991455
577610.9375 4180962.75 307.309997559
577610.9375 4180963.5 305.559997559
577611.1875 4180959.25 304.339996338
577611.1875 4180959.5 304.320007324
577611.1875 4180960 305.070007324
577611.1875 4180960.25 305.329986572
577611.1875 4180960.75 305.730010986
577611.1875 4180960.75 305.549987793
577611.1875 4180961.25 305.989990234
577611.1875 4180961.5 306.079986572
577611.1875 4180961.75 305.940002441
577611.1875 4180962.5 306.950012207
577611.1875 4180962.75 307.679992676
577611.1875 4180963 307.600006104
577611.1875 4180963.5 305.309997559
577611.375 4180959.5 304.25
577611.375 4180960 304.899993896
577611.375 4180960 305.170013428
577611.375 4180960.25 305.390014648
577611.375 4180960.5 305.570007324
577611.375 4180960.75 305.739990234
577611.375 4180960.75 305.899993896
577611.375 4180961 306.079986572
577611.375 4180962.75 307.959991455
577611.375 4180963 307.489990234
577611.375 4180963.5 305.739990234
577611.5625 4180959.5 304.160003662
577611.5625 4180959.75 304.489990234
577611.5625 4180960 304.829986572
577611.5625 4180960 305.170013428
577611.5625 4180960.25 305.489990234
577611.5625 4180960.5 305.790008545
577611.5625 4180960.75 306.079986572
577611.5625 4180960.75 306.350006104
577611.5625 4180961 306.619995117
577611.5625 4180962.75 308.179992676
577611.5625 4180963 307.75
577611.5625 4180963.25 307.079986572
577611.75 4180960 304.809997559
577611.75 4180960.5 306.070007324
577611.75 4180960.75 306.480010986
577611.75 4180962.75 308.540008545
577611.75 4180962.75 308.329986572
577611.75 4180963 307.959991455
577611.9375 4180960 305.339996338
577611.9375 4180960.5 306.390014648
577611.9375 4180960.75 306.910003662
577611.9375 4180962.25 306.869995117
577611.9375 4180962.75 308.649993896
577611.9375 4180962.75 308.369995117
577611.9375 4180963 308.149993896
577611.9375 4180963.5 308.540008545
577612.125 4180958.75 304.809997559
577612.125 4180960 305.359985352
577612.125 4180960.5 306.630004883
577612.125 4180962.75 308.730010986
577612.125 4180962.75 308.540008545
577612.125 4180963 308.329986572
577612.375 4180958 304.850006104
577612.375 4180959.25 304.209991455
577612.375 4180963.5 307.420013428
577612.5625 4180959 304.290008545
577612.5625 4180959.25 304.589996338
577612.5625 4180959.5 304.929992676
577612.5625 4180962.75 307.559997559
577612.75 4180958.75 304.959991455
577612.75 4180959 304.700012207
577612.75 4180959.25 304.690002441
577612.75 4180959.75 305.880004883
577612.75 4180960 306.059997559
577612.75 4180960.5 306.660003662
577612.9375 4180959 304.640014648
577613.3125 4180960 308.480010986
577613.3125 4180962.75 307.929992676
577613.5625 4180959.75 308.220001221
577613.5625 4180960.75 308.109985352
577613.75 4180959.5 308.459991455
577613.75 4180959.75 308.480010986
577613.9375 4180959.75 308.510009766
577613.9375 4180961 307.540008545
577613.9375 4180961.75 308.519989014
577614.125 4180961.5 308.440002441
577614.125 4180961.75 308.489990234
577614.3125 4180960.75 308.320007324
577614.3125 4180961.25 308.149993896
577614.3125 4180961.5 308.179992676
577614.3125 4180961.75 308.269989014
577614.3125 4180961.75 308.410003662
577614.5 4180960.75 307.839996338
577614.5 4180961.5 307.920013428
577614.5 4180962 308.459991455
577614.5 4180964.5 308.470001221
577614.6875 4180962.5 308.170013428
577614.9375 4180960 304.700012207
577615.125 4180962 307.970001221
577615.3125 4180960 305.220001221
577615.3125 4180961.25 304.600006104
577615.3125 4180962 307.910003662
577615.3125 4180962.25 308.160003662
577615.5 4180960 305.140014648
577615.5 4180962.25 307.920013428
577615.6875 4180960 304.809997559
577615.6875 4180960 304.989990234
577615.6875 4180960.25 305.149993896
577615.6875 4180961 305.649993896
577615.6875 4180961.75 306.279998779
577615.6875 4180961.75 306.640014648
577615.6875 4180962.25 307.640014648
577615.6875 4180962.5 308.25
577615.6875 4180964.5 306.859985352
577615.6875 4180965.75 307.239990234
577615.875 4180959.75 304.75
577615.875 4180960 304.880004883
577615.875 4180960 305
577615.875 4180960.25 305.100006104
577615.875 4180960.75 305.290008545
577615.875 4180961 305.359985352
577615.875 4180961.25 305.470001221
577615.875 4180961.5 305.649993896
577615.875 4180961.75 306.290008545
577615.875 4180962 306.769989014
577615.875 4180964 307.200012207
577615.875 4180964.25 306.980010986
577615.875 4180964.5 306.950012207
577616.125 4180960 305.100006104
577616.125 4180960 305.290008545
577616.125 4180960.25 305.160003662
577616.125 4180960.75 305.970001221
577616.125 4180961 305.519989014
577616.125 4180961.75 306.420013428
577616.125 4180962 306.459991455
577616.125 4180964 307.130004883
577616.3125 4180957.75 304.609985352
577616.3125 4180959 305.760009766
577616.3125 4180959.25 305.269989014
577616.3125 4180959.5 305.529998779
577616.3125 4180959.75 305.399993896
577616.3125 4180960 305.410003662
577616.3125 4180960 305.380004883
577616.3125 4180960.25 305.309997559
577616.3125 4180962 306.190002441
577616.3125 4180964.5 306.329986572
577616.5 4180957.5 304.839996338
577616.5 4180957.75 304.880004883
577616.5 4180958 304.940002441
577616.5 4180958.25 305.489990234
577616.5 4180958.5 305.25
577616.5 4180958.75 305.380004883
577616.5 4180959 305.519989014
577616.5 4180959 305.640014648
577616.5 4180959.25 305.739990234
577616.5 4180959.5 305.799987793
577616.5 4180959.75 305.799987793
577616.5 4180960 305.760009766
577616.5 4180960 305.649993896
577616.5 4180960.25 305.5
577616.5 4180962.5 306.059997559
577616.6875 4180957.75 305.190002441
577616.6875 4180958 305.269989014
577616.6875 4180958.25 305.489990234
577616.6875 4180958.75 305.790008545
577616.6875 4180959 305.950012207
577616.6875 4180959 306.079986572
577616.6875 4180959.25 306.179992676
577616.6875 4180959.5 306.220001221
577616.6875 4180959.75 306.190002441
577616.6875 4180960 305.589996338
577616.6875 4180960.25 305.700012207
577616.6875 4180960.75 305.820007324
577616.6875 4180961.25 305.670013428
577616.6875 4180962.25 306.429992676
577616.875 4180957.5 305.339996338
577616.875 4180957.75 305.329986572
577616.875 4180958 305.519989014
577616.875 4180958 305.630004883
577616.875 4180958.5 306.209991455
577616.875 4180958.75 306.119995117
577616.875 4180959 306.290008545
577616.875 4180959 306.299987793
577616.875 4180959.25 306.529998779
577616.875 4180959.5 306.279998779
577616.875 4180959.75 306.510009766
577616.875 4180960.25 305.859985352
577616.875 4180960.5 305.529998779
577616.875 4180962 305.779998779
577617.0625 4180957.5 305.489990234
577617.0625 4180957.75 305.600006104
577617.0625 4180958 305.700012207
577617.0625 4180958 305.829986572
577617.0625 4180958.25 305.980010986
577617.0625 4180958.5 306.149993896
577617.0625 4180958.75 306.339996338
577617.0625 4180959 306.529998779
577617.0625 4180960.25 305.980010986
577617.0625 4180960.5 305.609985352
577617.0625 4180960.75 305.239990234
577617.0625 4180962 305.790008545
577617.0625 4180964 304.630004883
577617.25 4180957 304.829986572
577617.25 4180957.5 305.579986572
577617.25 4180957.75 305.709991455
577617.25 4180958 305.820007324
577617.25 4180958 305.950012207
577617.25 4180958.25 306.109985352
577617.25 4180958.5 306.279998779
577617.25 4180958.75 306.480010986
577617.25 4180959 306.670013428
577617.25 4180959 306.829986572
577617.25 4180959.25 306.929992676
577617.25 4180959.75 306.869995117
577617.25 4180960 306.690002441
577617.25 4180960 306.410003662
577617.25 4180962 305.850006104
577617.25 4180962.5 305.290008545
577617.25 4180963.5 304.730010986
577617.25 4180963.75 304.75
577617.5 4180957.25 305.140014648
577617.5 4180957.75 305.779998779
577617.5 4180958 305.899993896
577617.5 4180958 306.029998779
577617.5 4180958.25 306.179992676
577617.5 4180958.5 306.350006104
577617.5 4180958.75 306.529998779
577617.5 4180959 306.720001221
577617.5 4180959 306.869995117
577617.5 4180959.25 306.970001221
577617.5 4180959.5 306.989990234
577617.5 4180959.75 306.910003662
577617.5 4180960 306.450012207
577617.5 4180961.25 305.399993896
577617.5 4180961.75 306.100006104
577617.5 4180962 305.940002441
577617.5 4180963 306.290008545
577617.6875 4180957.25 305.079986572
577617.6875 4180957.75 305.809997559
577617.6875 4180958 305.940002441
577617.6875 4180958 306.070007324
577617.6875 4180958.75 306.529998779
577617.6875 4180959 306.700012207
577617.6875 4180959 306.649993896
577617.6875 4180959.25 306.940002441
577617.6875 4180959.5 306.959991455
577617.6875 4180959.75 307.200012207
577617.6875 4180960 306.450012207
577617.6875 4180960.25 306.739990234
577617.6875 4180962 306.049987793
577617.6875 4180962.25 306.450012207
577617.6875 4180963 306.190002441
577617.6875 4180964 304.450012207
577617.6875 4180965.75 305.220001221
577617.875 4180956.75 305.040008545
577617.875 4180957.25 305.010009766
577617.875 4180957.25 304.809997559
577617.875 4180957.75 305.829986572
577617.875 4180958 305.859985352
577617.875 4180958 306.089996338
577617.875 4180958.5 306.700012207
577617.875 4180958.75 306.510009766
577617.875 4180959 306.649993896
577617.875 4180959 306.779998779
577617.875 4180959.25 306.859985352
577617.875 4180962 306.149993896
577617.875 4180962.5 306.149993896
577617.875 4180963 306.130004883
577617.875 4180963.75 306.119995117
577618.0625 4180957.25 304.940002441
577618.0625 4180957.75 305.839996338
577618.0625 4180958 305.989990234
577618.0625 4180958 306.109985352
577618.0625 4180958.75 306.470001221
577618.0625 4180959 306.600006104
577618.0625 4180960 305.739990234
577618.0625 4180960.5 305.910003662
577618.0625 4180960.75 306.320007324
577618.0625 4180961.75 306.230010986
577618.0625 4180962 306.230010986
577618.0625 4180962.25 306.570007324
577618.0625 4180963 306.410003662
577618.25 4180957.25 304.880004883
577618.25 4180957.25 304.890014648
577618.25 4180958 306.260009766
577618.25 4180958 306.130004883
577618.25 4180958.5 305.890014648
577618.25 4180959 306.549987793
577618.25 4180959 306.350006104
577618.25 4180961.75 305.950012207
577618.25 4180962 306.269989014
577618.25 4180962.25 306.589996338
577618.25 4180963 306.649993896
577618.25 4180963.25 306.059997559
577618.4375 4180957.25 304.839996338
577618.4375 4180958 306.010009766
577618.4375 4180958 306.140014648
577618.4375 4180958.25 306.25
577618.4375 4180959 306.589996338
577618.4375 4180959.25 306.649993896
577618.4375 4180961.25 305.640014648
577618.4375 4180961.5 305.670013428
577618.4375 4180961.75 305.790008545
577618.4375 4180961.75 306
577618.4375 4180962 306.279998779
577618.4375 4180962.25 306.579986572
577618.4375 4180963.25 306.480010986
577618.6875 4180957.25 305.220001221
577618.6875 4180957.5 305.549987793
577618.6875 4180957.75 305.799987793
577618.6875 4180958 305.989990234
577618.6875 4180958 306.140014648
577618.6875 4180958.25 306.25
577618.6875 4180958.5 306.350006104
577618.6875 4180959.25 306.630004883
577618.6875 4180959.5 306.670013428
577618.6875 4180959.75 306.670013428
577618.6875 4180960 306.649993896
577618.6875 4180961.25 305.809997559
577618.6875 4180961.5 305.799987793
577618.6875 4180961.75 305.859985352
577618.6875 4180962.25 306.540008545
577618.6875 4180962.75 306.209991455
577618.6875 4180963.25 306.309997559
577618.6875 4180963.5 306.309997559
577618.6875 4180963.75 306.600006104
577618.6875 4180964.25 306.529998779
577618.875 4180957.5 305.480010986
577618.875 4180957.75 305.730010986
577618.875 4180958.5 306.339996338
577618.875 4180958.75 306.429992676
577618.875 4180959 306.510009766
577618.875 4180959 306.579986572
577618.875 4180959.25 306.640014648
577618.875 4180959.5 306.690002441
577618.875 4180959.75 306.720001221
577618.875 4180960 306.720001221
577618.875 4180960.75 304.75
577618.875 4180961.5 305.890014648
577618.875 4180961.75 305.899993896
577618.875 4180961.75 305.619995117
577619.0625 4180957.5 305.390014648
577619.0625 4180957.75 305.619995117
577619.0625 4180958 305.380004883
577619.0625 4180958.25 306.170013428
577619.0625 4180958.5 306.299987793
577619.0625 4180958.75 306.380004883
577619.0625 4180959 306.510009766
577619.0625 4180959 306.600006104
577619.0625 4180959.25 306.679992676
577619.0625 4180959.5 306.730010986
577619.0625 4180959.75 306.779998779
577619.0625 4180960 306.799987793
577619.0625 4180960.5 307.529998779
577619.0625 4180961.5 305.970001221
577619.0625 4180962.5 306.660003662
577619.0625 4180962.75 306.989990234
577619.0625 4180963.5 307.170013428
577619.25 4180957.25 305.779998779
577619.25 4180958 305.670013428
577619.25 4180958.5 306.220001221
577619.25 4180958.75 306.369995117
577619.25 4180959 306.5
577619.25 4180959 306.609985352
577619.25 4180959.25 306.700012207
577619.25 4180959.5 306.779998779
577619.25 4180960 306.880004883
577619.25 4180960 306.890014648
577619.25 4180961 306.350006104
577619.25 4180962.5 306.779998779
577619.25 4180962.75 306.880004883
577619.25 4180963 306.690002441
577619.25 4180963.5 307.380004883
577619.25 4180963.75 307.410003662
577619.25 4180964.25 306.839996338
577619.25 4180964.5 307.010009766
577619.4375 4180958.75 306.290008545
577619.4375 4180959.5 306.839996338
577619.4375 4180960 306.950012207
577619.4375 4180960.25 306.940002441
577619.4375 4180961.25 306.730010986
577619.4375 4180961.75 306.920013428
577619.4375 4180962.75 306.730010986
577619.4375 4180962.75 307.079986572
577619.4375 4180963.5 307.440002441
577619.625 4180958.5 306.429992676
577619.625 4180958.75 306.190002441
577619.625 4180959 307.420013428
577619.625 4180959.5 306.739990234
577619.625 4180959.75 306.959991455
577619.625 4180960 306.600006104
577619.625 4180960.75 307.720001221
577619.625 4180962.5 306.269989014
577619.625 4180962.75 306.910003662
577619.625 4180963 307.209991455
577619.625 4180963.75 307.149993896
577619.875 4180958 305.119995117
577619.875 4180958.75 306.079986572
577619.875 4180959.5 306.920013428
577619.875 4180959.75 307.010009766
577619.875 4180960.5 306.980010986
577619.875 4180961.25 306.390014648
577619.875 4180962.25 306
577619.875 4180963 307.040008545
577620.0625 4180959 306.339996338
577620.0625 4180959.25 306.829986572
577620.0625 4180959.5 306.970001221
577620.0625 4180959.75 307.059997559
577620.0625 4180960 307.100006104
577620.0625 4180960 307.100006104
577620.0625 4180960.25 307.070007324
577620.0625 4180960.5 307.010009766
577620.0625 4180960.75 306.929992676
577620.0625 4180960.75 306.809997559
577620.0625 4180962.75 305.450012207
577620.0625 4180963 306.899993896
577620.0625 4180963.5 306.480010986
577620.0625 4180964 307.579986572
577620.0625 4180964.5 307.970001221
577620.25 4180956 305.079986572
577620.25 4180959 306.670013428
577620.25 4180959.25 306.890014648
577620.25 4180959.5 307.040008545
577620.25 4180959.75 307.119995117
577620.25 4180960 307.149993896
577620.25 4180960 307.140014648
577620.25 4180960.25 307.109985352
577620.25 4180960.5 307.059997559
577620.25 4180960.75 307
577620.25 4180960.75 306.910003662
577620.25 4180961 307.119995117
577620.25 4180961.5 305.100006104
577620.25 4180962.25 306.5
577620.25 4180962.5 306.190002441
577620.4375 4180958.25 305.970001221
577620.4375 4180959 306.660003662
577620.4375 4180959 306.769989014
577620.4375 4180959.25 307
577620.4375 4180959.5 307.290008545
577620.4375 4180959.75 307.200012207
577620.4375 4180960 307.209991455
577620.4375 4180960 307.109985352
577620.4375 4180960.25 307.170013428
577620.4375 4180960.5 307.160003662
577620.4375 4180960.75 307.089996338
577620.4375 4180960.75 307.029998779
577620.4375 4180961 306.950012207
577620.4375 4180962 306.329986572
577620.4375 4180962.25 306.279998779
577620.625 4180958.5 305.679992676
577620.625 4180959 306.619995117
577620.625 4180959 306.940002441
577620.625 4180959.25 307.140014648
577620.625 4180959.5 307.260009766
577620.625 4180959.75 307.290008545
577620.625 4180960 307.260009766
577620.625 4180960.25 307.239990234
577620.625 4180960.5 307.220001221
577620.625 4180961 307.140014648
577620.625 4180961.75 306.709991455
577620.625 4180962 306.589996338
577620.625 4180962.25 306.510009766
577620.625 4180963 307
577620.625 4180963.75 306.559997559
577620.625 4180964 307.239990234
577620.625 4180964.25 307.339996338
577620.625 4180964.75 307.829986572
577620.8125 4180959 306.869995117
577620.8125 4180959 307.160003662
577620.8125 4180959.25 307.329986572
577620.8125 4180959.5 307.399993896
577620.8125 4180959.75 307.399993896
577620.8125 4180960 305.779998779
577620.8125 4180960.75 306.779998779
577620.8125 4180961 307.329986572
577620.8125 4180961.25 307.299987793
577620.8125 4180961.5 307.510009766
577620.8125 4180961.75 306.670013428
577620.8125 4180962 306.880004883
577620.8125 4180962.25 306.790008545
577620.8125 4180962.5 306.769989014
577620.8125 4180962.75 306.829986572
577620.8125 4180962.75 306.989990234
577620.8125 4180963 307.230010986
577620.8125 4180964 307.720001221
577620.8125 4180964.25 307.200012207
577621 4180958.5 306.880004883
577621 4180958.75 306.809997559
577621 4180959 307.170013428
577621 4180959 306.940002441
577621 4180959.5 307.529998779
577621 4180959.75 307.369995117
577621 4180960 307.420013428
577621 4180961.25 307.489990234
577621 4180961.5 307.450012207
577621 4180961.75 307.369995117
577621 4180962.25 307.059997559
577621 4180962.75 307.100006104
577621 4180962.75 307.260009766
577621 4180964.25 307.709991455
577621 4180964.5 306.899993896
577621.25 4180958.5 306.739990234
577621.25 4180958.75 307.190002441
577621.25 4180959.5 307.619995117
577621.25 4180959.75 307.510009766
577621.25 4180960 307.410003662
577621.25 4180961 307.540008545
577621.25 4180961.25 307.579986572
577621.25 4180961.5 307.579986572
577621.25 4180961.75 307.529998779
577621.25 4180962.25 307.290008545
577621.25 4180962.5 307.269989014
577621.25 4180962.75 307.339996338
577621.25 4180962.75 307.510009766
577621.25 4180963 307.760009766
577621.25 4180964.5 307.339996338
577621.25 4180965.25 307.299987793
577621.4375 4180959.75 307.429992676
577621.4375 4180961 307.440002441
577621.4375 4180961.25 307.510009766
577621.4375 4180961.5 307.549987793
577621.4375 4180961.75 307.540008545
577621.4375 4180961.75 307.489990234
577621.4375 4180962 307.440002441
577621.4375 4180962.75 307.5
577621.4375 4180962.75 307.670013428
577621.4375 4180964 306.880004883
577621.4375 4180964.5 307.179992676
577621.625 4180960.5 306.260009766
577621.625 4180961.25 307.510009766
577621.625 4180961.5 307.309997559
577621.625 4180961.75 307.339996338
577621.625 4180961.75 307.570007324
577621.625 4180962 307.339996338
577621.625 4180962.25 306.890014648
577621.8125 4180959 306.059997559
577621.8125 4180959.5 306.720001221
577621.8125 4180959.75 306.75
577621.8125 4180960 305.679992676
577621.8125 4180960.25 306.239990234
577621.8125 4180960.5 306.25
577621.8125 4180960.75 306.320007324
577621.8125 4180960.75 306.440002441
577621.8125 4180962.25 307.049987793
577621.8125 4180962.5 307.130004883
577621.8125 4180962.75 307.25
577621.8125 4180962.75 307.440002441
577621.8125 4180964.5 307.320007324
577621.8125 4180964.5 307.320007324
577621.8125 4180965.25 306.75
577622 4180959.25 306.850006104
577622 4180959.5 306.450012207
577622 4180960 305.769989014
577622 4180960 305.559997559
577622 4180960.25 305.450012207
577622 4180960.5 305.429992676
577622 4180960.75 305.489990234
577622 4180961.25 305.920013428
577622 4180961.75 305.649993896
577622 4180962.25 305.350006104
577622 4180962.75 307.549987793
577622 4180963.25 307.369995117
577622 4180963.75 307.790008545
577622.1875 4180958.75 307.100006104
577622.1875 4180959 306.880004883
577622.1875 4180959 306.510009766
577622.1875 4180959.25 306.059997559
577622.1875 4180960 305.820007324
577622.1875 4180960.5 305.630004883
577622.1875 4180961 306.260009766
577622.1875 4180961.75 305.399993896
577622.1875 4180962 305.540008545
577622.4375 4180958.25 306.910003662
577622.4375 4180959 306.799987793
577622.4375 4180959.5 306.309997559
577622.625 4180957.75 307.089996338
577622.8125 4180962.75 305.709991455
