# .PCD v.7 - Point Cloud Data file format
VERSION .7
FIELDS x y z
SIZE 4 4 4
TYPE F F F
COUNT 1 1 1
WIDTH 1406
HEIGHT 1
VIEWPOINT 0 0 0 1 0 0 0
POINTS 1406
DATA ascii
578180.2163 4179284.8975 296.07 
578180.2163 4179285.0774 296.05 
578180.2163 4179285.2573 296.04 
578180.2163 4179285.4372 296.04 
578180.2163 4179285.6171 296.04 
578180.2163 4179285.7970 296.06 
578180.2163 4179285.9769 296.08 
578180.2163 4179286.1568 296.10 
578180.2163 4179286.3367 296.13 
578180.2163 4179286.5166 296.15 
578180.2163 4179286.6965 296.17 
578180.2163 4179286.8764 296.18 
578180.2163 4179287.0563 296.19 
578180.2163 4179287.2362 296.19 
578180.2163 4179287.4161 296.18 
578180.2163 4179287.5959 296.17 
578180.2163 4179287.7758 296.16 
578180.2163 4179287.9557 296.14 
578180.2163 4179288.1356 296.12 
578180.2163 4179288.3155 296.11 
578180.2163 4179288.4954 296.09 
578180.2163 4179288.6753 296.07 
578180.2163 4179288.8552 296.06 
578180.2163 4179289.0351 296.05 
578180.2163 4179289.2150 296.05 
578180.2163 4179289.3949 296.05 
578180.2163 4179289.5748 296.06 
578180.2163 4179289.7547 296.07 
578180.2163 4179289.9346 296.09 
578180.2163 4179290.1145 296.20 
578180.2163 4179290.2944 296.11 
578180.2163 4179290.4743 296.12 
578180.2163 4179290.6542 296.16 
578180.2163 4179290.8341 296.13 
578180.2163 4179291.0140 296.12 
578180.2163 4179291.1939 295.96 
578180.3962 4179263.4897 296.04 
578180.3962 4179263.6696 296.14 
578180.3962 4179264.0294 296.22 
578180.3962 4179264.2093 296.29 
578180.3962 4179264.3892 296.33 
578180.3962 4179264.9289 297.06 
578180.3962 4179265.4686 296.20 
578180.3962 4179265.6485 296.12 
578180.3962 4179265.8284 296.04 
578180.3962 4179266.0083 295.98 
578180.3962 4179266.1882 295.93 
578180.3962 4179266.3681 295.90 
578180.3962 4179266.5479 295.89 
578180.3962 4179266.7278 295.91 
578180.3962 4179266.9077 295.94 
578180.3962 4179267.0876 295.98 
578180.3962 4179267.2675 296.02 
578180.3962 4179267.4474 296.06 
578180.3962 4179267.6273 296.09 
578180.3962 4179267.8072 296.11 
578180.3962 4179267.9871 296.12 
578180.3962 4179268.1670 296.12 
578180.3962 4179268.3469 296.11 
578180.3962 4179268.5268 296.09 
578180.3962 4179268.7067 296.07 
578180.3962 4179268.8866 296.06 
578180.3962 4179269.0665 296.04 
578180.3962 4179269.2464 296.04 
578180.3962 4179269.4263 296.04 
578180.3962 4179269.6062 296.04 
578180.3962 4179269.7861 296.05 
578180.3962 4179269.9660 296.06 
578180.3962 4179270.1459 296.06 
578180.3962 4179270.3258 296.07 
578180.3962 4179270.5057 296.07 
578180.3962 4179270.6856 296.07 
578180.3962 4179270.8655 296.07 
578180.3962 4179271.0454 296.08 
578180.3962 4179271.2253 296.05 
578180.3962 4179271.4052 296.04 
578180.3962 4179271.5851 296.10 
578180.3962 4179271.7650 296.03 
578180.3962 4179271.9449 296.03 
578180.3962 4179272.1248 296.09 
578180.3962 4179272.3047 296.06 
578180.3962 4179272.4846 296.09 
578180.3962 4179272.6645 296.22 
578180.3962 4179272.8444 296.14 
578180.3962 4179273.0243 296.16 
578180.3962 4179273.2042 296.17 
578180.3962 4179273.3841 296.16 
578180.3962 4179273.5639 296.14 
578180.3962 4179273.7438 296.10 
578180.3962 4179273.9237 296.04 
578180.3962 4179274.2835 296.45 
578180.3962 4179274.4634 295.85 
578180.3962 4179274.6433 295.83 
578180.3962 4179274.8232 295.86 
578180.3962 4179275.0031 295.95 
578180.3962 4179275.1830 296.11 
578180.3962 4179275.3629 296.36 
578180.3962 4179278.4212 301.73 
578180.3962 4179278.9609 301.44 
578180.3962 4179279.5006 301.55 
578180.3962 4179280.7598 301.90 
578180.3962 4179281.1196 296.09 
578180.3962 4179281.8392 296.06 
578180.3962 4179282.1990 296.12 
578180.3962 4179282.3789 296.12 
578180.3962 4179282.9186 296.24 
578180.3962 4179283.2784 295.92 
578180.3962 4179283.4583 296.00 
578180.3962 4179283.6382 296.07 
578180.3962 4179283.8181 296.12 
578180.3962 4179283.9980 296.15 
578180.3962 4179284.1779 296.16 
578180.3962 4179284.3578 296.15 
578180.3962 4179284.5377 295.99 
578180.3962 4179284.7176 296.10 
578180.3962 4179284.8975 296.07 
578180.3962 4179285.0774 296.13 
578180.3962 4179285.2573 296.03 
578180.3962 4179285.4372 296.03 
578180.3962 4179285.6171 296.04 
578180.3962 4179285.7970 296.29 
578180.3962 4179285.9769 296.09 
578180.3962 4179286.1568 296.11 
578180.3962 4179286.3367 296.14 
578180.3962 4179286.5166 296.16 
578180.3962 4179286.6965 296.18 
578180.3962 4179286.8764 296.19 
578180.3962 4179287.0563 296.19 
578180.3962 4179287.2362 296.19 
578180.3962 4179287.4161 296.18 
578180.3962 4179287.5959 296.16 
578180.3962 4179287.7758 296.15 
578180.3962 4179287.9557 296.13 
578180.3962 4179288.1356 296.11 
578180.3962 4179288.3155 296.09 
578180.3962 4179288.4954 296.07 
578180.3962 4179288.6753 296.05 
578180.3962 4179288.8552 296.04 
578180.3962 4179289.0351 296.04 
578180.3962 4179289.2150 296.04 
578180.3962 4179289.3949 296.05 
578180.3962 4179289.5748 296.06 
578180.3962 4179289.7547 296.08 
578180.3962 4179289.9346 296.11 
578180.3962 4179290.1145 296.13 
578180.3962 4179290.2944 296.15 
578180.3962 4179290.4743 296.17 
578180.3962 4179290.6542 296.18 
578180.3962 4179290.8341 296.18 
578180.3962 4179291.0140 296.17 
578180.5761 4179263.1299 295.91 
578180.5761 4179264.0294 296.22 
578180.5761 4179264.2093 296.29 
578180.5761 4179264.3892 296.34 
578180.5761 4179264.5691 296.38 
578180.5761 4179265.1088 297.26 
578180.5761 4179265.2887 295.92 
578180.5761 4179265.6485 296.14 
578180.5761 4179265.8284 296.00 
578180.5761 4179266.0083 295.97 
578180.5761 4179266.1882 295.92 
578180.5761 4179266.3681 295.88 
578180.5761 4179266.5479 295.87 
578180.5761 4179266.7278 295.88 
578180.5761 4179266.9077 295.91 
578180.5761 4179267.2675 296.00 
578180.5761 4179267.4474 296.04 
578180.5761 4179267.6273 296.08 
578180.5761 4179267.8072 296.10 
578180.5761 4179267.9871 296.12 
578180.5761 4179268.1670 296.12 
578180.5761 4179268.3469 296.11 
578180.5761 4179268.5268 296.10 
578180.5761 4179268.7067 296.09 
578180.5761 4179268.8866 296.07 
578180.5761 4179269.0665 296.06 
578180.5761 4179269.2464 296.06 
578180.5761 4179269.4263 296.06 
578180.5761 4179269.6062 296.06 
578180.5761 4179269.7861 296.07 
578180.5761 4179269.9660 296.07 
578180.5761 4179270.1459 296.08 
578180.5761 4179270.3258 296.08 
578180.5761 4179270.5057 296.07 
578180.5761 4179270.6856 296.07 
578180.5761 4179270.8655 296.06 
578180.5761 4179271.0454 296.05 
578180.5761 4179271.2253 296.04 
578180.5761 4179271.4052 296.03 
578180.5761 4179271.5851 296.03 
578180.5761 4179271.7650 296.03 
578180.5761 4179271.9449 296.04 
578180.5761 4179272.1248 296.06 
578180.5761 4179272.3047 296.09 
578180.5761 4179272.4846 296.12 
578180.5761 4179272.6645 296.15 
578180.5761 4179272.8444 296.17 
578180.5761 4179273.0243 296.18 
578180.5761 4179273.2042 296.17 
578180.5761 4179273.3841 296.15 
578180.5761 4179273.5639 296.12 
578180.5761 4179273.7438 295.99 
578180.5761 4179273.9237 296.01 
578180.5761 4179274.4634 296.06 
578180.5761 4179274.6433 295.97 
578180.5761 4179274.8232 295.93 
578180.5761 4179275.5428 296.23 
578180.5761 4179277.3418 301.13 
578180.5761 4179277.5217 301.16 
578180.5761 4179277.7016 301.11 
578180.5761 4179280.0403 301.79 
578180.5761 4179280.7598 301.72 
578180.5761 4179280.9397 300.13 
578180.5761 4179281.1196 301.24 
578180.5761 4179281.6593 299.86 
578180.5761 4179282.1990 296.33 
578180.5761 4179282.3789 296.08 
578180.5761 4179282.5588 295.92 
578180.5761 4179283.2784 295.91 
578180.5761 4179283.4583 296.00 
578180.5761 4179283.6382 296.05 
578180.5761 4179283.8181 296.10 
578180.5761 4179283.9980 295.94 
578180.5761 4179284.1779 296.15 
578180.5761 4179284.3578 296.14 
578180.5761 4179284.5377 295.91 
578180.5761 4179284.7176 296.09 
578180.5761 4179284.8975 296.07 
578180.5761 4179285.0774 296.05 
578180.5761 4179285.2573 296.06 
578180.5761 4179285.4372 296.04 
578180.5761 4179285.6171 296.05 
578180.5761 4179285.7970 296.07 
578180.5761 4179285.9769 296.10 
578180.5761 4179286.1568 296.12 
578180.5761 4179286.3367 296.04 
578180.5761 4179286.5166 296.16 
578180.5761 4179286.6965 296.18 
578180.5761 4179286.8764 296.20 
578180.5761 4179287.0563 296.18 
578180.5761 4179287.2362 296.17 
578180.5761 4179287.4161 296.16 
578180.5761 4179287.5959 296.24 
578180.5761 4179287.7758 296.13 
578180.5761 4179287.9557 296.11 
578180.5761 4179288.1356 296.09 
578180.5761 4179288.3155 296.07 
578180.5761 4179288.4954 296.06 
578180.5761 4179288.6753 296.04 
578180.5761 4179288.8552 296.03 
578180.5761 4179289.0351 296.03 
578180.5761 4179289.2150 296.04 
578180.5761 4179289.3949 296.05 
578180.5761 4179289.5748 296.07 
578180.5761 4179289.7547 296.10 
578180.5761 4179289.9346 296.13 
578180.5761 4179290.1145 296.16 
578180.5761 4179290.2944 296.19 
578180.5761 4179290.4743 296.21 
578180.5761 4179290.6542 296.22 
578180.5761 4179290.8341 296.23 
578180.5761 4179291.0140 296.21 
578180.7560 4179264.2093 296.27 
578180.7560 4179264.3892 296.35 
578180.7560 4179264.5691 296.38 
578180.7560 4179264.7490 296.41 
578180.7560 4179265.4686 296.15 
578180.7560 4179265.6485 296.15 
578180.7560 4179265.8284 296.06 
578180.7560 4179266.0083 295.98 
578180.7560 4179266.1882 295.92 
578180.7560 4179266.3681 295.92 
578180.7560 4179266.5479 295.87 
578180.7560 4179267.0876 296.25 
578180.7560 4179267.2675 295.99 
578180.7560 4179267.4474 296.04 
578180.7560 4179267.6273 296.18 
578180.7560 4179267.8072 296.10 
578180.7560 4179267.9871 296.12 
578180.7560 4179268.1670 296.12 
578180.7560 4179268.3469 296.12 
578180.7560 4179268.5268 296.11 
578180.7560 4179268.7067 296.10 
578180.7560 4179268.8866 296.09 
578180.7560 4179269.0665 296.08 
578180.7560 4179269.2464 296.08 
578180.7560 4179269.4263 296.08 
578180.7560 4179269.6062 296.08 
578180.7560 4179269.7861 296.08 
578180.7560 4179269.9660 296.09 
578180.7560 4179270.1459 296.08 
578180.7560 4179270.3258 296.08 
578180.7560 4179270.5057 296.07 
578180.7560 4179270.6856 296.06 
578180.7560 4179270.8655 296.04 
578180.7560 4179271.0454 296.03 
578180.7560 4179271.2253 296.02 
578180.7560 4179271.4052 296.02 
578180.7560 4179271.5851 296.02 
578180.7560 4179271.7650 296.04 
578180.7560 4179271.9449 296.06 
578180.7560 4179272.1248 296.09 
578180.7560 4179272.3047 296.12 
578180.7560 4179272.4846 296.15 
578180.7560 4179272.6645 296.17 
578180.7560 4179272.8444 296.18 
578180.7560 4179273.0243 296.18 
578180.7560 4179273.2042 296.16 
578180.7560 4179273.3841 296.13 
578180.7560 4179273.5639 296.09 
578180.7560 4179273.7438 296.04 
578180.7560 4179273.9237 296.00 
578180.7560 4179274.1036 295.98 
578180.7560 4179274.2835 296.00 
578180.7560 4179274.4634 296.07 
578180.7560 4179274.6433 296.19 
578180.7560 4179275.0031 296.08 
578180.7560 4179275.5428 296.19 
578180.7560 4179277.1619 301.49 
578180.7560 4179277.3418 301.57 
578180.7560 4179277.5217 301.59 
578180.7560 4179277.7016 301.55 
578180.7560 4179277.8815 301.48 
578180.7560 4179278.0614 301.38 
578180.7560 4179278.2413 301.26 
578180.7560 4179278.7810 300.97 
578180.7560 4179278.9609 300.91 
578180.7560 4179280.9397 299.97 
578180.7560 4179282.1990 296.63 
578180.7560 4179282.3789 296.32 
578180.7560 4179282.5588 296.10 
578180.7560 4179282.7387 295.96 
578180.7560 4179282.9186 295.90 
578180.7560 4179283.0985 295.89 
578180.7560 4179283.2784 295.92 
578180.7560 4179283.4583 295.97 
578180.7560 4179283.6382 296.03 
578180.7560 4179283.8181 296.08 
578180.7560 4179283.9980 296.11 
578180.7560 4179284.1779 296.12 
578180.7560 4179284.3578 296.12 
578180.7560 4179284.5377 296.10 
578180.7560 4179284.7176 296.08 
578180.7560 4179284.8975 296.06 
578180.7560 4179285.0774 296.05 
578180.7560 4179285.2573 296.05 
578180.7560 4179285.4372 296.05 
578180.7560 4179285.6171 296.07 
578180.7560 4179285.7970 296.12 
578180.7560 4179285.9769 296.11 
578180.7560 4179286.1568 296.13 
578180.7560 4179286.3367 295.96 
578180.7560 4179286.5166 296.16 
578180.7560 4179286.6965 296.17 
578180.7560 4179286.8764 296.14 
578180.7560 4179287.0563 296.16 
578180.7560 4179287.2362 296.15 
578180.7560 4179287.4161 296.14 
578180.7560 4179287.5959 296.13 
578180.7560 4179287.7758 296.11 
578180.7560 4179287.9557 296.09 
578180.7560 4179288.1356 296.03 
578180.7560 4179288.3155 296.06 
578180.7560 4179288.4954 296.05 
578180.7560 4179288.6753 295.96 
578180.7560 4179288.8552 296.03 
578180.7560 4179289.0351 296.03 
578180.7560 4179289.2150 296.20 
578180.7560 4179289.3949 296.05 
578180.7560 4179289.5748 296.07 
578180.7560 4179289.7547 295.89 
578180.7560 4179289.9346 296.14 
578180.7560 4179290.1145 296.18 
578180.7560 4179290.2944 296.21 
578180.7560 4179290.4743 296.24 
578180.7560 4179290.6542 296.26 
578180.7560 4179290.8341 296.27 
578180.7560 4179291.0140 296.25 
578180.9359 4179263.8495 296.12 
578180.9359 4179264.3892 296.30 
578180.9359 4179264.5691 296.35 
578180.9359 4179264.7490 296.38 
578180.9359 4179265.2887 296.32 
578180.9359 4179265.4686 296.25 
578180.9359 4179265.6485 296.16 
578180.9359 4179265.8284 296.08 
578180.9359 4179266.0083 295.88 
578180.9359 4179266.1882 295.94 
578180.9359 4179266.3681 295.90 
578180.9359 4179266.5479 296.32 
578180.9359 4179266.9077 295.91 
578180.9359 4179267.2675 296.36 
578180.9359 4179267.6273 295.89 
578180.9359 4179267.8072 296.10 
578180.9359 4179267.9871 296.12 
578180.9359 4179268.1670 296.13 
578180.9359 4179268.3469 296.03 
578180.9359 4179268.5268 296.12 
578180.9359 4179268.7067 296.12 
578180.9359 4179268.8866 296.12 
578180.9359 4179269.0665 296.10 
578180.9359 4179269.2464 296.10 
578180.9359 4179269.4263 296.20 
578180.9359 4179269.6062 296.10 
578180.9359 4179269.7861 296.10 
578180.9359 4179269.9660 296.07 
578180.9359 4179270.1459 296.09 
578180.9359 4179270.3258 296.07 
578180.9359 4179270.5057 296.06 
578180.9359 4179270.6856 296.04 
578180.9359 4179270.8655 296.03 
578180.9359 4179271.0454 296.02 
578180.9359 4179271.2253 296.01 
578180.9359 4179271.4052 296.02 
578180.9359 4179271.5851 296.03 
578180.9359 4179271.7650 296.05 
578180.9359 4179271.9449 296.08 
578180.9359 4179272.1248 296.11 
578180.9359 4179272.3047 296.14 
578180.9359 4179272.4846 296.17 
578180.9359 4179272.6645 296.18 
578180.9359 4179272.8444 296.18 
578180.9359 4179273.0243 296.17 
578180.9359 4179273.2042 296.14 
578180.9359 4179273.3841 296.10 
578180.9359 4179273.5639 296.06 
578180.9359 4179273.7438 296.02 
578180.9359 4179273.9237 296.02 
578180.9359 4179274.1036 296.05 
578180.9359 4179274.2835 296.13 
578180.9359 4179274.6433 296.50 
578180.9359 4179275.9026 301.27 
578180.9359 4179276.6222 301.57 
578180.9359 4179276.8021 301.52 
578180.9359 4179277.1619 301.71 
578180.9359 4179277.3418 301.88 
578180.9359 4179277.5217 301.89 
578180.9359 4179277.7016 301.87 
578180.9359 4179277.8815 301.82 
578180.9359 4179278.0614 301.75 
578180.9359 4179278.2413 301.67 
578180.9359 4179278.4212 301.59 
578180.9359 4179278.6011 301.52 
578180.9359 4179278.7810 301.46 
578180.9359 4179278.9609 301.43 
578180.9359 4179279.3207 301.41 
578180.9359 4179279.5006 301.43 
578180.9359 4179279.6805 301.46 
578180.9359 4179279.8604 301.48 
578180.9359 4179280.0403 301.47 
578180.9359 4179280.2202 301.43 
578180.9359 4179280.4001 301.32 
578180.9359 4179280.5799 301.14 
578180.9359 4179280.9397 300.52 
578180.9359 4179281.1196 300.09 
578180.9359 4179281.2995 299.60 
578180.9359 4179281.4794 299.63 
578180.9359 4179281.8392 299.25 
578180.9359 4179282.7387 296.17 
578180.9359 4179282.9186 296.05 
578180.9359 4179283.0985 295.99 
578180.9359 4179283.2784 295.97 
578180.9359 4179283.4583 295.98 
578180.9359 4179283.6382 296.01 
578180.9359 4179283.8181 296.04 
578180.9359 4179283.9980 296.06 
578180.9359 4179284.1779 296.07 
578180.9359 4179284.3578 296.08 
578180.9359 4179284.5377 296.08 
578180.9359 4179284.7176 296.07 
578180.9359 4179284.8975 296.07 
578180.9359 4179285.0774 296.06 
578180.9359 4179285.2573 296.07 
578180.9359 4179285.4372 296.08 
578180.9359 4179285.6171 296.09 
578180.9359 4179285.7970 296.11 
578180.9359 4179285.9769 296.13 
578180.9359 4179286.1568 296.14 
578180.9359 4179286.3367 296.15 
578180.9359 4179286.5166 296.15 
578180.9359 4179286.6965 296.15 
578180.9359 4179286.8764 296.15 
578180.9359 4179287.0563 296.14 
578180.9359 4179287.2362 296.13 
578180.9359 4179287.4161 296.08 
578180.9359 4179287.5959 296.10 
578180.9359 4179287.7758 296.09 
578180.9359 4179287.9557 295.89 
578180.9359 4179288.1356 296.07 
578180.9359 4179288.3155 296.06 
578180.9359 4179288.4954 296.05 
578180.9359 4179288.6753 296.00 
578180.9359 4179288.8552 296.04 
578180.9359 4179289.0351 296.04 
578180.9359 4179289.2150 296.05 
578180.9359 4179289.3949 296.06 
578180.9359 4179289.5748 296.08 
578180.9359 4179289.7547 296.11 
578180.9359 4179289.9346 296.15 
578180.9359 4179290.1145 296.19 
578180.9359 4179290.2944 296.23 
578180.9359 4179290.4743 296.21 
578180.9359 4179290.6542 296.29 
578180.9359 4179290.8341 296.29 
578180.9359 4179291.0140 296.28 
578180.9359 4179291.1939 296.59 
578181.1158 4179263.6696 296.05 
578181.1158 4179263.8495 296.08 
578181.1158 4179264.5691 296.30 
578181.1158 4179264.7490 296.34 
578181.1158 4179264.9289 296.35 
578181.1158 4179265.4686 300.37 
578181.1158 4179265.8284 296.10 
578181.1158 4179266.0083 296.03 
578181.1158 4179266.1882 295.97 
578181.1158 4179266.9077 295.94 
578181.1158 4179267.4474 296.05 
578181.1158 4179267.6273 296.08 
578181.1158 4179267.8072 296.11 
578181.1158 4179267.9871 296.12 
578181.1158 4179268.1670 296.09 
578181.1158 4179268.3469 296.13 
578181.1158 4179268.5268 296.13 
578181.1158 4179268.7067 296.13 
578181.1158 4179268.8866 296.10 
578181.1158 4179269.0665 296.12 
578181.1158 4179269.2464 296.12 
578181.1158 4179269.4263 295.93 
578181.1158 4179269.6062 296.11 
578181.1158 4179269.7861 296.11 
578181.1158 4179269.9660 296.16 
578181.1158 4179270.1459 296.08 
578181.1158 4179270.3258 296.07 
578181.1158 4179270.5057 295.81 
578181.1158 4179270.6856 296.03 
578181.1158 4179270.8655 296.02 
578181.1158 4179271.0454 296.01 
578181.1158 4179271.2253 295.88 
578181.1158 4179271.4052 296.02 
578181.1158 4179271.5851 296.04 
578181.1158 4179271.7650 295.94 
578181.1158 4179271.9449 296.10 
578181.1158 4179272.1248 296.13 
578181.1158 4179272.3047 296.16 
578181.1158 4179272.6645 296.18 
578181.1158 4179272.8444 296.16 
578181.1158 4179273.0243 296.14 
578181.1158 4179273.2042 296.10 
578181.1158 4179273.3841 296.06 
578181.1158 4179273.5639 296.03 
578181.1158 4179273.7438 296.03 
578181.1158 4179273.9237 296.06 
578181.1158 4179274.1036 296.16 
578181.1158 4179274.2835 296.32 
578181.1158 4179275.5428 301.21 
578181.1158 4179276.2624 301.39 
578181.1158 4179276.4423 301.42 
578181.1158 4179276.8021 301.40 
578181.1158 4179277.8815 301.80 
578181.1158 4179278.0614 302.00 
578181.1158 4179278.4212 301.50 
578181.1158 4179278.7810 301.85 
578181.1158 4179278.9609 301.82 
578181.1158 4179279.1408 301.77 
578181.1158 4179279.3207 301.81 
578181.1158 4179279.5006 301.83 
578181.1158 4179279.6805 301.60 
578181.1158 4179279.8604 301.86 
578181.1158 4179280.0403 301.85 
578181.1158 4179280.4001 301.71 
578181.1158 4179280.5799 301.55 
578181.1158 4179281.4794 296.31 
578181.1158 4179281.8392 295.94 
578181.1158 4179282.5588 296.08 
578181.1158 4179282.9186 296.27 
578181.1158 4179283.0985 296.16 
578181.1158 4179283.2784 296.05 
578181.1158 4179283.4583 296.01 
578181.1158 4179283.6382 295.99 
578181.1158 4179283.9980 296.00 
578181.1158 4179284.1779 296.02 
578181.1158 4179284.3578 296.03 
578181.1158 4179284.5377 296.04 
578181.1158 4179284.7176 296.06 
578181.1158 4179284.8975 296.07 
578181.1158 4179285.0774 296.08 
578181.1158 4179285.2573 296.09 
578181.1158 4179285.4372 296.11 
578181.1158 4179285.6171 296.12 
578181.1158 4179285.7970 296.13 
578181.1158 4179285.9769 296.14 
578181.1158 4179286.1568 296.14 
578181.1158 4179286.3367 296.14 
578181.1158 4179286.5166 296.14 
578181.1158 4179286.6965 296.13 
578181.1158 4179286.8764 296.12 
578181.1158 4179287.0563 296.10 
578181.1158 4179287.2362 296.09 
578181.1158 4179287.4161 296.08 
578181.1158 4179287.5959 296.08 
578181.1158 4179287.7758 296.07 
578181.1158 4179287.9557 296.07 
578181.1158 4179288.1356 296.06 
578181.1158 4179288.3155 296.06 
578181.1158 4179288.4954 296.05 
578181.1158 4179288.6753 296.05 
578181.1158 4179288.8552 296.05 
578181.1158 4179289.0351 296.05 
578181.1158 4179289.2150 296.12 
578181.1158 4179289.3949 296.07 
578181.1158 4179289.5748 296.09 
578181.1158 4179289.7547 296.16 
578181.1158 4179289.9346 296.16 
578181.1158 4179290.1145 296.20 
578181.1158 4179290.2944 296.01 
578181.1158 4179290.4743 296.27 
578181.1158 4179290.6542 296.29 
578181.1158 4179290.8341 296.30 
578181.1158 4179291.0140 296.50 
578181.1158 4179291.5537 296.53 
578181.2957 4179263.6696 296.03 
578181.2957 4179264.5691 296.24 
578181.2957 4179264.7490 296.28 
578181.2957 4179264.9289 296.30 
578181.2957 4179265.1088 296.30 
578181.2957 4179266.0083 296.07 
578181.2957 4179266.1882 296.02 
578181.2957 4179266.3681 295.99 
578181.2957 4179266.5479 295.98 
578181.2957 4179266.7278 295.98 
578181.2957 4179266.9077 295.99 
578181.2957 4179267.0876 296.01 
578181.2957 4179267.2675 296.04 
578181.2957 4179267.4474 296.07 
578181.2957 4179267.6273 296.10 
578181.2957 4179267.8072 296.12 
578181.2957 4179267.9871 296.13 
578181.2957 4179268.1670 296.14 
578181.2957 4179268.3469 296.14 
578181.2957 4179268.5268 296.14 
578181.2957 4179268.7067 296.14 
578181.2957 4179268.8866 296.13 
578181.2957 4179269.0665 296.13 
578181.2957 4179269.2464 296.13 
578181.2957 4179269.4263 296.12 
578181.2957 4179269.6062 296.12 
578181.2957 4179269.7861 296.11 
578181.2957 4179269.9660 296.09 
578181.2957 4179270.1459 296.08 
578181.2957 4179270.3258 296.06 
578181.2957 4179270.5057 296.05 
578181.2957 4179270.6856 296.02 
578181.2957 4179270.8655 296.01 
578181.2957 4179271.0454 296.19 
578181.2957 4179271.2253 296.01 
578181.2957 4179271.4052 296.03 
578181.2957 4179271.5851 296.06 
578181.2957 4179271.7650 296.17 
578181.2957 4179271.9449 296.12 
578181.2957 4179272.1248 296.15 
578181.2957 4179272.3047 296.17 
578181.2957 4179272.4846 295.94 
578181.2957 4179272.6645 296.16 
578181.2957 4179272.8444 296.13 
578181.2957 4179273.0243 296.03 
578181.2957 4179273.2042 296.05 
578181.2957 4179273.5639 296.01 
578181.2957 4179273.7438 296.11 
578181.2957 4179273.9237 296.15 
578181.2957 4179274.2835 296.07 
578181.2957 4179275.9026 300.90 
578181.2957 4179276.0825 301.26 
578181.2957 4179276.2624 301.55 
578181.2957 4179276.4423 301.76 
578181.2957 4179277.3418 301.62 
578181.2957 4179277.7016 302.14 
578181.2957 4179278.0614 301.62 
578181.2957 4179278.6011 301.68 
578181.2957 4179278.9609 302.10 
578181.2957 4179279.1408 301.90 
578181.2957 4179279.3207 302.09 
578181.2957 4179280.2202 301.48 
578181.2957 4179280.5799 301.84 
578181.2957 4179280.7598 301.62 
578181.2957 4179281.4794 301.67 
578181.2957 4179281.8392 296.18 
578181.2957 4179282.3789 296.01 
578181.2957 4179283.0985 296.33 
578181.2957 4179283.2784 296.17 
578181.2957 4179283.4583 296.06 
578181.2957 4179283.8181 296.30 
578181.2957 4179284.1779 295.96 
578181.2957 4179284.3578 296.08 
578181.2957 4179284.5377 296.01 
578181.2957 4179284.7176 296.04 
578181.2957 4179284.8975 296.17 
578181.2957 4179285.0774 296.10 
578181.2957 4179285.2573 296.12 
578181.2957 4179285.4372 296.14 
578181.2957 4179285.6171 296.15 
578181.2957 4179285.7970 296.15 
578181.2957 4179285.9769 296.15 
578181.2957 4179286.1568 296.14 
578181.2957 4179286.3367 296.13 
578181.2957 4179286.5166 296.11 
578181.2957 4179286.6965 296.10 
578181.2957 4179286.8764 296.08 
578181.2957 4179287.0563 296.07 
578181.2957 4179287.2362 296.06 
578181.2957 4179287.4161 296.05 
578181.2957 4179287.5959 296.05 
578181.2957 4179287.7758 296.05 
578181.2957 4179287.9557 296.06 
578181.2957 4179288.1356 296.06 
578181.2957 4179288.3155 296.06 
578181.2957 4179288.4954 296.07 
578181.2957 4179288.6753 296.07 
578181.2957 4179288.8552 296.07 
578181.2957 4179289.0351 296.07 
578181.2957 4179289.2150 296.08 
578181.2957 4179289.3949 296.09 
578181.2957 4179289.5748 296.11 
578181.2957 4179289.7547 296.13 
578181.2957 4179289.9346 296.16 
578181.2957 4179290.1145 296.20 
578181.2957 4179290.2944 296.23 
578181.2957 4179290.4743 296.26 
578181.2957 4179290.6542 296.29 
578181.2957 4179290.8341 296.30 
578181.2957 4179291.0140 296.29 
578181.2957 4179291.1939 296.27 
578181.4756 4179263.1299 295.75 
578181.4756 4179263.8495 295.84 
578181.4756 4179264.7490 296.21 
578181.4756 4179264.9289 296.24 
578181.4756 4179265.1088 296.48 
578181.4756 4179265.2887 296.24 
578181.4756 4179265.4686 296.22 
578181.4756 4179265.8284 296.15 
578181.4756 4179266.0083 296.11 
578181.4756 4179266.1882 296.08 
578181.4756 4179266.3681 296.06 
578181.4756 4179266.5479 296.05 
578181.4756 4179266.7278 296.05 
578181.4756 4179266.9077 296.06 
578181.4756 4179267.0876 296.07 
578181.4756 4179267.2675 296.09 
578181.4756 4179267.4474 296.10 
578181.4756 4179267.6273 296.12 
578181.4756 4179267.8072 296.13 
578181.4756 4179267.9871 296.13 
578181.4756 4179268.1670 296.14 
578181.4756 4179268.3469 296.14 
578181.4756 4179268.5268 296.14 
578181.4756 4179268.7067 296.14 
578181.4756 4179268.8866 296.14 
578181.4756 4179269.0665 296.14 
578181.4756 4179269.2464 296.14 
578181.4756 4179269.4263 296.13 
578181.4756 4179269.6062 296.12 
578181.4756 4179269.7861 296.11 
578181.4756 4179269.9660 296.09 
578181.4756 4179270.1459 296.07 
578181.4756 4179270.3258 296.04 
578181.4756 4179270.5057 296.02 
578181.4756 4179270.6856 296.01 
578181.4756 4179270.8655 296.00 
578181.4756 4179271.0454 296.01 
578181.4756 4179271.2253 296.02 
578181.4756 4179271.4052 296.05 
578181.4756 4179271.5851 296.08 
578181.4756 4179271.7650 296.12 
578181.4756 4179271.9449 296.15 
578181.4756 4179272.1248 296.17 
578181.4756 4179272.3047 296.14 
578181.4756 4179272.4846 296.16 
578181.4756 4179272.6645 296.13 
578181.4756 4179272.8444 296.18 
578181.4756 4179273.0243 296.04 
578181.4756 4179273.3841 296.29 
578181.4756 4179273.5639 296.02 
578181.4756 4179273.9237 296.17 
578181.4756 4179275.7227 301.03 
578181.4756 4179275.9026 301.38 
578181.4756 4179276.0825 301.66 
578181.4756 4179276.2624 301.85 
578181.4756 4179276.4423 301.98 
578181.4756 4179277.7016 302.15 
578181.4756 4179278.9609 302.27 
578181.4756 4179279.3207 302.26 
578181.4756 4179279.6805 301.81 
578181.4756 4179280.2202 301.66 
578181.4756 4179280.7598 301.64 
578181.4756 4179280.9397 301.62 
578181.4756 4179281.1196 301.34 
578181.4756 4179281.2995 301.49 
578181.4756 4179281.8392 301.26 
578181.4756 4179282.9186 296.01 
578181.4756 4179283.4583 295.97 
578181.4756 4179283.6382 296.01 
578181.4756 4179283.9980 295.87 
578181.4756 4179284.1779 295.91 
578181.4756 4179284.3578 295.93 
578181.4756 4179284.5377 295.98 
578181.4756 4179284.7176 296.03 
578181.4756 4179284.8975 296.08 
578181.4756 4179285.2573 296.15 
578181.4756 4179285.4372 296.17 
578181.4756 4179285.6171 296.11 
578181.4756 4179285.7970 296.17 
578181.4756 4179285.9769 296.15 
578181.4756 4179286.1568 296.21 
578181.4756 4179286.3367 296.11 
578181.4756 4179286.5166 296.08 
578181.4756 4179286.6965 296.14 
578181.4756 4179286.8764 296.05 
578181.4756 4179287.0563 296.03 
578181.4756 4179287.2362 296.23 
578181.4756 4179287.4161 296.03 
578181.4756 4179287.5959 296.03 
578181.4756 4179287.7758 296.04 
578181.4756 4179287.9557 296.05 
578181.4756 4179288.1356 296.06 
578181.4756 4179288.3155 296.07 
578181.4756 4179288.4954 296.08 
578181.4756 4179288.6753 296.08 
578181.4756 4179288.8552 296.09 
578181.4756 4179289.0351 296.09 
578181.4756 4179289.2150 296.10 
578181.4756 4179289.3949 296.11 
578181.4756 4179289.5748 296.12 
578181.4756 4179289.7547 296.14 
578181.4756 4179289.9346 296.16 
578181.4756 4179290.1145 296.19 
578181.4756 4179290.2944 296.22 
578181.4756 4179290.4743 296.25 
578181.4756 4179290.6542 296.27 
578181.4756 4179290.8341 296.27 
578181.4756 4179291.0140 296.27 
578181.4756 4179291.1939 296.25 
578181.6555 4179263.3098 296.15 
578181.6555 4179263.4897 296.00 
578181.6555 4179263.8495 295.95 
578181.6555 4179264.0294 296.00 
578181.6555 4179264.3892 295.73 
578181.6555 4179264.7490 296.14 
578181.6555 4179265.2887 296.20 
578181.6555 4179265.6485 295.88 
578181.6555 4179266.0083 296.17 
578181.6555 4179266.1882 295.93 
578181.6555 4179266.3681 296.14 
578181.6555 4179266.7278 295.82 
578181.6555 4179267.0876 296.14 
578181.6555 4179267.2675 296.14 
578181.6555 4179267.4474 296.14 
578181.6555 4179267.6273 296.14 
578181.6555 4179267.8072 296.14 
578181.6555 4179267.9871 296.14 
578181.6555 4179268.1670 296.14 
578181.6555 4179268.3469 296.14 
578181.6555 4179268.5268 296.14 
578181.6555 4179268.7067 296.14 
578181.6555 4179268.8866 296.14 
578181.6555 4179269.0665 296.14 
578181.6555 4179269.2464 296.14 
578181.6555 4179269.4263 296.13 
578181.6555 4179269.6062 296.12 
578181.6555 4179269.7861 296.10 
578181.6555 4179269.9660 296.08 
578181.6555 4179270.1459 296.05 
578181.6555 4179270.3258 296.03 
578181.6555 4179270.5057 296.01 
578181.6555 4179270.6856 296.00 
578181.6555 4179270.8655 296.01 
578181.6555 4179271.0454 296.02 
578181.6555 4179271.2253 296.05 
578181.6555 4179271.4052 296.08 
578181.6555 4179271.5851 296.11 
578181.6555 4179271.7650 296.15 
578181.6555 4179271.9449 296.17 
578181.6555 4179272.1248 296.18 
578181.6555 4179272.3047 296.16 
578181.6555 4179272.4846 296.13 
578181.6555 4179272.6645 296.08 
578181.6555 4179272.8444 296.03 
578181.6555 4179273.0243 295.98 
578181.6555 4179273.2042 295.96 
578181.6555 4179273.5639 296.07 
578181.6555 4179275.5428 301.10 
578181.6555 4179275.7227 301.47 
578181.6555 4179275.9026 301.74 
578181.6555 4179276.0825 301.93 
578181.6555 4179276.8021 302.09 
578181.6555 4179276.9820 302.07 
578181.6555 4179277.1619 302.05 
578181.6555 4179277.3418 302.05 
578181.6555 4179277.5217 302.07 
578181.6555 4179277.7016 302.10 
578181.6555 4179277.8815 302.15 
578181.6555 4179278.2413 302.24 
578181.6555 4179278.9609 302.35 
578181.6555 4179279.1408 302.35 
578181.6555 4179279.3207 302.34 
578181.6555 4179280.9397 301.80 
578181.6555 4179281.1196 301.60 
578181.6555 4179281.2995 301.33 
578181.6555 4179281.8392 301.35 
578181.6555 4179282.1990 300.08 
578181.6555 4179282.3789 301.35 
578181.6555 4179283.6382 296.06 
578181.6555 4179283.8181 295.93 
578181.6555 4179283.9980 295.87 
578181.6555 4179284.1779 295.86 
578181.6555 4179284.3578 295.89 
578181.6555 4179284.5377 295.84 
578181.6555 4179284.7176 296.02 
578181.6555 4179284.8975 296.08 
578181.6555 4179285.0774 296.14 
578181.6555 4179285.2573 296.13 
578181.6555 4179285.4372 296.19 
578181.6555 4179285.6171 296.19 
578181.6555 4179285.7970 296.18 
578181.6555 4179285.9769 296.15 
578181.6555 4179286.1568 296.12 
578181.6555 4179286.3367 296.09 
578181.6555 4179286.5166 296.06 
578181.6555 4179286.6965 296.03 
578181.6555 4179286.8764 296.01 
578181.6555 4179287.0563 296.00 
578181.6555 4179287.2362 296.00 
578181.6555 4179287.4161 296.01 
578181.6555 4179287.5959 296.02 
578181.6555 4179287.7758 296.03 
578181.6555 4179287.9557 295.94 
578181.6555 4179288.1356 296.07 
578181.6555 4179288.3155 296.08 
578181.6555 4179288.4954 296.11 
578181.6555 4179288.6753 296.10 
578181.6555 4179288.8552 296.11 
578181.6555 4179289.0351 296.20 
578181.6555 4179289.2150 296.12 
578181.6555 4179289.3949 296.12 
578181.6555 4179289.5748 296.13 
578181.6555 4179289.7547 296.14 
578181.6555 4179289.9346 296.16 
578181.6555 4179290.1145 296.18 
578181.6555 4179290.2944 296.20 
578181.6555 4179290.4743 296.22 
578181.6555 4179290.6542 296.23 
578181.6555 4179290.8341 296.24 
578181.6555 4179291.0140 296.23 
578181.6555 4179291.1939 296.22 
578181.8354 4179263.4897 295.98 
578181.8354 4179263.6696 295.96 
578181.8354 4179263.8495 295.96 
578181.8354 4179264.2093 295.98 
578181.8354 4179264.5691 296.04 
578181.8354 4179264.7490 296.08 
578181.8354 4179264.9289 296.11 
578181.8354 4179265.1088 296.32 
578181.8354 4179265.4686 295.89 
578181.8354 4179265.8284 296.22 
578181.8354 4179266.0083 296.23 
578181.8354 4179266.1882 296.12 
578181.8354 4179266.3681 296.23 
578181.8354 4179266.5479 296.23 
578181.8354 4179266.7278 296.24 
578181.8354 4179266.9077 296.22 
578181.8354 4179267.0876 296.22 
578181.8354 4179267.2675 296.20 
578181.8354 4179267.4474 295.99 
578181.8354 4179267.6273 296.18 
578181.8354 4179267.8072 296.16 
578181.8354 4179267.9871 296.13 
578181.8354 4179268.1670 296.14 
578181.8354 4179268.3469 296.14 
578181.8354 4179268.5268 296.14 
578181.8354 4179268.7067 296.14 
578181.8354 4179268.8866 296.14 
578181.8354 4179269.0665 296.14 
578181.8354 4179269.2464 296.13 
578181.8354 4179269.4263 296.12 
578181.8354 4179269.6062 296.11 
578181.8354 4179269.7861 296.09 
578181.8354 4179269.9660 296.06 
578181.8354 4179270.1459 296.04 
578181.8354 4179270.3258 296.02 
578181.8354 4179270.5057 296.01 
578181.8354 4179270.6856 296.01 
578181.8354 4179270.8655 296.02 
578181.8354 4179271.0454 296.04 
578181.8354 4179271.2253 296.08 
578181.8354 4179271.4052 296.12 
578181.8354 4179271.5851 296.15 
578181.8354 4179271.7650 296.18 
578181.8354 4179271.9449 296.19 
578181.8354 4179272.1248 296.18 
578181.8354 4179272.3047 296.15 
578181.8354 4179272.4846 296.09 
578181.8354 4179272.6645 296.03 
578181.8354 4179272.8444 295.97 
578181.8354 4179273.0243 295.93 
578181.8354 4179273.2042 295.94 
578181.8354 4179273.3841 296.00 
578181.8354 4179273.5639 296.15 
578181.8354 4179273.7438 296.39 
578181.8354 4179275.1830 301.34 
578181.8354 4179275.5428 301.51 
578181.8354 4179275.7227 301.40 
578181.8354 4179276.4423 301.62 
578181.8354 4179276.8021 302.03 
578181.8354 4179276.9820 301.99 
578181.8354 4179277.1619 301.97 
578181.8354 4179277.3418 301.97 
578181.8354 4179277.5217 301.99 
578181.8354 4179277.7016 302.03 
578181.8354 4179277.8815 302.09 
578181.8354 4179278.0614 302.15 
578181.8354 4179278.2413 302.22 
578181.8354 4179278.4212 302.27 
578181.8354 4179278.6011 302.32 
578181.8354 4179278.7810 302.35 
578181.8354 4179279.1408 302.36 
578181.8354 4179279.3207 302.34 
578181.8354 4179279.5006 302.32 
578181.8354 4179279.6805 302.29 
578181.8354 4179279.8604 302.26 
578181.8354 4179280.0403 302.22 
578181.8354 4179280.2202 302.18 
578181.8354 4179280.4001 302.13 
578181.8354 4179280.5799 302.08 
578181.8354 4179280.7598 302.01 
578181.8354 4179280.9397 301.91 
578181.8354 4179281.1196 301.78 
578181.8354 4179281.2995 301.60 
578181.8354 4179281.4794 301.37 
578181.8354 4179281.6593 301.08 
578181.8354 4179282.1990 299.82 
578181.8354 4179282.5588 299.10 
578181.8354 4179282.7387 299.89 
578181.8354 4179283.4583 296.40 
578181.8354 4179283.6382 296.14 
578181.8354 4179283.8181 295.96 
578181.8354 4179283.9980 295.87 
578181.8354 4179284.1779 295.84 
578181.8354 4179284.3578 295.87 
578181.8354 4179284.5377 295.93 
578181.8354 4179284.7176 296.00 
578181.8354 4179284.8975 296.08 
578181.8354 4179285.0774 296.14 
578181.8354 4179285.2573 296.19 
578181.8354 4179285.4372 296.21 
578181.8354 4179285.6171 296.20 
578181.8354 4179285.7970 296.18 
578181.8354 4179285.9769 296.15 
578181.8354 4179286.1568 296.11 
578181.8354 4179286.3367 296.06 
578181.8354 4179286.5166 296.03 
578181.8354 4179286.6965 296.00 
578181.8354 4179286.8764 295.92 
578181.8354 4179287.0563 295.98 
578181.8354 4179287.2362 295.98 
578181.8354 4179287.4161 295.99 
578181.8354 4179287.5959 296.02 
578181.8354 4179287.7758 296.03 
578181.8354 4179287.9557 296.05 
578181.8354 4179288.1356 295.97 
578181.8354 4179288.3155 296.09 
578181.8354 4179288.4954 296.11 
578181.8354 4179288.6753 296.28 
578181.8354 4179288.8552 296.13 
578181.8354 4179289.0351 296.13 
578181.8354 4179289.2150 296.14 
578181.8354 4179289.3949 296.14 
578181.8354 4179289.5748 295.95 
578181.8354 4179289.7547 296.14 
578181.8354 4179289.9346 296.15 
578181.8354 4179290.1145 296.16 
578181.8354 4179290.2944 296.02 
578181.8354 4179290.4743 296.18 
578181.8354 4179290.6542 296.19 
578181.8354 4179290.8341 296.08 
578181.8354 4179291.0140 296.19 
578181.8354 4179291.1939 296.17 
578181.8354 4179291.5537 296.33 
578182.0153 4179263.4897 295.96 
578182.0153 4179263.6696 295.94 
578182.0153 4179263.8495 295.93 
578182.0153 4179264.2093 295.94 
578182.0153 4179264.3892 295.96 
578182.0153 4179264.5691 295.99 
578182.0153 4179264.7490 296.02 
578182.0153 4179264.9289 296.06 
578182.0153 4179265.1088 296.10 
578182.0153 4179265.6485 296.23 
578182.0153 4179265.8284 296.26 
578182.0153 4179266.0083 296.29 
578182.0153 4179266.1882 296.31 
578182.0153 4179266.3681 296.33 
578182.0153 4179266.5479 296.33 
578182.0153 4179266.7278 296.33 
578182.0153 4179266.9077 296.32 
578182.0153 4179267.0876 296.30 
578182.0153 4179267.2675 296.23 
578182.0153 4179267.4474 296.24 
578182.0153 4179267.6273 296.21 
578182.0153 4179267.8072 296.08 
578182.0153 4179267.9871 296.16 
578182.0153 4179268.1670 296.14 
578182.0153 4179268.3469 296.24 
578182.0153 4179268.5268 296.13 
578182.0153 4179268.7067 296.13 
578182.0153 4179268.8866 296.13 
578182.0153 4179269.0665 296.30 
578182.0153 4179269.2464 295.92 
578182.0153 4179269.4263 296.11 
578182.0153 4179269.6062 296.10 
578182.0153 4179269.7861 296.18 
578182.0153 4179269.9660 296.05 
578182.0153 4179270.1459 296.03 
578182.0153 4179270.3258 296.01 
578182.0153 4179270.5057 296.11 
578182.0153 4179270.6856 296.02 
578182.0153 4179270.8655 296.04 
578182.0153 4179271.0454 296.12 
578182.0153 4179271.2253 296.11 
578182.0153 4179271.4052 296.16 
578182.0153 4179271.5851 296.19 
578182.0153 4179271.7650 296.21 
578182.0153 4179271.9449 296.20 
578182.0153 4179272.1248 296.17 
578182.0153 4179272.3047 296.12 
578182.0153 4179272.4846 296.05 
578182.0153 4179272.6645 295.98 
578182.0153 4179273.0243 295.90 
578182.0153 4179273.2042 295.94 
578182.0153 4179273.3841 296.07 
578182.0153 4179273.5639 296.28 
578182.0153 4179275.1830 301.38 
578182.0153 4179275.7227 301.42 
578182.0153 4179276.6222 302.00 
578182.0153 4179276.8021 301.94 
578182.0153 4179276.9820 301.89 
578182.0153 4179277.1619 301.88 
578182.0153 4179277.3418 301.89 
578182.0153 4179277.5217 301.92 
578182.0153 4179277.7016 302.01 
578182.0153 4179277.8815 302.04 
578182.0153 4179278.0614 302.11 
578182.0153 4179278.2413 302.10 
578182.0153 4179278.4212 302.24 
578182.0153 4179278.6011 302.28 
578182.0153 4179278.7810 302.32 
578182.0153 4179278.9609 302.06 
578182.0153 4179279.3207 302.31 
578182.0153 4179279.5006 302.28 
578182.0153 4179279.6805 302.23 
578182.0153 4179279.8604 302.19 
578182.0153 4179280.0403 302.14 
578182.0153 4179280.2202 302.10 
578182.0153 4179280.4001 302.06 
578182.0153 4179280.5799 302.03 
578182.0153 4179280.7598 302.00 
578182.0153 4179280.9397 301.96 
578182.0153 4179281.1196 301.90 
578182.0153 4179281.2995 301.81 
578182.0153 4179281.4794 301.67 
578182.0153 4179281.6593 301.46 
578182.0153 4179281.8392 301.17 
578182.0153 4179282.0191 300.80 
578182.0153 4179282.1990 300.35 
578182.0153 4179282.5588 296.10 
578182.0153 4179283.0985 299.21 
578182.0153 4179283.8181 296.03 
578182.0153 4179283.9980 295.89 
578182.0153 4179284.1779 295.84 
578182.0153 4179284.5377 295.91 
578182.0153 4179284.7176 295.99 
578182.0153 4179284.8975 296.07 
578182.0153 4179285.0774 296.14 
578182.0153 4179285.2573 296.19 
578182.0153 4179285.4372 296.21 
578182.0153 4179285.6171 296.21 
578182.0153 4179285.7970 296.18 
578182.0153 4179285.9769 296.14 
578182.0153 4179286.1568 296.09 
578182.0153 4179286.3367 296.05 
578182.0153 4179286.5166 296.01 
578182.0153 4179286.6965 295.98 
578182.0153 4179286.8764 295.96 
578182.0153 4179287.0563 295.96 
578182.0153 4179287.2362 295.97 
578182.0153 4179287.4161 295.98 
578182.0153 4179287.5959 296.01 
578182.0153 4179287.7758 296.03 
578182.0153 4179287.9557 296.06 
578182.0153 4179288.1356 296.08 
578182.0153 4179288.3155 296.10 
578182.0153 4179288.4954 296.12 
578182.0153 4179288.6753 296.13 
578182.0153 4179288.8552 296.14 
578182.0153 4179289.0351 296.15 
578182.0153 4179289.2150 296.28 
578182.0153 4179289.3949 296.15 
578182.0153 4179289.5748 296.15 
578182.0153 4179289.7547 296.14 
578182.0153 4179289.9346 296.30 
578182.0153 4179290.1145 296.14 
578182.0153 4179290.2944 296.14 
578182.0153 4179290.4743 296.19 
578182.0153 4179290.6542 296.14 
578182.0153 4179290.8341 296.14 
578182.0153 4179291.1939 296.12 
578182.0153 4179291.3738 296.10 
578182.1952 4179263.4897 295.95 
578182.1952 4179263.6696 295.93 
578182.1952 4179263.8495 295.92 
578182.1952 4179264.0294 295.92 
578182.1952 4179264.2093 295.92 
578182.1952 4179264.3892 295.93 
578182.1952 4179264.5691 295.96 
578182.1952 4179264.7490 295.99 
578182.1952 4179265.2887 301.34 
578182.1952 4179265.8284 296.30 
578182.1952 4179266.0083 296.35 
578182.1952 4179266.1882 296.39 
578182.1952 4179266.3681 296.42 
578182.1952 4179266.5479 296.43 
578182.1952 4179266.7278 296.43 
578182.1952 4179266.9077 296.41 
578182.1952 4179267.0876 296.38 
578182.1952 4179267.2675 296.34 
578182.1952 4179267.4474 296.29 
578182.1952 4179267.6273 296.25 
578182.1952 4179267.8072 296.20 
578182.1952 4179267.9871 296.17 
578182.1952 4179268.1670 296.14 
578182.1952 4179268.3469 296.13 
578182.1952 4179268.5268 296.12 
578182.1952 4179268.7067 296.12 
578182.1952 4179268.8866 296.12 
578182.1952 4179269.0665 296.12 
578182.1952 4179269.2464 296.11 
578182.1952 4179269.4263 296.10 
578182.1952 4179269.6062 296.17 
578182.1952 4179269.7861 296.06 
578182.1952 4179269.9660 296.00 
578182.1952 4179270.1459 296.02 
578182.1952 4179270.3258 296.01 
578182.1952 4179270.5057 296.02 
578182.1952 4179270.6856 295.99 
578182.1952 4179270.8655 296.07 
578182.1952 4179271.4052 296.20 
578182.1952 4179271.5851 296.04 
578182.1952 4179271.7650 296.23 
578182.1952 4179271.9449 296.20 
578182.1952 4179272.1248 296.15 
578182.1952 4179272.3047 296.20 
578182.1952 4179272.4846 296.00 
578182.1952 4179272.8444 296.21 
578182.1952 4179273.2042 295.99 
578182.1952 4179273.3841 296.09 
578182.1952 4179275.3629 301.74 
578182.1952 4179276.2624 301.51 
578182.1952 4179276.6222 301.92 
578182.1952 4179276.8021 301.86 
578182.1952 4179276.9820 301.98 
578182.1952 4179277.1619 301.82 
578182.1952 4179277.3418 301.84 
578182.1952 4179277.5217 302.04 
578182.1952 4179277.7016 301.93 
578182.1952 4179277.8815 302.00 
578182.1952 4179278.0614 302.07 
578182.1952 4179278.2413 302.13 
578182.1952 4179278.4212 302.20 
578182.1952 4179278.6011 302.25 
578182.1952 4179278.7810 302.29 
578182.1952 4179278.9609 302.29 
578182.1952 4179279.1408 302.28 
578182.1952 4179279.3207 302.26 
578182.1952 4179279.5006 302.13 
578182.1952 4179279.6805 302.17 
578182.1952 4179279.8604 302.11 
578182.1952 4179280.0403 302.23 
578182.1952 4179280.2202 302.01 
578182.1952 4179280.4001 301.98 
578182.1952 4179280.5799 301.83 
578182.1952 4179280.7598 301.98 
578182.1952 4179280.9397 301.98 
578182.1952 4179281.2995 301.96 
578182.1952 4179281.6593 301.76 
578182.1952 4179281.8392 301.54 
578182.1952 4179283.2784 296.12 
578182.1952 4179283.6382 295.83 
578182.1952 4179283.9980 295.95 
578182.1952 4179284.3578 296.18 
578182.1952 4179284.7176 295.98 
578182.1952 4179284.8975 296.19 
578182.1952 4179285.0774 296.13 
578182.1952 4179285.2573 296.18 
578182.1952 4179285.4372 296.20 
578182.1952 4179285.6171 296.20 
578182.1952 4179285.7970 296.17 
578182.1952 4179285.9769 296.13 
578182.1952 4179286.1568 296.08 
578182.1952 4179286.3367 296.04 
578182.1952 4179286.5166 296.00 
578182.1952 4179286.6965 295.97 
578182.1952 4179287.0563 295.96 
578182.1952 4179287.2362 295.97 
578182.1952 4179287.4161 295.98 
578182.1952 4179287.5959 296.01 
578182.1952 4179287.7758 296.04 
578182.1952 4179287.9557 296.06 
578182.1952 4179288.1356 296.09 
578182.1952 4179288.3155 296.11 
578182.1952 4179288.4954 296.13 
578182.1952 4179288.6753 296.14 
578182.1952 4179288.8552 296.15 
578182.1952 4179289.0351 296.16 
578182.1952 4179289.2150 296.16 
578182.1952 4179289.3949 296.15 
578182.1952 4179289.5748 296.15 
578182.1952 4179289.7547 296.14 
578182.1952 4179289.9346 296.13 
578182.1952 4179290.1145 296.12 
578182.1952 4179290.2944 296.12 
578182.1952 4179290.4743 296.11 
578182.1952 4179290.6542 296.10 
578182.1952 4179290.8341 295.94 
578182.1952 4179291.0140 296.08 
578182.1952 4179291.1939 296.07 
578182.1952 4179291.5537 296.10 
578182.3751 4179263.1299 295.80 
578182.3751 4179263.4897 295.94 
578182.3751 4179263.8495 295.94 
578182.3751 4179264.0294 295.91 
578182.3751 4179264.3892 295.92 
578182.3751 4179264.5691 295.94 
578182.3751 4179264.7490 295.97 
578182.3751 4179264.9289 296.01 
578182.3751 4179265.1088 296.07 
578182.3751 4179265.6485 296.27 
578182.3751 4179265.8284 296.34 
578182.3751 4179266.0083 296.41 
578182.3751 4179266.1882 296.46 
578182.3751 4179266.3681 296.50 
578182.3751 4179266.5479 296.52 
578182.3751 4179266.7278 296.52 
578182.3751 4179267.2675 296.40 
578182.3751 4179267.4474 296.34 
578182.3751 4179267.6273 296.28 
578182.3751 4179267.8072 296.22 
578182.3751 4179267.9871 296.18 
578182.3751 4179268.1670 296.14 
578182.3751 4179268.3469 296.12 
578182.3751 4179268.5268 296.11 
578182.3751 4179268.7067 296.10 
578182.3751 4179268.8866 296.10 
578182.3751 4179269.0665 296.10 
578182.3751 4179269.2464 296.09 
578182.3751 4179269.4263 296.08 
578182.3751 4179269.6062 296.06 
578182.3751 4179269.7861 296.04 
578182.3751 4179269.9660 296.03 
578182.3751 4179270.1459 296.01 
578182.3751 4179270.3258 296.01 
578182.3751 4179270.5057 296.03 
578182.3751 4179270.6856 296.06 
578182.3751 4179270.8655 296.10 
578182.3751 4179271.2253 296.01 
578182.3751 4179271.4052 296.23 
578182.3751 4179271.5851 296.25 
578182.3751 4179271.7650 296.23 
578182.3751 4179271.9449 296.19 
578182.3751 4179272.1248 296.12 
578182.3751 4179272.3047 296.12 
578182.3751 4179272.4846 295.95 
578182.3751 4179272.6645 295.89 
578182.3751 4179273.0243 295.93 
578182.3751 4179273.2042 296.07 
578182.3751 4179275.1830 301.65 
578182.3751 4179275.3629 301.90 
578182.3751 4179275.9026 302.09 
578182.3751 4179276.6222 301.83 
578182.3751 4179276.8021 301.79 
578182.3751 4179276.9820 301.78 
578182.3751 4179277.1619 301.79 
578182.3751 4179277.3418 301.83 
578182.3751 4179277.5217 301.88 
578182.3751 4179277.7016 301.94 
578182.3751 4179277.8815 302.00 
578182.3751 4179278.0614 302.07 
578182.3751 4179278.2413 302.13 
578182.3751 4179278.4212 302.18 
578182.3751 4179278.6011 302.22 
578182.3751 4179278.7810 302.25 
578182.3751 4179278.9609 302.26 
578182.3751 4179279.1408 302.25 
578182.3751 4179279.3207 302.32 
578182.3751 4179279.5006 302.17 
578182.3751 4179279.6805 302.11 
578182.3751 4179279.8604 302.16 
578182.3751 4179280.0403 301.99 
578182.3751 4179280.2202 301.94 
578182.3751 4179280.4001 302.01 
