# .PCD v.7 - Point Cloud Data file format
VERSION .7
FIELDS x y z
SIZE 4 4 4
TYPE F F F
COUNT 1 1 1
WIDTH 280
HEIGHT 1
VIEWPOINT 0 0 0 1 0 0 0
POINTS 280
DATA ascii
578174.4 4179290 295.75
578174.6 4179291 295.76
578174.1 4179288 295.81
578174.4 4179290 295.81
578174.6 4179290 295.83
578174.6 4179291 295.8267
578175.4 4179292 295.83
578175.2 4179290 295.84
578174.6 4179290 295.84
578174.4 4179291 295.84
578174.8 4179291 295.86
578177 4179285 295.87
578174.2 4179290 295.87
578174.8 4179291 295.87
578177.5 4179291 295.87
578174.8 4179291 295.87
578174.4 4179289 295.88
578174.2 4179290 295.88
578174.6 4179290 295.88
578174.8 4179290 295.88
578174.4 4179290 295.89
578174.6 4179290 295.89
578174.8 4179290 295.89
578177 4179284 295.9
578174.8 4179290 295.9
578176.4 4179290 295.9
578175 4179291 295.9
578175.4 4179291 295.9
578175 4179291 295.9
578174.6 4179290 295.91
578175 4179291 295.91
578176.6 4179291 295.91
578175.8 4179292 295.91
578176.1 4179286 295.92
578174.2 4179290 295.92
578174.4 4179290 295.92
578174.8 4179290 295.92
578175 4179290 295.92
578176.6 4179284 295.93
578176.4 4179284 295.93
578176.4 4179284 295.93
578176.4 4179285 295.93
578176.6 4179285 295.93
578176.2 4179288 295.93
578175 4179290 295.93
578176.2 4179284 295.94
578176.4 4179284 295.94
578176.6 4179284 295.94
578176.2 4179284 295.94
578176.8 4179284 295.94
578176.2 4179285 295.94
578176.8 4179285 295.94
578176.2 4179285 295.94
578176.4 4179285 295.94
578176.6 4179285 295.94
578174.6 4179290 295.94
578174.8 4179290 295.94
578175.2 4179291 295.94
578177 4179291 295.94
578175.2 4179291 295.94
578176.4 4179291 295.94
578176.2 4179284 295.95
578176.6 4179284 295.95
578176.8 4179284 295.95
578175.8 4179285 295.95
578176.4 4179285 295.95
578176.6 4179285 295.95
578176.8 4179285 295.95
578175 4179290 295.95
578175.2 4179291 295.95
578176.6 4179291 295.95
578176.4 4179284 295.96
578175.9 4179284 295.96
578176.1 4179284 295.96
578177 4179284 295.96
578176.1 4179285 295.96
578177 4179285 295.96
578176.2 4179285 295.96
578175.4 4179288 295.96
578174.4 4179290 295.96
578174.6 4179290 295.96
578174.8 4179290 295.96
578175 4179290 295.96
578175.2 4179291 295.96
578176.8 4179291 295.96
578177 4179291 295.96
578177.2 4179291 295.96
578175.4 4179291 295.96
578176.2 4179284 295.97
578176.6 4179284 295.97
578176.1 4179284 295.97
578176.8 4179284 295.97
578176.1 4179285 295.97
578176.2 4179285 295.97
578176.4 4179285 295.97
578176.6 4179285 295.97
578177 4179285 295.97
578175.6 4179289 295.97
578174.2 4179290 295.97
578175 4179290 295.97
578176.4 4179291 295.97
578176.6 4179291 295.97
578177.2 4179291 295.97
578177.3 4179291 295.97
578176.2 4179291 295.97
578176.4 4179284 295.98
578176.1 4179284 295.98
578177.2 4179284 295.98
578177.2 4179285 295.98
578176.8 4179285 295.98
578177.2 4179285 295.98
578174.8 4179290 295.98
578175.2 4179290 295.98
578175.4 4179291 295.98
578177 4179291 295.98
578177.2 4179291 295.98
578177.3 4179291 295.98
578176.2 4179291 295.98
578176.1 4179284 295.99
578176.2 4179284 295.99
578176.8 4179284 295.99
578177 4179284 295.99
578176.1 4179285 295.99
578177 4179285 295.99
578176.2 4179286 295.99
578176.4 4179286 295.99
578176.6 4179286 295.99
578175.4 4179289 295.99
578174.2 4179289 295.99
578174.4 4179289 295.99
578174.6 4179289 295.99
578175 4179290 295.99
578175.2 4179290 295.99
578175.4 4179291 295.99
578176.2 4179291 295.99
578176.4 4179291 295.99
578176.8 4179291 295.99
578175.6 4179291 295.99
578175.8 4179291 295.99
578176.1 4179291 295.99
578175.9 4179284 296
578175.9 4179285 296
578175.9 4179285 296
578176.8 4179286 296
578176.1 4179286 296
578176.2 4179288 296
578174.8 4179289 296
578175 4179290 296
578175.2 4179290 296
578175.6 4179290 296
578176.1 4179291 296
578176.6 4179291 296
578175.8 4179291 296
578175.9 4179291 296
578175.8 4179284 296.02
578176.1 4179284 296.01
578176.2 4179284 296.01
578176.4 4179284 296.01
578175.9 4179284 296.01
578175.9 4179285 296.015
578175.9 4179286 296.02
578176.1 4179286 296.01
578176.2 4179286 296.01
578176.4 4179286 296.01
578175 4179286 296.02
578175.2 4179286 296.01
578175.4 4179287 296.02
578174.2 4179288 296.02
578174.2 4179289 296.02
578174.6 4179289 296.02
578174.8 4179289 296.02
578175 4179289 296.01
578175.2 4179290 296.02
578175.4 4179290 296.02
578175.6 4179291 296.015
578175.8 4179291 296.015
578175.9 4179291 296.01
578176.1 4179291 296.02
578176.2 4179291 296.01
578176.4 4179291 296.02
578176.2 4179284 296.03
578175.9 4179284 296.03
578176.1 4179284 296.03
578175.9 4179286 296.03
578175.9 4179286 296.03
578176.1 4179286 296.03
578176.2 4179286 296.03
578176.1 4179288 296.03
578176.2 4179288 296.03
578175.2 4179288 296.03
578176.1 4179288 296.03
578176.2 4179288 296.03
578175 4179289 296.03
578175.2 4179290 296.03
578175.9 4179291 296.03
578175.9 4179284 296.04
578175.8 4179285 296.05
578176.1 4179285 296.04
578175.8 4179286 296.05
578175.8 4179286 296.05
578175.8 4179286 296.05
578175.8 4179286 296.05
578175.9 4179286 296.05
578175.9 4179287 296.05
578175.8 4179288 296.05
578175.9 4179288 296.04
578176.1 4179288 296.045
578175.8 4179288 296.05
578175.9 4179288 296.04
578175.8 4179288 296.05
578175.9 4179288 296.04
578174.2 4179288 296.05
578175.8 4179288 296.05
578175.9 4179288 296.045
578176.1 4179288 296.04
578174.2 4179289 296.04
578174.4 4179288 296.045
578174.6 4179289 296.04
578174.8 4179289 296.04
578175 4179289 296.04
578175.2 4179289 296.05
578175.2 4179289 296.04
578175.4 4179290 296.05
578175.4 4179290 296.04
578175.8 4179291 296.04
578175.9 4179291 296.05
578176.1 4179291 296.04
578175.6 4179286 296.06
578175.6 4179286 296.06
578175.8 4179286 296.06
578175.6 4179287 296.06
578175.8 4179287 296.06
578175.8 4179287 296.06
578175.8 4179287 296.06
578175.8 4179288 296.06
578174.4 4179289 296.06
578174.6 4179289 296.06
578174.8 4179289 296.06
578175 4179289 296.06
578175.4 4179289 296.06
578175.8 4179288 296.06
578175.4 4179289 296.06
578175.4 4179289 296.06
578175.4 4179290 296.06
578175.6 4179290 296.06
578175.8 4179290 296.06
578175.2 4179286 296.08
578175.4 4179286 296.07
578175.2 4179287 296.08
578175.4 4179287 296.07
578175.6 4179287 296.07
578174.4 4179288 296.07
578174.4 4179288 296.07
578175.6 4179288 296.07
578174.4 4179288 296.07
578175.4 4179288 296.08
578175.6 4179288 296.07
578174.4 4179288 296.07
578174.6 4179288 296.08
578175.2 4179288 296.08
578175.4 4179288 296.07
578175.6 4179288 296.07
578174.6 4179288 296.07
578174.8 4179288 296.08
578175 4179288 296.07
578175.2 4179288 296.07
578175.4 4179288 296.07
578175.6 4179290 296.07
578174.6 4179288 296.09
578174.6 4179288 296.09
578174.1 4179288 296.09
578174.6 4179288 296.09
578174.8 4179288 296.09
578175 4179288 296.09
578175.2 4179288 296.09
578174.6 4179288 296.1
578174.8 4179288 296.11
578174.8 4179288 296.11
578174.8 4179288 296.1
578175 4179288 296.1
