# .PCD v.7 - Point Cloud Data file format
VERSION .7
FIELDS x y z
SIZE 4 4 4
TYPE F F F
COUNT 1 1 1
WIDTH 78
HEIGHT 1
VIEWPOINT 0 0 0 1 0 0 0
POINTS 78
DATA ascii
578173.9375 4179285.75 296.029998779
578173.9375 4179286.5 296.029998779
578174.125 4179284 295.899993896
578174.125 4179284.25 295.910003662
578174.125 4179284.5 295.959991455
578174.125 4179284.75 295.970001221
578174.125 4179285 295.980010986
578174.125 4179285 296.010009766
578174.125 4179285.25 296.029998779
578174.125 4179287 296.010009766
578174.125 4179287.5 295.809997559
578174.25 4179283.75 296.010009766
578174.25 4179287.5 296.019989014
578174.25 4179289 296.019989014
578174.25 4179289.25 295.989990234
578174.25 4179289.5 295.970001221
578174.25 4179289.5 295.920013428
578174.25 4179289.75 295.880004883
578174.25 4179290 295.869995117
578174.4375 4179289 295.880004883
578174.4375 4179289.25 295.989990234
578174.4375 4179289.5 295.959991455
578174.4375 4179289.5 295.920013428
578174.4375 4179289.75 295.890014648
578174.4375 4179290.25 295.809997559
578174.4375 4179290.5 295.75
578174.4375 4179291.25 295.839996338
578174.625 4179289.25 295.989990234
578174.625 4179289.5 295.959991455
578174.625 4179289.5 295.940002441
578174.625 4179289.75 295.910003662
578174.625 4179290 295.880004883
578174.625 4179290 295.890014648
578174.625 4179290.25 295.839996338
578174.625 4179290.5 295.829986572
578174.625 4179290.75 295.829986572
578174.625 4179290.75 295.820007324
578174.625 4179291 295.829986572
578174.625 4179291.25 295.760009766
578174.8125 4179285 295.989990234
578174.8125 4179289.5 295.980010986
578174.8125 4179289.5 295.959991455
578174.8125 4179289.75 295.940002441
578174.8125 4179290 295.920013428
578174.8125 4179290 295.899993896
578174.8125 4179290.25 295.890014648
578174.8125 4179290.5 295.880004883
578174.8125 4179290.75 295.869995117
578174.8125 4179290.75 295.859985352
578174.8125 4179291 295.859985352
578174.8125 4179291.25 295.869995117
578175 4179287.5 295.850006104
578175 4179289.75 295.970001221
578175 4179290 295.959991455
578175 4179290 295.950012207
578175 4179290.25 295.929992676
578175 4179290.5 295.920013428
578175 4179290.75 295.910003662
578175 4179290.75 295.910003662
578175 4179291 295.899993896
578175 4179291.25 295.899993896
578175.1875 4179285.75 295.959991455
578175.1875 4179289.75 295.839996338
578175.1875 4179290.75 295.959991455
578175.1875 4179290.75 295.950012207
578175.1875 4179291 295.940002441
578175.1875 4179291.25 295.940002441
578175.1875 4179291.25 295.940002441
578175.375 4179288.25 295.959991455
578175.375 4179291 295.899993896
578175.375 4179291.25 295.959991455
578175.375 4179291.5 295.829986572
578175.75 4179284.75 295.950012207
578175.75 4179291.5 295.910003662
578176.0625 4179285.5 295.920013428
578176.4375 4179288.75 295.890014648
578176.4375 4179290.5 295.899993896
578177 4179285 295.869995117
