# .PCD v.7 - Point Cloud Data file format
VERSION .7
FIELDS x y z
SIZE 4 4 4
TYPE F F F
COUNT 1 1 1
WIDTH 1761
HEIGHT 1
VIEWPOINT 0 0 0 1 0 0 0
POINTS 1761
DATA ascii
578197.5 4179269 294.59
578197.3 4179269 294.605
578197.5 4179269 294.605
578197.7 4179269 294.61
578197.3 4179269 294.62
578197.7 4179269 294.62
578198 4179269 294.62
578197.7 4179268 294.63
578197.1 4179269 294.64
578197.7 4179269 294.64
578197.3 4179270 294.64
578197.5 4179269 294.65
578197.5 4179270 294.65
578197.1 4179270 294.66
578197.5 4179273 294.66
578197.5 4179274 294.66
578197.1 4179269 294.67
578197.9 4179269 294.67
578195.5 4179271 294.67
578197.5 4179273 294.67
578197.3 4179273 294.67
578197.7 4179273 294.67
578197.5 4179274 294.67
578197.7 4179274 294.67
578194.4 4179277 294.67
578197.9 4179277 294.67
578198 4179277 294.67
578194.4 4179278 294.67
578197.9 4179278 294.67
578198 4179278 294.67
578197.3 4179269 294.68
578195.3 4179272 294.68
578197.3 4179273 294.68
578198 4179273 294.68
578197.7 4179274 294.68
578197.5 4179277 294.68
578197.9 4179277 294.68
578198 4179277 294.68
578194.2 4179277 294.68
578194.4 4179277 294.68
578197.5 4179277 294.68
578194.2 4179278 294.68
578197.9 4179278 294.68
578198 4179278 294.68
578197.7 4179278 294.68
578197.9 4179269 294.69
578196.9 4179270 294.69
578197.7 4179270 294.69
578197.7 4179273 294.69
578197.3 4179274 294.69
578197.7 4179274 294.69
578197.9 4179276 294.69
578194.4 4179277 294.69
578198.4 4179277 294.69
578194.4 4179278 294.69
578197.9 4179278 294.69
578197.9 4179269 294.7
578196.9 4179269 294.7
578195.3 4179271 294.7
578194.4 4179272 294.7
578195.1 4179272 294.7
578195.3 4179272 294.7
578197.5 4179273 294.7
578195.9 4179276 294.7
578197.7 4179276 294.7
578197.9 4179276 294.7
578198 4179276 294.7
578194.6 4179277 294.7
578198 4179278 294.7
578197.9 4179278 294.7
578197.9 4179279 294.7
578195.3 4179283 294.7
578197.1 4179270 294.71
578197.3 4179270 294.71
578195.1 4179271 294.71
578197.3 4179273 294.71
578197.7 4179274 294.71
578197.7 4179276 294.71
578194.6 4179278 294.71
578194.4 4179278 294.71
578198 4179278 294.71
578197.7 4179278 294.71
578197.5 4179279 294.71
578195.5 4179281 294.71
578197.5 4179268 294.72
578197.7 4179268 294.72
578197.5 4179270 294.72
578196.1 4179270 294.72
578195.3 4179271 294.72
578195.1 4179272 294.72
578195.3 4179272 294.72
578195.5 4179271 294.72
578197.1 4179273 294.72
578197.7 4179273 294.72
578197.1 4179273 294.72
578198.2 4179273 294.72
578194.4 4179273 294.72
578197.1 4179274 294.72
578197.9 4179274 294.72
578197.9 4179276 294.72
578197.7 4179276 294.72
578198 4179276 294.72
578194.4 4179277 294.72
578197.7 4179277 294.72
578194.1 4179277 294.72
578194.6 4179277 294.72
578197.7 4179277 294.72
578198.2 4179277 294.72
578194.1 4179278 294.72
578197.7 4179278 294.72
578194.6 4179278 294.72
578197.7 4179278 294.72
578194.2 4179278 294.72
578197.7 4179278 294.72
578197.5 4179278 294.72
578197.7 4179279 294.72
578197.5 4179279 294.72
578197.7 4179279 294.72
578194.6 4179282 294.72
578195.5 4179271 294.73
578194.9 4179272 294.73
578195.5 4179272 294.73
578197.9 4179273 294.73
578197.5 4179274 294.73
578197.9 4179274 294.73
578197.5 4179274 294.73
578197.7 4179274 294.73
578197.7 4179276 294.73
578193.4 4179276 294.73
578194.2 4179277 294.73
578198.2 4179277 294.73
578198.2 4179278 294.73
578197.5 4179278 294.73
578197.9 4179278 294.73
578197.3 4179279 294.73
578197.7 4179279 294.73
578197.3 4179279 294.73
578197.5 4179279 294.73
578197.1 4179269 294.74
578196.8 4179270 294.74
578195.1 4179271 294.74
578194.9 4179272 294.74
578195.1 4179272 294.74
578197.1 4179273 294.74
578197.9 4179273 294.74
578197.1 4179274 294.74
578194.8 4179274 294.74
578194.1 4179275 294.74
578197.7 4179276 294.74
578197.9 4179276 294.74
578198.4 4179276 294.74
578194.9 4179276 294.74
578194.6 4179277 294.74
578198.2 4179277 294.74
578194.1 4179277 294.74
578198 4179278 294.74
578197.3 4179279 294.74
578197.3 4179279 294.74
578196.9 4179280 294.74
578194.6 4179282 294.74
578196.8 4179269 294.75
578196.9 4179269 294.75
578197.9 4179270 294.75
578195.3 4179271 294.75
578195.5 4179271 294.75
578194.9 4179271 294.75
578195.5 4179272 294.75
578197.5 4179273 294.75
578197.9 4179274 294.75
578197.5 4179274 294.75
578197.7 4179274 294.75
578197.5 4179276 294.75
578197.7 4179276 294.75
578197.5 4179276 294.75
578198 4179276 294.75
578194.4 4179276 294.75
578194.9 4179277 294.75
578194.2 4179278 294.75
578194.4 4179278 294.75
578194.6 4179278 294.75
578197.5 4179278 294.75
578195.1 4179279 294.75
578196.8 4179279 294.75
578197.9 4179279 294.75
578197.1 4179279 294.75
578197.5 4179279 294.75
578197.3 4179268 294.76
578197.9 4179268 294.76
578197.7 4179269 294.77
578196.8 4179270 294.76
578197.7 4179270 294.76
578198 4179270 294.76
578195.1 4179270 294.77
578194.9 4179272 294.76
578195.1 4179272 294.77
578197.7 4179273 294.76
578197.9 4179273 294.77
578196.4 4179273 294.76
578196.9 4179273 294.77
578196.9 4179273 294.77
578197.1 4179274 294.77
578197.9 4179274 294.76
578197.7 4179274 294.76
578197.5 4179275 294.77
578197.7 4179275 294.77
578197.1 4179275 294.77
578197.3 4179275 294.765
578197.5 4179275 294.76
578197.7 4179275 294.77
578197.1 4179276 294.77
578197.3 4179276 294.76
578197.3 4179276 294.76
578194.8 4179276 294.76
578197.3 4179276 294.77
578197.9 4179276 294.76
578194.2 4179276 294.76
578194.6 4179276 294.77
578198.2 4179276 294.76
578194.1 4179277 294.76
578194.2 4179277 294.77
578194.9 4179277 294.77
578194.1 4179278 294.76
578194.6 4179278 294.77
578198.2 4179278 294.76
578197.3 4179278 294.76
578197.1 4179279 294.76
578196.9 4179280 294.77
578197.1 4179280 294.76
578197.3 4179280 294.77
578196.1 4179281 294.76
578196.4 4179281 294.76
578195.5 4179283 294.77
578196.9 4179268 294.78
578196.8 4179269 294.78
578195.3 4179270 294.78
578195.7 4179271 294.78
578195.7 4179271 294.78
578195.5 4179272 294.78
578195.7 4179271 294.78
578195.5 4179272 294.78
578194.9 4179272 294.78
578195.3 4179272 294.78
578196.9 4179274 294.78
578197.3 4179274 294.78
578197.9 4179274 294.78
578197.3 4179275 294.78
578197.7 4179275 294.78
578197.1 4179275 294.78
578197.7 4179275 294.78
578197.9 4179276 294.78
578198 4179276 294.78
578194.1 4179276 294.78
578197.5 4179276 294.78
578194.8 4179277 294.78
578193.9 4179277 294.78
578197.7 4179277 294.78
578194.8 4179278 294.78
578197.5 4179278 294.78
578194.4 4179278 294.78
578196.9 4179279 294.78
578197.5 4179280 294.78
578197.1 4179280 294.78
578196.1 4179280 294.78
578194.9 4179283 294.78
578195.7 4179284 294.78
578198 4179269 294.79
578196.6 4179270 294.8
578196.9 4179270 294.79
578197.3 4179270 294.79
578195.5 4179270 294.79
578194.9 4179271 294.79
578195.7 4179271 294.79
578194.9 4179272 294.7933
578195.3 4179271 294.79
578195.7 4179272 294.8
578196.2 4179272 294.8
578194.8 4179272 294.8
578195.1 4179272 294.8
578196.9 4179273 294.79
578194.8 4179274 294.79
578196.9 4179274 294.8
578198.2 4179274 294.79
578197.1 4179274 294.79
578198.4 4179274 294.79
578198.2 4179274 294.8
578197.5 4179274 294.8
578197.9 4179274 294.79
578195.5 4179275 294.8
578197.1 4179275 294.79
578197.3 4179275 294.79
578196.9 4179275 294.795
578196.9 4179276 294.8
578197.7 4179276 294.79
578197.9 4179276 294.79
578196.6 4179276 294.8
578197.1 4179276 294.79
578193.2 4179276 294.8
578197.3 4179276 294.79
578194.2 4179276 294.8
578194.4 4179276 294.79
578194.6 4179276 294.8
578194.8 4179276 294.8
578197.5 4179276 294.79
578198.2 4179276 294.79
578198.4 4179276 294.8
578193.9 4179277 294.8
578193.9 4179277 294.79
578193.9 4179278 294.79
578193.9 4179278 294.8
578194.8 4179278 294.8
578194.1 4179278 294.79
578197.5 4179278 294.8
578198.2 4179278 294.79
578194.2 4179278 294.8
578194.6 4179278 294.8
578197.3 4179278 294.8
578198 4179278 294.79
578197.1 4179279 294.79
578196.8 4179280 294.79
578197.7 4179279 294.79
578196.8 4179280 294.8
578196.9 4179280 294.79
578197.3 4179280 294.79
578195.5 4179282 294.79
578194.9 4179282 294.8
578194.6 4179283 294.79
578194.9 4179283 294.7967
578194.9 4179283 294.79
578195.1 4179283 294.8
578194.9 4179283 294.79
578195.1 4179283 294.79
578195.1 4179284 294.8
578197.7 4179268 294.81
578196.9 4179269 294.81
578197.9 4179270 294.81
578196.8 4179270 294.81
578197.5 4179270 294.81
578195.7 4179270 294.81
578195.7 4179272 294.81
578194.9 4179272 294.81
578195.3 4179272 294.81
578195.5 4179272 294.81
578197.5 4179272 294.81
578194.8 4179274 294.81
578198 4179274 294.81
578194.6 4179274 294.81
578194.8 4179274 294.81
578194.9 4179274 294.81
578197.1 4179274 294.81
578197.1 4179275 294.81
578197.9 4179275 294.81
578194.1 4179275 294.81
578197.9 4179275 294.81
578196.9 4179276 294.81
578197.1 4179276 294.81
578198 4179276 294.81
578197.5 4179278 294.81
578194.8 4179278 294.81
578196.9 4179279 294.81
578196.9 4179279 294.81
578196.6 4179280 294.81
578196.8 4179280 294.81
578194.6 4179281 294.81
578194.2 4179281 294.81
578195.5 4179282 294.81
578194.8 4179282 294.81
578195.1 4179283 294.81
578194.9 4179284 294.81
578195.3 4179284 294.81
578195.3 4179284 294.81
578197.5 4179268 294.82
578197.1 4179268 294.83
578196.6 4179269 294.83
578196.6 4179270 294.83
578196.2 4179270 294.83
578194.4 4179271 294.82
578194.8 4179271 294.83
578194.8 4179272 294.82
578194.9 4179272 294.83
578195.1 4179272 294.83
578193.7 4179272 294.82
578196.9 4179273 294.83
578197.3 4179272 294.82
578197.7 4179272 294.83
578197.9 4179273 294.82
578198 4179272 294.83
578196.8 4179273 294.83
578196.8 4179273 294.83
578198 4179273 294.82
578193.9 4179274 294.83
578194.6 4179274 294.825
578194.8 4179274 294.83
578194.9 4179274 294.82
578196.9 4179274 294.83
578198 4179274 294.82
578194.6 4179274 294.82
578195.1 4179274 294.83
578196.6 4179274 294.82
578198 4179274 294.83
578194.6 4179274 294.82
578194.8 4179274 294.82
578194.9 4179274 294.82
578197.1 4179274 294.82
578197.1 4179274 294.82
578196.6 4179275 294.82
578196.9 4179275 294.82
578197.1 4179275 294.82
578197.9 4179275 294.82
578196.6 4179275 294.83
578196.8 4179275 294.83
578196.8 4179276 294.82
578198 4179276 294.83
578194.2 4179276 294.83
578194.4 4179276 294.83
578194.6 4179276 294.83
578197.3 4179276 294.82
578198.2 4179276 294.82
578194.1 4179276 294.82
578194.8 4179276 294.82
578197.5 4179277 294.82
578195.1 4179278 294.83
578197.5 4179278 294.82
578194.1 4179278 294.83
578194.2 4179278 294.83
578193.9 4179278 294.82
578194.9 4179278 294.83
578194.1 4179278 294.82
578194.2 4179278 294.83
578194.4 4179278 294.82
578194.6 4179278 294.83
578197.1 4179278 294.83
578197.3 4179278 294.83
578196.1 4179279 294.83
578196.6 4179280 294.825
578196.8 4179279 294.82
578197.7 4179280 294.82
578196.4 4179280 294.83
578196.6 4179280 294.82
578197.3 4179280 294.82
578197.5 4179280 294.82
578196.4 4179280 294.83
578196.6 4179280 294.82
578196.8 4179280 294.82
578196.9 4179280 294.82
578197.1 4179280 294.83
578196.6 4179280 294.83
578196.8 4179280 294.83
578194.9 4179282 294.83
578194.8 4179282 294.82
578194.9 4179282 294.82
578195.1 4179282 294.83
578194.4 4179283 294.82
578194.6 4179283 294.83
578195.1 4179283 294.82
578194.8 4179283 294.82
578195.1 4179284 294.82
578195.3 4179284 294.83
578195.5 4179284 294.83
578198 4179268 294.84
578197.7 4179270 294.84
578195.1 4179270 294.84
578195.5 4179270 294.84
578195.7 4179270 294.84
578194.9 4179271 294.84
578195.9 4179271 294.84
578195.7 4179272 294.84
578194.8 4179272 294.84
578195.3 4179272 294.84
578196.8 4179273 294.84
578194.8 4179273 294.84
578194.4 4179274 294.84
578194.9 4179274 294.84
578195.1 4179274 294.84
578194.4 4179274 294.84
578195.5 4179274 294.84
578198 4179274 294.84
578195.1 4179274 294.84
578194.8 4179274 294.84
578194.9 4179274 294.84
578197.3 4179274 294.84
578196.9 4179275 294.84
578197.5 4179275 294.84
578196.6 4179276 294.84
578196.8 4179276 294.84
578194.1 4179276 294.84
578193.9 4179276 294.84
578194.8 4179278 294.84
578196.4 4179280 294.84
578196.4 4179280 294.84
578196.9 4179280 294.84
578196.4 4179280 294.84
578196.6 4179280 294.84
578194.9 4179282 294.84
578194.8 4179282 294.84
578195.1 4179282 294.84
578195.1 4179282 294.84
578194.6 4179283 294.84
578194.9 4179284 294.84
578195.5 4179284 294.84
578195.7 4179284 294.84
578197.9 4179268 294.85
578196.8 4179269 294.85
578196.4 4179270 294.85
578196.4 4179270 294.85
578197.9 4179270 294.86
578195.9 4179270 294.855
578198 4179270 294.85
578195.9 4179271 294.85
578195.9 4179271 294.86
578195.7 4179272 294.86
578194.8 4179272 294.85
578194.9 4179273 294.86
578194.9 4179273 294.8567
578195.1 4179272 294.85
578195.3 4179272 294.86
578197.1 4179272 294.85
578198 4179273 294.86
578194.8 4179273 294.85
578194.9 4179273 294.86
578194.6 4179273 294.85
578194.9 4179273 294.85
578194.4 4179274 294.85
578195.1 4179274 294.855
578196.8 4179274 294.85
578195.3 4179274 294.86
578196.9 4179274 294.85
578194.4 4179274 294.85
578195.3 4179274 294.86
578198 4179274 294.85
578194.4 4179274 294.86
578194.6 4179274 294.85
578195.1 4179274 294.85
578195.3 4179274 294.86
578195.7 4179274 294.86
578198 4179274 294.86
578194.8 4179275 294.86
578194.9 4179275 294.85
578195.1 4179275 294.86
578196.8 4179275 294.85
578196.9 4179275 294.86
578197.3 4179275 294.86
578193.9 4179275 294.85
578195.7 4179275 294.86
578196.2 4179275 294.86
578196.4 4179275 294.85
578196.6 4179275 294.85
578196.2 4179276 294.86
578196.4 4179276 294.85
578198 4179276 294.86
578192.2 4179276 294.86
578193.9 4179276 294.86
578194.2 4179276 294.86
578194.4 4179276 294.86
578194.6 4179276 294.86
578194.8 4179276 294.85
578196.9 4179276 294.85
578197.1 4179276 294.85
578198.2 4179276 294.86
578193.7 4179276 294.86
578194.9 4179276 294.86
578197.3 4179276 294.85
578193.7 4179277 294.86
578194.9 4179277 294.85
578193.2 4179277 294.85
578193.7 4179277 294.8533
578194.9 4179277 294.86
578195.1 4179277 294.86
578193.9 4179278 294.85
578194.2 4179278 294.86
578194.4 4179278 294.85
578194.6 4179278 294.86
578194.8 4179278 294.86
578195.1 4179278 294.85
578196.8 4179279 294.86
578196.4 4179280 294.85
578196.8 4179279 294.85
578194.4 4179280 294.86
578196.2 4179280 294.85
578197.5 4179280 294.85
578196.2 4179280 294.85
578197.3 4179280 294.85
578197.1 4179280 294.85
578196.1 4179280 294.86
578196.2 4179280 294.85
578196.4 4179280 294.85
578196.6 4179280 294.86
578196.8 4179280 294.855
578196.9 4179280 294.86
578195.3 4179281 294.86
578194.9 4179282 294.855
578195.1 4179282 294.8533
578195.3 4179282 294.86
578194.8 4179282 294.85
578195.1 4179282 294.85
578194.6 4179282 294.85
578195.3 4179283 294.855
578194.8 4179284 294.85
578195.5 4179284 294.86
578195.1 4179284 294.85
578195.3 4179284 294.86
578195.7 4179284 294.86
578195.7 4179284 294.86
578197.3 4179268 294.87
578196.4 4179270 294.87
578196.9 4179270 294.87
578195.3 4179270 294.87
578194.8 4179271 294.87
578194.6 4179272 294.87
578195.9 4179271 294.87
578194.6 4179272 294.87
578195.5 4179272 294.87
578194.6 4179272 294.87
578195.1 4179273 294.87
578196.8 4179273 294.87
578197.9 4179272 294.87
578194.6 4179273 294.87
578195.1 4179273 294.87
578195.1 4179273 294.87
578194.2 4179274 294.87
578195.3 4179274 294.87
578196.8 4179274 294.87
578194.2 4179274 294.87
578196.9 4179274 294.87
578194.2 4179274 294.87
578196.9 4179274 294.87
578196.9 4179274 294.87
578194.6 4179275 294.87
578194.9 4179275 294.87
578195.1 4179275 294.87
578195.3 4179275 294.87
578196.4 4179275 294.87
578196.6 4179275 294.87
578196.8 4179275 294.87
578198 4179275 294.87
578195.9 4179275 294.87
578196.1 4179275 294.87
578196.2 4179275 294.87
578196.8 4179275 294.87
578198 4179275 294.87
578196.1 4179276 294.87
578193.9 4179276 294.87
578194.1 4179276 294.87
578194.9 4179276 294.87
578193.7 4179276 294.87
578194.9 4179277 294.87
578193.7 4179278 294.87
578197.3 4179278 294.87
578192.2 4179279 294.87
578196.2 4179280 294.87
578196.4 4179279 294.87
578196.6 4179279 294.87
578196.1 4179280 294.87
578196.2 4179280 294.87
578196.1 4179280 294.87
578197.3 4179280 294.87
578195.7 4179281 294.87
578195.9 4179281 294.87
578196.4 4179281 294.87
578195.3 4179281 294.87
578195.5 4179281 294.87
578195.7 4179281 294.87
578195.9 4179281 294.87
578195.1 4179281 294.87
578195.5 4179281 294.87
578196.1 4179281 294.87
578194.8 4179282 294.87
578194.9 4179282 294.87
578195.3 4179282 294.87
578195.3 4179283 294.87
578194.6 4179283 294.87
578195.5 4179284 294.87
578195.9 4179284 294.87
578195.9 4179284 294.87
578196.6 4179269 294.88
578196.1 4179270 294.88
578196.2 4179270 294.88
578196.2 4179270 294.88
578196.4 4179270 294.88
578196.6 4179270 294.88
578196.8 4179270 294.88
578196.9 4179270 294.88
578195.9 4179270 294.88
578196.1 4179270 294.88
578195.9 4179272 294.88
578194.6 4179272 294.88
578195.7 4179272 294.88
578194.6 4179272 294.88
578194.6 4179273 294.88
578195.3 4179273 294.88
578195.5 4179273 294.88
578196.9 4179272 294.88
578193.9 4179273 294.88
578194.4 4179273 294.88
578195.3 4179273 294.88
578196.6 4179273 294.88
578194.2 4179274 294.88
578195.3 4179274 294.88
578194.2 4179274 294.88
578194.4 4179275 294.88
578195.1 4179275 294.88
578195.3 4179275 294.88
578195.5 4179275 294.88
578196.4 4179275 294.88
578198 4179275 294.88
578195.5 4179275 294.88
578195.9 4179275 294.88
578196.1 4179275 294.88
578198 4179275 294.88
578195.7 4179276 294.88
578195.9 4179276 294.88
578196.4 4179276 294.88
578193.7 4179276 294.88
578193 4179277 294.88
578193.7 4179278 294.88
578193.9 4179278 294.88
578194.8 4179278 294.88
578197.1 4179278 294.88
578194.4 4179279 294.88
578196.1 4179280 294.88
578195.9 4179280 294.88
578193.7 4179280 294.88
578195.5 4179281 294.88
578195.7 4179280 294.88
578196.6 4179281 294.88
578196.8 4179281 294.88
578195.1 4179281 294.88
578195.3 4179281 294.88
578196.1 4179281 294.88
578194.9 4179281 294.88
578194.8 4179282 294.88
578195.5 4179282 294.88
578194.6 4179282 294.88
578195.3 4179282 294.88
578194.4 4179283 294.88
578195.7 4179284 294.88
578195.5 4179284 294.88
578196.1 4179284 294.88
578196.2 4179270 294.89
578196.1 4179270 294.89
578197.3 4179270 294.89
578195.7 4179270 294.89
578195.9 4179272 294.89
578197.5 4179272 294.89
578194.4 4179273 294.89
578195.3 4179273 294.89
578195.5 4179272 294.89
578196.6 4179273 294.89
578194.2 4179273 294.89
578195.3 4179273 294.89
578196.6 4179273 294.89
578197.1 4179273 294.89
578195.3 4179274 294.89
578196.6 4179274 294.89
578196.8 4179274 294.89
578195.5 4179274 294.89
578195.5 4179274 294.89
578194.6 4179275 294.89
578194.9 4179275 294.89
578195.5 4179275 294.89
578195.7 4179275 294.89
578195.9 4179275 294.89
578196.2 4179275 294.89
578195.1 4179275 294.89
578195.3 4179275 294.89
578195.3 4179276 294.89
578195.5 4179276 294.89
578193.5 4179276 294.89
578193.7 4179276 294.89
578196.1 4179276 294.89
578196.2 4179276 294.89
578193.5 4179276 294.89
578193.7 4179276 294.89
578193.9 4179276 294.89
578194.2 4179276 294.89
578194.4 4179276 294.89
578194.6 4179276 294.89
578194.8 4179276 294.89
578194.9 4179276 294.89
578197.1 4179276 294.89
578198.2 4179276 294.89
578197.3 4179276 294.89
578194.9 4179278 294.89
578194.1 4179278 294.89
578194.6 4179279 294.89
578194.1 4179279 294.89
578194.1 4179280 294.89
578195.9 4179280 294.89
578197.1 4179280 294.89
578195.9 4179280 294.89
578193.9 4179280 294.89
578193.7 4179280 294.89
578193.9 4179280 294.89
578195.7 4179280 294.89
578196.9 4179281 294.89
578197.1 4179280 294.89
578195.9 4179281 294.89
578196.2 4179281 294.89
578195.7 4179281 294.89
578194.8 4179282 294.89
578195.3 4179282 294.89
578195.5 4179283 294.89
578195.7 4179284 294.89
578194.9 4179284 294.89
578195.9 4179284 294.89
578196.1 4179284 294.89
578196.2 4179284 294.89
578197.9 4179270 294.9
578194.9 4179270 294.9
578196.1 4179270 294.9
578194.6 4179271 294.9
578195.9 4179272 294.9
578196.2 4179272 294.9
578195.7 4179272 294.9
578197.3 4179272 294.9
578197.7 4179272 294.9
578198 4179273 294.9
578194.1 4179274 294.9
578196.6 4179274 294.9
578197.3 4179274 294.9
578194.1 4179274 294.9
578195.5 4179274 294.9
578194.1 4179274 294.9
578193 4179275 294.9
578194.2 4179275 294.9
578194.4 4179275 294.9
578194.8 4179275 294.9
578195.7 4179275 294.9
578196.1 4179275 294.9
578196.6 4179275 294.9
578196.8 4179275 294.9
578193.4 4179275 294.9
578193.5 4179275 294.9
578193.7 4179275 294.9
578194.9 4179275 294.9
578195.1 4179275 294.9
578193.4 4179276 294.9
578193.5 4179276 294.9
578193.7 4179276 294.9
578195.1 4179276 294.9
578193.4 4179276 294.9
578193.9 4179276 294.9
578194.1 4179276 294.9
578195.1 4179276 294.9
578195.3 4179276 294.9
578195.5 4179276 294.9
578195.7 4179276 294.9
578193.4 4179276 294.9
578193.5 4179276 294.9
578195.1 4179276 294.9
578196.9 4179276 294.9
578193.5 4179276 294.9
578194.9 4179278 294.9
578193.7 4179278 294.9
578194.8 4179278 294.9
578196.2 4179279 294.9
578193.9 4179280 294.9
578193.7 4179280 294.9
578194.1 4179280 294.9
578194.2 4179280 294.9
578195.7 4179280 294.9
578193.5 4179280 294.9
578193.9 4179281 294.9
578194.1 4179280 294.9
578195.3 4179281 294.9
578195.5 4179280 294.9
578193.5 4179281 294.9
578193.7 4179281 294.9
578194.9 4179281 294.9
578196.4 4179281 294.9
578194.6 4179282 294.9
578194.4 4179282 294.9
578194.8 4179284 294.9
578195.1 4179284 294.9
578195.9 4179284 294.9
578196.1 4179284 294.9
578196.2 4179284 294.9
578195.3 4179270 294.91
578195.9 4179270 294.91
578197.5 4179270 294.91
578195.1 4179270 294.91
578195.5 4179270 294.91
578196.4 4179272 294.91
578193.7 4179272 294.91
578195.9 4179272 294.91
578194.4 4179272 294.91
578195.5 4179273 294.91
578196.4 4179272 294.91
578196.6 4179273 294.91
578194.2 4179273 294.91
578194.1 4179274 294.91
578195.5 4179274 294.91
578196.4 4179274 294.91
578196.8 4179274 294.91
578194.1 4179274 294.91
578196.8 4179274 294.91
578193.5 4179275 294.91
578194.1 4179275 294.91
578194.2 4179275 294.91
578194.4 4179275 294.91
578195.7 4179275 294.91
578195.9 4179275 294.91
578193.2 4179275 294.91
578193.4 4179275 294.91
578193.5 4179275 294.91
578193.7 4179275 294.91
578194.8 4179275 294.91
578193.9 4179276 294.91
578194.1 4179276 294.91
578194.8 4179276 294.91
578194.9 4179276 294.91
578193.2 4179276 294.91
578194.2 4179276 294.91
578194.4 4179276 294.91
578194.6 4179276 294.91
578194.8 4179276 294.91
578194.9 4179276 294.91
578193.2 4179276 294.91
578193.4 4179276 294.91
578195.1 4179276 294.91
578195.3 4179276 294.91
578196.6 4179276 294.91
578193.5 4179276 294.91
578195.1 4179276 294.91
578193.5 4179277 294.91
578193.4 4179278 294.91
578197.3 4179278 294.91
578193.9 4179278 294.91
578196.9 4179278 294.91
578194.8 4179279 294.91
578194.2 4179279 294.91
578194.4 4179279 294.91
578194.6 4179279 294.91
578196.6 4179279 294.91
578196.4 4179279 294.91
578196.9 4179279 294.91
578195.9 4179280 294.91
578193.7 4179280 294.91
578194.1 4179280 294.91
578195.7 4179280 294.91
578194.1 4179281 294.91
578195.1 4179281 294.91
578195.5 4179280 294.91
578193.5 4179281 294.91
578193.9 4179281 294.91
578194.9 4179281 294.91
578196.1 4179281 294.91
578196.6 4179281 294.91
578196.8 4179281 294.91
578194.8 4179281 294.91
578195.7 4179282 294.91
578194.4 4179282 294.91
578194.6 4179284 294.91
578195.3 4179284 294.91
578195.7 4179284 294.91
578196.4 4179269 294.92
578196.4 4179270 294.92
578194.8 4179271 294.92
578196.1 4179271 294.92
578195.9 4179272 294.92
578194.4 4179272 294.92
578194.2 4179273 294.92
578195.7 4179272 294.92
578196.8 4179272 294.92
578195.5 4179273 294.92
578195.5 4179273 294.92
578194.1 4179274 294.92
578194.6 4179274 294.92
578195.5 4179274 294.92
578196.8 4179274 294.92
578196.8 4179274 294.92
578193.2 4179275 294.92
578193.4 4179275 294.92
578193.5 4179275 294.92
578193.7 4179275 294.92
578193.9 4179275 294.92
578194.1 4179275 294.92
578194.2 4179275 294.92
578194.8 4179275 294.92
578196.1 4179275 294.92
578196.2 4179275 294.92
578196.4 4179275 294.92
578193.9 4179275 294.92
578194.1 4179275 294.92
578194.2 4179275 294.92
578194.4 4179275 294.92
578194.6 4179275 294.92
578194.8 4179275 294.92
578194.2 4179276 294.92
578194.4 4179276 294.92
578194.6 4179276 294.92
578193 4179276 294.92
578193.4 4179276 294.92
578195.3 4179276 294.92
578195.5 4179276 294.92
578192.1 4179277 294.92
578197.3 4179277 294.92
578192.1 4179277 294.92
578193.5 4179277 294.92
578192.1 4179278 294.92
578193.7 4179278 294.92
578194.1 4179279 294.92
578195.9 4179280 294.92
578193.9 4179280 294.92
578194.1 4179280 294.92
578195.7 4179280 294.92
578194.2 4179280 294.92
578195.5 4179280 294.92
578193.4 4179281 294.92
578194.2 4179280 294.92
578193.4 4179281 294.92
578193.7 4179281 294.92
578194.8 4179281 294.92
578196.9 4179281 294.92
578193.4 4179281 294.92
578195.9 4179281 294.92
578192.4 4179282 294.92
578194.6 4179282 294.92
578195.5 4179282 294.92
578195.5 4179283 294.92
578196.1 4179284 294.92
578196.9 4179268 294.93
578196.9 4179269 294.93
578196.2 4179270 294.93
578195.1 4179271 294.93
578194.6 4179271 294.93
578194.4 4179272 294.93
578195.9 4179272 294.93
578197.1 4179272 294.93
578195.7 4179273 294.93
578196.4 4179273 294.93
578194.1 4179273 294.93
578196.4 4179273 294.93
578193.9 4179274 294.93
578195.7 4179274 294.93
578193 4179274 294.93
578193.9 4179274 294.93
578193.2 4179275 294.93
578193.4 4179275 294.93
578193.7 4179275 294.93
578195.9 4179275 294.93
578193 4179275 294.93
578194.2 4179275 294.93
578194.4 4179275 294.93
578193 4179276 294.93
578193.2 4179276 294.93
578193 4179276 294.93
578195.7 4179276 294.93
578196.4 4179276 294.93
578193.4 4179276 294.93
578195.1 4179276 294.93
578193.5 4179277 294.93
578194.9 4179278 294.93
578193.9 4179278 294.93
578194.1 4179278 294.93
578194.9 4179278 294.93
578194.8 4179279 294.93
578194.2 4179279 294.93
578194.4 4179279 294.93
578194.6 4179279 294.93
578196.1 4179279 294.93
578193.2 4179280 294.93
578193.7 4179280 294.93
578194.1 4179280 294.93
578194.2 4179280 294.93
578195.7 4179280 294.93
578195.5 4179280 294.93
578193.4 4179280 294.93
578194.9 4179281 294.93
578195.1 4179280 294.93
578195.3 4179280 294.93
578193.9 4179281 294.93
578194.1 4179281 294.93
578194.8 4179281 294.93
578196.2 4179281 294.93
578194.6 4179281 294.93
578193.4 4179282 294.93
578194.4 4179282 294.93
578194.2 4179282 294.93
578194.2 4179283 294.93
578194.4 4179283 294.93
578197.1 4179268 294.94
578196.8 4179269 294.94
578195.7 4179270 294.94
578195.3 4179270 294.94
578196.6 4179270 294.94
578196.1 4179271 294.94
578194.4 4179272 294.94
578194.2 4179273 294.94
578195.7 4179273 294.94
578195.9 4179272 294.94
578196.4 4179273 294.94
578194.1 4179273 294.94
578193.9 4179274 294.94
578196.6 4179274 294.94
578195.7 4179274 294.94
578193.9 4179274 294.94
578193.7 4179274 294.94
578193.4 4179275 294.94
578193.5 4179275 294.94
578193 4179275 294.94
578193 4179276 294.94
578193.2 4179276 294.94
578195.9 4179276 294.94
578196.1 4179276 294.94
578196.2 4179276 294.94
578192.1 4179276 294.94
578192.2 4179276 294.94
578197.1 4179276 294.94
578191.9 4179277 294.94
578192.2 4179277 294.94
578193.5 4179277 294.94
578197.3 4179277 294.94
578197.3 4179278 294.94
578193.7 4179278 294.94
578194.9 4179278 294.94
578197.1 4179278 294.94
578194.2 4179279 294.94
578194.2 4179280 294.94
578194.4 4179280 294.94
578194.6 4179279 294.94
578194.8 4179279 294.94
578195.7 4179280 294.94
578196.2 4179279 294.94
578193.9 4179280 294.94
578194.2 4179280 294.94
578195.5 4179280 294.94
578193.5 4179280 294.94
578194.4 4179280 294.94
578194.4 4179280 294.94
578195.3 4179280 294.94
578196.2 4179280 294.94
578193.4 4179280 294.94
578194.2 4179281 294.94
578194.4 4179280 294.94
578194.8 4179281 294.94
578194.1 4179281 294.94
578194.2 4179281 294.94
578194.4 4179281 294.94
578194.6 4179281 294.94
578196.4 4179281 294.94
578193.2 4179281 294.94
578193.7 4179281 294.94
578193.2 4179282 294.94
578194.4 4179282 294.94
578195.7 4179282 294.94
578193.7 4179282 294.94
578195.5 4179282 294.94
578194.2 4179282 294.94
578194.2 4179283 294.94
578196.2 4179284 294.94
578195.5 4179284 294.94
578195.5 4179284 294.94
578196.8 4179268 294.95
578196.2 4179270 294.95
578194.6 4179272 294.95
578196.9 4179272 294.95
578194.2 4179272 294.95
578195.9 4179273 294.95
578196.6 4179272 294.95
578195.7 4179273 294.95
578196.2 4179273 294.95
578195.7 4179273 294.95
578193.9 4179274 294.95
578195.5 4179274 294.95
578195.7 4179274 294.95
578196.4 4179274 294.95
578193.5 4179274 294.95
578195.9 4179274 294.95
578196.6 4179274 294.95
578193 4179275 294.95
578193.2 4179275 294.95
578196.1 4179275 294.95
578196.2 4179275 294.95
578192.8 4179276 294.95
578192.4 4179276 294.95
578192.6 4179276 294.95
578192.9 4179276 294.95
578193 4179276 294.95
578195.3 4179276 294.95
578195.5 4179276 294.95
578196.8 4179276 294.95
578191.9 4179276 294.95
578192.4 4179276 294.95
578193.2 4179276 294.95
578192.4 4179277 294.95
578195.1 4179277 294.95
578191.9 4179277 294.95
578192.1 4179277 294.95
578192.2 4179277 294.95
578193.5 4179278 294.95
578193.9 4179279 294.95
578194.9 4179279 294.95
578194.9 4179279 294.95
578193.9 4179280 294.95
578194.1 4179279 294.95
578194.6 4179280 294.95
578194.8 4179279 294.95
578195.9 4179279 294.95
578196.1 4179280 294.95
578193.7 4179280 294.95
578194.4 4179280 294.95
578195.5 4179280 294.95
578195.3 4179280 294.95
578194.6 4179281 294.95
578194.8 4179280 294.95
578194.9 4179280 294.95
578195.1 4179280 294.95
578195.3 4179280 294.95
578193.2 4179281 294.95
578194.2 4179281 294.95
578194.4 4179281 294.95
578196.6 4179281 294.95
578196.8 4179281 294.95
578193.9 4179281 294.95
578194.4 4179281 294.95
578193.2 4179282 294.95
578193.5 4179282 294.95
578194.4 4179282 294.95
578195.9 4179282 294.95
578194.2 4179282 294.95
578195.5 4179283 294.95
578195.9 4179284 294.95
578196.1 4179284 294.95
578195.9 4179284 294.95
578196.6 4179269 294.96
578196.1 4179270 294.96
578195.9 4179270 294.96
578196.8 4179270 294.96
578194.6 4179271 294.96
578194.4 4179272 294.96
578196.1 4179272 294.96
578194.1 4179273 294.96
578195.9 4179273 294.96
578196.1 4179273 294.96
578196.2 4179273 294.96
578195.9 4179273 294.96
578193.9 4179273 294.96
578196.2 4179273 294.96
578196.4 4179274 294.96
578193.7 4179274 294.96
578196.6 4179274 294.96
578193.5 4179274 294.96
578195.9 4179274 294.96
578196.6 4179274 294.96
578193.2 4179274 294.96
578193.4 4179274 294.96
578193 4179275 294.96
578192.8 4179275 294.96
578194.9 4179275 294.96
578192.6 4179276 294.96
578196.9 4179276 294.96
578192.6 4179276 294.96
578193.4 4179277 294.96
578191.9 4179277 294.96
578193.5 4179278 294.96
578193.7 4179278 294.96
578193.9 4179279 294.96
578196.4 4179279 294.96
578193.9 4179279 294.96
578194.8 4179280 294.96
578194.9 4179279 294.96
578195.5 4179280 294.96
578193.5 4179280 294.96
578194.6 4179280 294.96
578195.1 4179280 294.96
578195.3 4179280 294.96
578194.6 4179280 294.96
578193.4 4179280 294.96
578194.6 4179280 294.96
578195.1 4179280 294.96
578194.8 4179280 294.96
578194.9 4179280 294.96
578196.2 4179281 294.96
578193.2 4179281 294.96
578194.1 4179281 294.96
578193.2 4179282 294.96
578193.4 4179282 294.96
578194.2 4179282 294.96
578194.2 4179283 294.96
578194.6 4179284 294.96
578194.9 4179270 294.97
578196.2 4179270 294.97
578196.4 4179270 294.97
578196.1 4179271 294.97
578196.1 4179272 294.97
578194.2 4179272 294.97
578194.1 4179273 294.97
578196.2 4179272 294.97
578196.1 4179273 294.97
578195.9 4179273 294.97
578196.1 4179273 294.97
578193.7 4179274 294.97
578195.9 4179274 294.97
578193.5 4179274 294.97
578195.9 4179274 294.97
578193.4 4179274 294.97
578196.1 4179274 294.97
578196.4 4179274 294.97
578192.8 4179275 294.97
578192.1 4179276 294.97
578192.4 4179276 294.97
578192.6 4179276 294.97
578192.6 4179276 294.97
578192.8 4179276 294.97
578193 4179276 294.97
578193.2 4179276 294.97
578193.9 4179276 294.97
578192.2 4179277 294.97
578192.4 4179277 294.97
578193 4179277 294.97
578192.1 4179278 294.97
578193.5 4179278 294.97
578193.2 4179278 294.97
578194.9 4179278 294.97
578193.7 4179280 294.97
578193.9 4179279 294.97
578194.9 4179280 294.97
578195.1 4179280 294.97
578195.3 4179280 294.97
578195.5 4179279 294.97
578195.7 4179279 294.97
578194.8 4179280 294.97
578194.9 4179280 294.97
578195.1 4179280 294.97
578194.8 4179280 294.97
578194.9 4179280 294.97
578195.1 4179280 294.97
578194.8 4179280 294.97
578194.9 4179280 294.97
578193.2 4179281 294.97
578196.2 4179281 294.97
578193.5 4179282 294.97
578193.7 4179282 294.97
578193.9 4179282 294.97
578194.1 4179282 294.97
578194.2 4179282 294.97
578195.5 4179282 294.97
578195.7 4179283 294.97
578195.1 4179284 294.97
578196.4 4179269 294.98
578195.5 4179270 294.98
578194.8 4179270 294.98
578196.1 4179272 294.98
578196.1 4179272 294.98
578196.1 4179272 294.98
578195.7 4179274 294.98
578195.9 4179274 294.98
578196.1 4179274 294.98
578196.4 4179274 294.98
578193.4 4179274 294.98
578193.5 4179274 294.98
578195.9 4179274 294.98
578193 4179274 294.98
578193.2 4179274 294.98
578193.7 4179274 294.98
578196.1 4179274 294.98
578192.1 4179274 294.98
578196.2 4179274 294.98
578192.8 4179275 294.98
578192.6 4179276 294.98
578192.2 4179276 294.98
578196.6 4179276 294.98
578192.8 4179276 294.98
578195.3 4179276 294.98
578192.6 4179277 294.98
578191.9 4179277 294.98
578193.4 4179277 294.98
578193.9 4179277 294.98
578193.4 4179278 294.98
578193.7 4179278 294.98
578196.6 4179279 294.98
578195.1 4179279 294.98
578193.4 4179280 294.98
578195.1 4179281 294.98
578193 4179282 294.98
578193.9 4179282 294.98
578194.1 4179282 294.98
578195.7 4179282 294.98
578193.2 4179282 294.98
578194.1 4179282 294.98
578194.1 4179282 294.98
578194.1 4179283 294.98
578194.4 4179284 294.98
578195.1 4179270 294.99
578194.2 4179272 294.99
578196.2 4179272 294.99
578193.9 4179273 294.99
578194.1 4179272 294.99
578193.5 4179274 294.99
578193.7 4179274 294.99
578196.1 4179274 294.99
578196.2 4179274 294.99
578193.2 4179274 294.99
578196.1 4179274 294.99
578196.2 4179274 294.99
578192.8 4179274 294.99
578192.8 4179275 294.99
578192.6 4179276 294.99
578192.4 4179276 294.99
578195.5 4179276 294.99
578195.7 4179276 294.99
578193 4179276 294.99
578193.2 4179277 294.99
578192.4 4179277 294.99
578193.4 4179277 294.99
578195.1 4179277 294.99
578193.5 4179278 294.99
578193.7 4179279 294.99
578193.7 4179279 294.99
578194.4 4179279 294.99
578195.3 4179279 294.99
578193.2 4179280 294.99
578193 4179281 294.99
578193 4179282 294.99
578193.7 4179282 294.99
578193.9 4179282 294.99
578194.1 4179282 294.99
578193.5 4179282 294.99
578194.1 4179282 294.99
578195.3 4179284 294.99
578194.6 4179272 295
578194.2 4179272 295
578193.7 4179273 295
578193.5 4179274 295
578196.1 4179274 295
578193 4179274 295
578193.2 4179274 295
578193.4 4179274 295
578196.1 4179274 295
578192.8 4179274 295
578192.6 4179277 295
578193.4 4179277 295
578191.9 4179278 295
578192.2 4179278 295
578195.1 4179278 295
578193.7 4179279 295
578196.2 4179279 295
578193.5 4179280 295
578193.7 4179279 295
578195.5 4179279 295
578195.7 4179279 295
578193.4 4179280 295
578193.2 4179280 295
578193 4179281 295
578193.4 4179281 295
578195.9 4179282 295
578196.1 4179282 295
578193.9 4179282 295
578193.9 4179282 295
578194.1 4179283 295
578194.2 4179283 295
578195.7 4179270 295.01
578194.6 4179271 295.01
578194.2 4179272 295.02
578194.1 4179272 295.02
578193.9 4179273 295.01
578193.7 4179273 295.01
578193.5 4179273 295.02
578193 4179274 295.02
578193.2 4179274 295.02
578193.4 4179274 295.015
578193.5 4179274 295.01
578192.8 4179274 295.01
578192.6 4179275 295.02
578192.6 4179275 295.015
578192.4 4179276 295.01
578191.9 4179276 295.01
578192.1 4179276 295.01
578192.2 4179276 295.02
578195.3 4179276 295.01
578192.8 4179277 295.01
578192.4 4179277 295.01
578193.2 4179277 295.02
578195.1 4179277 295.01
578192.4 4179278 295.02
578193.4 4179278 295.02
578192.1 4179278 295.01
578192.2 4179278 295.01
578192.2 4179278 295.01
578193.5 4179278 295.015
578195.1 4179278 295.02
578192.4 4179279 295.02
578192.2 4179279 295.02
578195.3 4179279 295.01
578193.5 4179279 295.02
578193.4 4179280 295.01
578193.2 4179280 295.02
578194.4 4179280 295.02
578193 4179281 295.02
578193 4179282 295.01
578195.7 4179282 295.01
578193.2 4179282 295.01
578193.5 4179282 295.01
578193.7 4179282 295.01
578193.9 4179282 295.015
578193.5 4179283 295.01
578195.7 4179283 295.02
578195.9 4179284 295.01
578194.4 4179271 295.03
578193.7 4179273 295.03
578192.8 4179274 295.03
578193 4179274 295.03
578193.2 4179274 295.03
578193.4 4179274 295.03
578192.6 4179274 295.03
578192.6 4179274 295.03
578192.6 4179274 295.03
578192.6 4179275 295.03
578191.8 4179277 295.03
578191.8 4179277 295.03
578192.6 4179277 295.03
578192.8 4179277 295.03
578193 4179277 295.03
578191.9 4179278 295.03
578192.4 4179278 295.03
578193.4 4179278 295.03
578192.1 4179278 295.03
578192.4 4179278 295.03
578193.5 4179278 295.03
578193.5 4179279 295.03
578192.4 4179279 295.03
578193.5 4179279 295.03
578195.5 4179279 295.03
578193.4 4179280 295.03
578193.5 4179279 295.03
578195.3 4179280 295.03
578193.2 4179280 295.03
578195.3 4179282 295.03
578193.7 4179282 295.03
578193.9 4179283 295.03
578194.1 4179283 295.03
578194.8 4179270 295.05
578194.9 4179270 295.05
578194.2 4179272 295.05
578194.1 4179272 295.04
578193.5 4179273 295.05
578193.7 4179273 295.05
578193.9 4179272 295.04
578193.4 4179273 295.05
578192.6 4179274 295.05
578192.8 4179274 295.045
578193 4179274 295.05
578193.2 4179274 295.04
578192.4 4179276 295.04
578191.8 4179276 295.04
578191.8 4179277 295.05
578192.1 4179277 295.05
578192.6 4179277 295.05
578192.8 4179277 295.05
578193.2 4179277 295.04
578195.1 4179278 295.04
578192.4 4179278 295.04
578193.4 4179278 295.05
578195.1 4179278 295.04
578192.6 4179278 295.05
578192.1 4179279 295.04
578192.6 4179279 295.05
578192.1 4179279 295.05
578192.6 4179279 295.05
578192.2 4179279 295.04
578193.4 4179279 295.05
578193.2 4179280 295.05
578193 4179281 295.04
578192.9 4179282 295.0467
578193 4179282 295.04
578193.2 4179282 295.05
578193.4 4179282 295.04
578193.5 4179282 295.04
578193.9 4179283 295.05
578194.2 4179284 295.05
578195.1 4179284 295.05
578193.9 4179272 295.06
578193.4 4179273 295.06
578193.2 4179273 295.06
578192.4 4179274 295.06
578192.4 4179274 295.06
578192.4 4179275 295.06
578192.2 4179276 295.06
578191.9 4179276 295.06
578192.1 4179276 295.06
578191.8 4179276 295.06
578193 4179277 295.06
578192.6 4179278 295.06
578191.9 4179278 295.06
578192.6 4179278 295.06
578193.4 4179278 295.06
578193.4 4179279 295.06
578192.1 4179279 295.06
578193.2 4179280 295.06
578193.4 4179279 295.06
578194.9 4179279 295.06
578192.6 4179281 295.06
578193 4179280 295.06
578192.8 4179281 295.06
578192.8 4179282 295.06
578193.5 4179282 295.06
578194.1 4179283 295.06
578194.2 4179271 295.07
578194.1 4179272 295.07
578193.4 4179273 295.08
578193.2 4179273 295.08
578192.8 4179273 295.08
578193 4179273 295.07
578192.4 4179274 295.07
578192.6 4179274 295.07
578191.9 4179274 295.07
578192.4 4179274 295.07
578192.4 4179274 295.08
578192.4 4179274 295.08
578192.8 4179275 295.08
578192.4 4179275 295.08
578194.1 4179276 295.07
578191.8 4179277 295.07
578192.8 4179277 295.07
578193.2 4179278 295.07
578192.6 4179278 295.07
578193.2 4179278 295.08
578191.9 4179278 295.08
578192.6 4179278 295.07
578192.8 4179278 295.08
578193.4 4179278 295.07
578192.8 4179279 295.07
578193.4 4179279 295.07
578192.8 4179279 295.07
578193 4179279 295.08
578193.2 4179279 295.08
578192.2 4179279 295.07
578192.4 4179279 295.08
578192.6 4179279 295.07
578192.8 4179279 295.08
578193 4179279 295.08
578193.2 4179279 295.07
578193 4179280 295.08
578192.8 4179281 295.08
578193 4179282 295.08
578193.4 4179282 295.08
578193.7 4179283 295.07
578193.9 4179283 295.08
578193 4179273 295.09
578192.4 4179274 295.09
578192.4 4179275 295.09
578192.2 4179276 295.09
578191.8 4179276 295.09
578192.8 4179278 295.09
578193 4179278 295.09
578193.2 4179278 295.09
578192.4 4179278 295.09
578192.8 4179278 295.09
578193 4179278 295.09
578193.2 4179278 295.09
578193 4179279 295.09
578193.2 4179279 295.09
578192.1 4179279 295.09
578192.6 4179279 295.09
578192.8 4179279 295.09
578193 4179280 295.09
578192.2 4179280 295.09
578193 4179280 295.09
578192.8 4179282 295.09
578193.2 4179282 295.09
578193.7 4179283 295.09
578194.1 4179272 295.1
578193.9 4179272 295.1
578192.6 4179273 295.1
578193 4179273 295.11
578193.2 4179273 295.1
578193.4 4179273 295.1
578192.6 4179273 295.11
578192.8 4179273 295.1
578193.5 4179273 295.1
578192.4 4179273 295.11
578192.2 4179274 295.11
578192.1 4179275 295.11
578191.9 4179276 295.1
578192.2 4179277 295.1
578191.8 4179278 295.11
578192.8 4179278 295.1
578193 4179278 295.1
578192.2 4179278 295.11
578192.8 4179278 295.1
578193 4179278 295.11
578191.9 4179279 295.1067
578193 4179278 295.1
578192.8 4179280 295.11
578193 4179280 295.1
578193.5 4179280 295.11
578193 4179280 295.1
578193.5 4179280 295.1
578193.5 4179281 295.11
578192.8 4179281 295.11
578193.4 4179283 295.11
578193.7 4179283 295.11
578194.1 4179284 295.11
578194.2 4179284 295.1
578192.8 4179273 295.12
578193.2 4179273 295.12
578191.9 4179274 295.12
578192.2 4179274 295.12
578192.2 4179274 295.12
578192.2 4179275 295.12
578191.9 4179279 295.12
578191.9 4179279 295.12
578192.1 4179280 295.12
578192.4 4179280 295.12
578192.6 4179280 295.12
578193 4179282 295.12
578193.9 4179283 295.12
578193 4179273 295.13
578193.4 4179272 295.13
578192.4 4179273 295.13
578192.2 4179274 295.13
578191.8 4179276 295.13
578191.9 4179276 295.13
578191.9 4179279 295.13
578192.8 4179280 295.13
578192.8 4179281 295.13
578192.8 4179282 295.13
578193.2 4179283 295.13
578193.5 4179283 295.13
578192.6 4179273 295.14
578192.2 4179273 295.14
578192.2 4179274 295.14
578191.8 4179278 295.14
578191.9 4179279 295.14
578192.6 4179282 295.14
578192.6 4179282 295.14
578192.8 4179273 295.15
578193.2 4179272 295.15
578192.2 4179275 295.15
578192.8 4179280 295.15
578192.8 4179280 295.15
578192.6 4179282 295.15
578193.4 4179283 295.15
578192.4 4179273 295.16
578192.2 4179273 295.16
578192.2 4179274 295.16
578192.2 4179275 295.16
578191.9 4179276 295.16
578191.9 4179280 295.16
578192.1 4179280 295.16
578192.2 4179280 295.16
578192.8 4179280 295.16
578192.8 4179280 295.16
578193 4179283 295.16
578192.2 4179275 295.17
578192.4 4179273 295.18
578192.1 4179274 295.18
578191.8 4179276 295.18
578191.8 4179278 295.18
578191.9 4179280 295.18
578192.6 4179280 295.18
578192.6 4179282 295.18
578192.2 4179273 295.19
578192.1 4179273 295.19
578191.8 4179274 295.19
578192.1 4179274 295.19
578192.1 4179275 295.19
578191.6 4179276 295.2
578192.1 4179274 295.21
578191.8 4179278 295.21
578192.1 4179280 295.21
