# .PCD v.7 - Point Cloud Data file format
VERSION .7
FIELDS x y z
SIZE 4 4 4
TYPE F F F
COUNT 1 1 1
WIDTH 134
HEIGHT 1
VIEWPOINT 0 0 0 1 0 0 0
POINTS 134
DATA ascii
578198.2 4179284 294.63
578198.6 4179285 294.67
578198.2 4179284 294.74
578197.5 4179285 294.75
578197.7 4179285 294.75
578198 4179283 294.76
578198.2 4179283 294.77
578197.7 4179284 294.77
578197.3 4179284 294.77
578197.7 4179284 294.76
578197.3 4179285 294.765
578197.5 4179284 294.78
578197.9 4179284 294.78
578197.5 4179285 294.78
578198.2 4179282 294.8
578197.3 4179284 294.8
578197.7 4179284 294.79
578197.9 4179284 294.795
578197.1 4179284 294.8
578197.1 4179285 294.79
578197.9 4179285 294.79
578197.1 4179285 294.795
578197.9 4179285 294.8
578197.5 4179284 294.81
578198.4 4179285 294.81
578198.2 4179282 294.82
578197.7 4179284 294.82
578197.9 4179284 294.82
578197.1 4179284 294.83
578196.9 4179284 294.83
578197.5 4179284 294.82
578196.9 4179285 294.82
578197.3 4179285 294.83
578196.9 4179285 294.83
578197.1 4179285 294.83
578197.9 4179285 294.83
578197.3 4179286 294.83
578197.5 4179286 294.82
578197.9 4179279 294.84
578198.4 4179284 294.84
578198 4179284 294.84
578198 4179284 294.84
578197.7 4179286 294.84
578198 4179280 294.86
578197.7 4179280 294.86
578197.9 4179282 294.86
578197.5 4179284 294.85
578197.7 4179284 294.86
578197.9 4179284 294.85
578198 4179284 294.86
578196.9 4179284 294.86
578196.8 4179284 294.86
578196.8 4179285 294.85
578198 4179285 294.86
578196.9 4179285 294.85
578197.3 4179285 294.85
578197.9 4179285 294.86
578197.5 4179286 294.86
578198 4179284 294.87
578197.1 4179284 294.87
578198.4 4179284 294.87
578196.8 4179285 294.87
578197.1 4179286 294.87
578197.3 4179286 294.87
578197.9 4179280 294.88
578197.5 4179280 294.88
578197.9 4179284 294.88
578196.8 4179284 294.88
578196.6 4179284 294.88
578198 4179285 294.88
578197.7 4179280 294.89
578197.3 4179280 294.89
578198 4179282 294.89
578197.3 4179284 294.89
578196.6 4179284 294.89
578196.4 4179284 294.89
578196.6 4179285 294.89
578196.9 4179285 294.89
578197.5 4179280 294.9
578197.1 4179281 294.9
578197.7 4179284 294.9
578198 4179284 294.9
578196.9 4179284 294.9
578198.2 4179285 294.9
578196.8 4179286 294.9
578197.9 4179280 294.91
578197.3 4179280 294.91
578198 4179281 294.91
578196.2 4179284 294.91
578196.8 4179285 294.91
578198 4179285 294.91
578197.9 4179286 294.91
578197.7 4179286 294.91
578197.7 4179280 294.92
578197.3 4179281 294.92
578197.5 4179280 294.92
578197.1 4179281 294.92
578197.9 4179284 294.92
578196.4 4179284 294.92
578196.8 4179284 294.92
578196.4 4179285 294.92
578197.1 4179286 294.92
578197.5 4179286 294.92
578197.1 4179280 294.93
578197.5 4179280 294.93
578197.3 4179281 294.93
578197.1 4179284 294.93
578197.3 4179286 294.93
578197.7 4179287 294.93
578196.9 4179286 294.94
578197.3 4179284 294.95
578196.2 4179285 294.95
578196.4 4179284 294.96
578196.8 4179285 294.96
578196.4 4179284 294.97
578196.9 4179284 294.97
578196.6 4179284 294.98
578196.6 4179285 294.98
578196.1 4179285 294.99
578194.2 4179288 297.06
578194.4 4179288 297.06
578193.7 4179288 297.09
578193.4 4179287 297.1
578193.2 4179287 297.1
578193.9 4179288 297.12
578193.7 4179288 297.13
578193.5 4179288 297.14
578194.1 4179288 297.14
578193.4 4179287 297.15
578193.5 4179287 297.18
578193.5 4179287 297.18
578193.7 4179287 297.18
578193.9 4179288 297.18
578193.4 4179287 297.19
