# .PCD v.7 - Point Cloud Data file format
VERSION .7
FIELDS x y z
SIZE 4 4 4
TYPE F F F
COUNT 1 1 1
WIDTH 378
HEIGHT 1
VIEWPOINT 0 0 0 1 0 0 0
POINTS 378
DATA ascii
578173.75 4179269.75 295.940002441
578173.9375 4179263.25 295.970001221
578173.9375 4179270.75 296.019989014
578173.9375 4179272 295.989990234
578173.9375 4179272.75 295.950012207
578173.9375 4179273 295.850006104
578173.9375 4179273.5 295.869995117
578173.9375 4179274 295.869995117
578173.9375 4179274.25 296.029998779
578173.9375 4179275.5 296.059997559
578174.125 4179263.25 295.869995117
578174.125 4179263.75 295.760009766
578174.125 4179263.75 295.980010986
578174.125 4179264 296
578174.125 4179265.75 296.040008545
578174.125 4179266.25 296.010009766
578174.125 4179269.5 295.809997559
578174.125 4179270 295.880004883
578174.125 4179270.25 295.920013428
578174.125 4179270.75 295.970001221
578174.125 4179271.25 295.940002441
578174.125 4179271.5 295.920013428
578174.125 4179271.5 295.910003662
578174.125 4179271.75 295.899993896
578174.125 4179272.25 295.920013428
578174.125 4179272.5 295.929992676
578174.125 4179272.75 295.950012207
578174.125 4179272.75 295.970001221
578174.125 4179273 296
578174.125 4179273.25 295.950012207
578174.125 4179273.5 296.029998779
578174.125 4179273.5 296.040008545
578174.125 4179274 296.040008545
578174.125 4179274 296.040008545
578174.125 4179274.25 296.029998779
578174.125 4179274.75 296.010009766
578174.125 4179274.75 295.989990234
578174.125 4179275 295.970001221
578174.125 4179275.25 295.950012207
578174.125 4179275.25 295.929992676
578174.125 4179275.75 295.890014648
578174.125 4179277.25 295.970001221
578174.25 4179263.5 295.950012207
578174.25 4179263.75 295.980010986
578174.25 4179263.75 296
578174.25 4179264 296.019989014
578174.25 4179264.25 296.029998779
578174.25 4179264.5 296.040008545
578174.25 4179264.5 296.040008545
578174.25 4179264.75 296.029998779
578174.25 4179265 295.890014648
578174.25 4179265 295.989990234
578174.25 4179265.25 295.970001221
578174.25 4179265.5 296.049987793
578174.25 4179265.75 295.920013428
578174.25 4179265.75 295.910003662
578174.25 4179266 295.940002441
578174.25 4179266.25 295.940002441
578174.25 4179266.5 295.970001221
578174.25 4179269.75 295.959991455
578174.25 4179270 295.989990234
578174.25 4179270.25 296.019989014
578174.25 4179270.25 296.040008545
578174.25 4179271 296.049987793
578174.25 4179271.25 296.029998779
578174.25 4179271.5 296.010009766
578174.25 4179271.75 296
578174.25 4179272 296
578174.25 4179272 296.010009766
578174.25 4179272.25 296.019989014
578174.25 4179272.5 296.040008545
578174.25 4179275.75 296.040008545
578174.25 4179276 296.029998779
578174.25 4179276 295.859985352
578174.25 4179276.25 295.989990234
578174.25 4179276.5 295.980010986
578174.25 4179276.5 295.890014648
578174.25 4179276.75 295.940002441
578174.25 4179277 295.929992676
578174.25 4179277.5 295.899993896
578174.25 4179278 295.940002441
578174.25 4179278 295.920013428
578174.25 4179278.5 295.980010986
578174.25 4179281 296
578174.4375 4179263.5 295.959991455
578174.4375 4179263.75 295.989990234
578174.4375 4179263.75 296.010009766
578174.4375 4179264 296.029998779
578174.4375 4179264.25 296.049987793
578174.4375 4179264.5 296.049987793
578174.4375 4179264.5 296.049987793
578174.4375 4179264.75 296.040008545
578174.4375 4179265 296.019989014
578174.4375 4179265 296
578174.4375 4179265.25 295.980010986
578174.4375 4179265.5 295.950012207
578174.4375 4179265.75 295.940002441
578174.4375 4179265.75 295.929992676
578174.4375 4179266 295.929992676
578174.4375 4179266.25 295.950012207
578174.4375 4179266.25 295.970001221
578174.4375 4179266.5 295.940002441
578174.4375 4179266.75 296.049987793
578174.4375 4179267.75 296
578174.4375 4179268.25 296.010009766
578174.4375 4179268.5 296.040008545
578174.4375 4179268.75 296
578174.4375 4179269.25 296.010009766
578174.4375 4179269.5 296
578174.4375 4179269.5 296.019989014
578174.4375 4179269.75 296.040008545
578174.4375 4179270.25 296.029998779
578174.4375 4179277.25 295.989990234
578174.4375 4179277.5 296.029998779
578174.4375 4179277.75 295.970001221
578174.4375 4179280.25 296.010009766
578174.625 4179263.75 296
578174.625 4179263.75 296.029998779
578174.625 4179264 296.040008545
578174.625 4179264.75 296.040008545
578174.625 4179265 296.019989014
578174.625 4179265 296
578174.625 4179265.25 295.980010986
578174.625 4179265.5 295.970001221
578174.625 4179265.75 295.959991455
578174.625 4179265.75 295.959991455
578174.625 4179266 295.959991455
578174.625 4179266.25 295.980010986
578174.625 4179266.25 296.010009766
578174.625 4179266.5 296.040008545
578174.625 4179269 296
578174.625 4179270 295.880004883
578174.625 4179271.5 295.970001221
578174.625 4179272 295.950012207
578174.625 4179279.5 295.959991455
578174.8125 4179263.75 296.010009766
578174.8125 4179263.75 296.029998779
578174.8125 4179264.25 295.989990234
578174.8125 4179265 296.019989014
578174.8125 4179265 296.010009766
578174.8125 4179265.25 295.989990234
578174.8125 4179265.5 295.980010986
578174.8125 4179265.75 295.980010986
578174.8125 4179265.75 295.980010986
578174.8125 4179266 295.989990234
578174.8125 4179266.25 296.010009766
578174.8125 4179266.25 296.029998779
578174.8125 4179272.25 295.899993896
578174.8125 4179281 295.850006104
578175 4179264 295.980010986
578175 4179264.75 295.920013428
578175 4179265 296.019989014
578175 4179265 296.010009766
578175 4179265.25 295.940002441
578175 4179265.5 295.989990234
578175 4179265.75 295.989990234
578175 4179265.75 296
578175.1875 4179263.75 296.019989014
578175.1875 4179265 296.010009766
578175.1875 4179265 295.959991455
578175.1875 4179265.25 296
578175.1875 4179265.5 296
578175.1875 4179265.75 296
578175.1875 4179265.75 296.010009766
578175.1875 4179277 295.959991455
578175.1875 4179278.25 295.950012207
578175.375 4179265 296
578175.375 4179265 296
578175.375 4179265.25 296
578175.375 4179265.5 296
578175.375 4179265.75 295.929992676
578175.375 4179266.25 295.720001221
578175.375 4179266.75 295.940002441
578175.375 4179267.25 295.929992676
578175.375 4179269 295.920013428
578175.5625 4179264.5 296
578175.5625 4179264.5 296
578175.5625 4179264.75 296
578175.5625 4179265 295.989990234
578175.5625 4179265 295.989990234
578175.5625 4179265.25 296
578175.5625 4179267.75 295.829986572
578175.5625 4179279.25 295.959991455
578175.75 4179264.25 295.989990234
578175.75 4179271.25 295.940002441
578175.875 4179264.25 295.980010986
578175.875 4179264.5 295.980010986
578175.875 4179264.5 295.920013428
578175.875 4179264.75 295.980010986
578175.875 4179265 295.980010986
578175.875 4179267 295.980010986
578175.875 4179267 295.980010986
578175.875 4179267.25 295.980010986
578175.875 4179267.5 295.980010986
578175.875 4179272.5 295.940002441
578175.875 4179273 295.959991455
578175.875 4179274.75 295.899993896
578175.875 4179275.5 295.959991455
578176.0625 4179263.75 295.950012207
578176.0625 4179263.75 295.970001221
578176.0625 4179264 295.970001221
578176.0625 4179264.25 295.920013428
578176.0625 4179264.5 295.970001221
578176.0625 4179264.5 295.970001221
578176.0625 4179264.75 295.880004883
578176.0625 4179266.75 295.970001221
578176.0625 4179267 295.959991455
578176.0625 4179267.25 295.959991455
578176.0625 4179267.5 295.970001221
578176.0625 4179267.75 295.920013428
578176.0625 4179274.75 295.880004883
578176.25 4179263.5 295.959991455
578176.25 4179263.75 295.959991455
578176.25 4179263.75 295.959991455
578176.25 4179264 295.959991455
578176.25 4179264.25 295.959991455
578176.25 4179264.5 295.959991455
578176.25 4179266.5 295.869995117
578176.25 4179267 295.959991455
578176.25 4179267.25 295.950012207
578176.25 4179267.5 295.959991455
578176.25 4179274.5 295.950012207
578176.25 4179274.75 295.940002441
578176.25 4179274.75 295.929992676
578176.25 4179275 295.929992676
578176.25 4179275.25 295.929992676
578176.25 4179275.25 295.929992676
578176.25 4179275.5 295.929992676
578176.25 4179275.75 295.940002441
578176.25 4179276 295.940002441
578176.25 4179276.5 295.859985352
578176.25 4179277.5 295.899993896
578176.25 4179278.75 295.940002441
578176.25 4179279 295.929992676
578176.25 4179279.25 295.890014648
578176.25 4179279.25 295.920013428
578176.25 4179279.5 295.929992676
578176.25 4179279.75 295.899993896
578176.4375 4179263.25 295.940002441
578176.4375 4179263.5 295.940002441
578176.4375 4179263.75 295.940002441
578176.4375 4179263.75 295.940002441
578176.4375 4179264 295.940002441
578176.4375 4179264.25 295.950012207
578176.4375 4179268.75 295.920013428
578176.4375 4179269.5 295.910003662
578176.4375 4179274.5 295.940002441
578176.4375 4179274.75 295.929992676
578176.4375 4179274.75 295.920013428
578176.4375 4179275 295.910003662
578176.4375 4179275.25 295.910003662
578176.4375 4179275.25 295.910003662
578176.4375 4179275.5 295.910003662
578176.4375 4179275.75 295.910003662
578176.4375 4179276 295.920013428
578176.4375 4179276 295.929992676
578176.4375 4179279 295.920013428
578176.4375 4179279.25 295.920013428
578176.4375 4179279.5 295.920013428
578176.625 4179263.5 295.920013428
578176.625 4179263.75 295.929992676
578176.625 4179263.75 295.929992676
578176.625 4179264 295.929992676
578176.625 4179264.25 295.940002441
578176.625 4179264.5 295.950012207
578176.625 4179270.5 295.929992676
578176.625 4179273.5 295.910003662
578176.625 4179274.25 295.929992676
578176.625 4179274.75 295.929992676
578176.625 4179274.75 295.929992676
578176.625 4179275 295.920013428
578176.625 4179275.25 295.910003662
578176.625 4179275.25 295.910003662
578176.625 4179275.5 295.910003662
578176.625 4179275.75 295.910003662
578176.625 4179276 295.920013428
578176.625 4179276 295.929992676
578176.8125 4179263.25 295.910003662
578176.8125 4179263.5 295.910003662
578176.8125 4179263.75 295.910003662
578176.8125 4179264 295.920013428
578176.8125 4179264.25 295.929992676
578177 4179263.75 295.899993896
578177 4179263.75 295.899993896
578177 4179264.25 295.929992676
578177 4179264.5 295.929992676
578177 4179274 295.910003662
578177.1875 4179263.5 295.899993896
578177.1875 4179263.75 295.899993896
578177.1875 4179263.75 295.899993896
578177.1875 4179264 295.910003662
578177.1875 4179264.25 295.920013428
578177.1875 4179276 295.869995117
578177.3125 4179263.5 295.910003662
578177.3125 4179263.75 295.899993896
578177.3125 4179263.75 295.899993896
578177.3125 4179264 295.899993896
578177.3125 4179264.25 295.910003662
578177.3125 4179280.25 295.890014648
578177.5 4179263.75 295.910003662
578177.5 4179263.75 295.899993896
578177.5 4179264 295.899993896
578177.5 4179264.25 295.910003662
578177.5 4179280.25 295.850006104
578177.6875 4179263.25 295.880004883
578177.6875 4179264 295.899993896
578177.6875 4179264.25 295.899993896
578177.6875 4179273 295.850006104
578177.875 4179263.75 295.850006104
578177.875 4179264.25 295.890014648
578177.875 4179265 295.839996338
578178.0625 4179276 295.859985352
578178.25 4179280 295.820007324
578178.4375 4179277.5 295.790008545
578178.4375 4179277.75 295.820007324
578178.4375 4179279.5 295.839996338
578178.4375 4179279.75 295.820007324
578178.4375 4179280 295.809997559
578178.625 4179276.75 295.790008545
578178.625 4179277 295.75
578178.625 4179277.25 295.739990234
578178.625 4179277.25 295.730010986
578178.625 4179277.5 295.739990234
578178.625 4179277.75 295.769989014
578178.625 4179278 295.790008545
578178.625 4179279 295.820007324
578178.625 4179279.25 295.799987793
578178.625 4179279.25 295.769989014
578178.625 4179279.5 295.75
578178.625 4179279.75 295.730010986
578178.625 4179279.75 295.720001221
578178.625 4179280 295.720001221
578178.625 4179280.25 295.730010986
578178.625 4179280.5 295.779998779
578178.625 4179280.75 295.820007324
578178.75 4179264 295.799987793
578178.75 4179276.5 295.790008545
578178.75 4179277 295.75
578178.75 4179277.25 295.75
578178.75 4179277.25 295.760009766
578178.75 4179277.75 295.799987793
578178.75 4179278 295.809997559
578178.75 4179278.5 295.799987793
578178.75 4179279 295.760009766
578178.75 4179279.25 295.739990234
578178.75 4179279.5 295.700012207
578178.75 4179279.75 295.670013428
578178.75 4179280 295.660003662
578178.75 4179280.25 295.670013428
578178.75 4179280.5 295.679992676
578178.75 4179280.5 295.709991455
578178.75 4179280.75 295.75
578178.75 4179281 295.799987793
578178.9375 4179276.5 295.799987793
578178.9375 4179279.25 295.75
578178.9375 4179280.25 295.679992676
578178.9375 4179280.5 295.679992676
578178.9375 4179280.5 295.700012207
578178.9375 4179280.75 295.730010986
578178.9375 4179281 295.769989014
578179.125 4179275.75 295.790008545
578179.125 4179276 295.760009766
578179.125 4179276.25 295.790008545
578179.125 4179280.5 295.769989014
578179.125 4179280.75 295.779998779
578179.125 4179281 295.799987793
578179.3125 4179275.25 295.75
578179.3125 4179276 295.700012207
578179.3125 4179276 295.760009766
578179.5 4179276 295.709991455
578179.6875 4179274.75 295.769989014
578179.6875 4179275.25 295.600006104
578180.0625 4179274.75 295.760009766
578180.0625 4179275 295.640014648
578180.0625 4179275.25 295.649993896
578180.0625 4179275.25 295.730010986
578180.1875 4179274.75 295.730010986
578180.1875 4179275 295.75
