# .PCD v.7 - Point Cloud Data file format
VERSION .7
FIELDS x y z
SIZE 4 4 4
TYPE F F F
COUNT 1 1 1
WIDTH 1379
HEIGHT 1
VIEWPOINT 0 0 0 1 0 0 0
POINTS 1379
DATA ascii
578181.125 4179279 301.820007324
578181.125 4179279.25 301.769989014
578181.125 4179279.25 301.809997559
578181.125 4179279.5 301.829986572
578181.125 4179279.75 301.859985352
578181.125 4179280 301.850006104
578181.125 4179280.5 301.709991455
578181.3125 4179276.5 301.760009766
578181.3125 4179277.25 301.619995117
578181.3125 4179277.75 302.140014648
578181.3125 4179278 301.619995117
578181.3125 4179278.5 301.679992676
578181.3125 4179279 302.100006104
578181.3125 4179279.25 301.899993896
578181.3125 4179279.25 302.089996338
578181.3125 4179280.5 301.839996338
578181.3125 4179280.75 301.619995117
578181.3125 4179281.5 301.670013428
578181.5 4179276 301.660003662
578181.5 4179276.25 301.850006104
578181.5 4179276.5 301.980010986
578181.5 4179277.75 302.149993896
578181.5 4179279 302.269989014
578181.5 4179279.25 302.260009766
578181.5 4179279.75 301.809997559
578181.5 4179280.25 301.660003662
578181.5 4179280.75 301.640014648
578181.5 4179281 301.619995117
578181.625 4179276 301.739990234
578181.625 4179276 301.929992676
578181.625 4179276.75 302.089996338
578181.625 4179277 302.070007324
578181.625 4179277.25 302.049987793
578181.625 4179277.25 302.049987793
578181.625 4179277.5 302.070007324
578181.625 4179277.75 302.100006104
578181.625 4179278 302.149993896
578181.625 4179278.25 302.239990234
578181.625 4179279 302.350006104
578181.625 4179279.25 302.350006104
578181.625 4179279.25 302.339996338
578181.625 4179281 301.799987793
578181.625 4179281 301.600006104
578181.8125 4179275.5 301.510009766
578181.8125 4179276.5 301.619995117
578181.8125 4179276.75 302.029998779
578181.8125 4179277 301.989990234
578181.8125 4179277.25 301.970001221
578181.8125 4179277.25 301.970001221
578181.8125 4179277.5 301.989990234
578181.8125 4179277.75 302.029998779
578181.8125 4179278 302.089996338
578181.8125 4179278 302.149993896
578181.8125 4179278.25 302.220001221
578181.8125 4179278.5 302.269989014
578181.8125 4179278.5 302.320007324
578181.8125 4179278.75 302.350006104
578181.8125 4179279.25 302.359985352
578181.8125 4179279.25 302.339996338
578181.8125 4179279.5 302.320007324
578181.8125 4179279.75 302.290008545
578181.8125 4179279.75 302.260009766
578181.8125 4179280 302.220001221
578181.8125 4179280.25 302.179992676
578181.8125 4179280.5 302.130004883
578181.8125 4179280.5 302.079986572
578181.8125 4179280.75 302.010009766
578181.8125 4179281 301.910003662
578181.8125 4179281 301.779998779
578181.8125 4179281.25 301.600006104
578182 4179275.25 301.380004883
578182 4179275.75 301.420013428
578182 4179276.5 302
578182 4179276.75 301.940002441
578182 4179277 301.890014648
578182 4179277.25 301.880004883
578182 4179277.25 301.890014648
578182 4179277.5 301.920013428
578182 4179277.75 302.010009766
578182 4179278 302.040008545
578182 4179278 302.109985352
578182 4179278.25 302.100006104
578182 4179278.5 302.239990234
578182 4179278.5 302.279998779
578182 4179278.75 302.320007324
578182 4179279 302.059997559
578182 4179279.25 302.309997559
578182 4179279.5 302.279998779
578182 4179279.75 302.230010986
578182 4179279.75 302.190002441
578182 4179280 302.140014648
578182 4179280.25 302.100006104
578182 4179280.5 302.059997559
578182 4179280.5 302.029998779
578182 4179280.75 302
578182 4179281 301.959991455
578182 4179281 301.899993896
578182 4179281.25 301.809997559
578182 4179281.5 301.670013428
578182 4179281.75 301.459991455
578182.1875 4179275.25 301.739990234
578182.1875 4179276.25 301.510009766
578182.1875 4179276.5 301.920013428
578182.1875 4179276.75 301.859985352
578182.1875 4179277 301.980010986
578182.1875 4179277.25 301.820007324
578182.1875 4179277.25 301.839996338
578182.1875 4179277.5 302.040008545
578182.1875 4179277.75 301.929992676
578182.1875 4179278 302
578182.1875 4179278 302.070007324
578182.1875 4179278.25 302.130004883
578182.1875 4179278.5 302.200012207
578182.1875 4179278.5 302.25
578182.1875 4179278.75 302.290008545
578182.1875 4179279 302.290008545
578182.1875 4179279.25 302.279998779
578182.1875 4179279.25 302.260009766
578182.1875 4179279.5 302.130004883
578182.1875 4179279.75 302.170013428
578182.1875 4179279.75 302.109985352
578182.1875 4179280 302.230010986
578182.1875 4179280.25 302.010009766
578182.1875 4179280.5 301.980010986
578182.1875 4179280.5 301.829986572
578182.1875 4179280.75 301.980010986
578182.1875 4179281 301.980010986
578182.1875 4179281.25 301.959991455
578182.1875 4179281.75 301.760009766
578182.1875 4179281.75 301.540008545
578182.375 4179275.25 301.649993896
578182.375 4179275.25 301.899993896
578182.375 4179276 302.089996338
578182.375 4179276.5 301.829986572
578182.375 4179276.75 301.790008545
578182.375 4179277 301.779998779
578182.375 4179277.25 301.790008545
578182.375 4179277.25 301.829986572
578182.375 4179277.5 301.880004883
578182.375 4179277.75 301.940002441
578182.375 4179278 302
578182.375 4179278 302.070007324
578182.375 4179278.25 302.130004883
578182.375 4179278.5 302.179992676
578182.375 4179278.5 302.220001221
578182.375 4179278.75 302.25
578182.375 4179279 302.260009766
578182.375 4179279.25 302.25
578182.375 4179279.25 302.320007324
578182.375 4179279.5 302.170013428
578182.375 4179279.75 302.109985352
578182.375 4179279.75 302.160003662
578182.375 4179280 301.989990234
578182.375 4179280.25 301.940002441
578182.375 4179280.5 302.010009766
578182.375 4179280.5 301.920013428
578182.375 4179280.75 301.950012207
578182.375 4179281 301.640014648
578182.375 4179281.75 301.510009766
578182.375 4179282 301.549987793
578182.375 4179282.5 301.420013428
578182.5625 4179275 301.510009766
578182.5625 4179275.25 301.790008545
578182.5625 4179275.5 302.040008545
578182.5625 4179275.75 302.049987793
578182.5625 4179276 302.010009766
578182.5625 4179276 301.940002441
578182.5625 4179276.25 301.869995117
578182.5625 4179276.5 301.809997559
578182.5625 4179276.5 301.779998779
578182.5625 4179276.75 301.769989014
578182.5625 4179277 301.779998779
578182.5625 4179277.25 301.809997559
578182.5625 4179277.25 301.859985352
578182.5625 4179277.5 301.920013428
578182.5625 4179277.75 301.980010986
578182.5625 4179278 302.040008545
578182.5625 4179278 302.100006104
578182.5625 4179278.25 302.149993896
578182.5625 4179278.5 302.200012207
578182.5625 4179278.5 302.230010986
578182.5625 4179278.75 302.25
578182.5625 4179279 302.25
578182.5625 4179279.25 302.239990234
578182.5625 4179279.25 302.200012207
578182.5625 4179279.5 302.149993896
578182.5625 4179279.75 302.089996338
578182.5625 4179279.75 302.019989014
578182.5625 4179280 301.959991455
578182.5625 4179280.25 301.920013428
578182.5625 4179280.5 301.890014648
578182.5625 4179280.5 301.899993896
578182.5625 4179280.75 301.940002441
578182.5625 4179281 301.970001221
578182.5625 4179281.5 301.75
578182.5625 4179281.75 302.010009766
578182.5625 4179282 301.769989014
578182.5625 4179283 301.350006104
578182.75 4179274.75 301.470001221
578182.75 4179275.25 301.570007324
578182.75 4179275.5 301.989990234
578182.75 4179275.75 301.959991455
578182.75 4179276 301.910003662
578182.75 4179276 301.850006104
578182.75 4179276.25 301.790008545
578182.75 4179276.5 301.760009766
578182.75 4179276.5 301.760009766
578182.75 4179276.75 301.779998779
578182.75 4179277 301.820007324
578182.75 4179277.25 301.880004883
578182.75 4179277.25 301.940002441
578182.75 4179277.5 302.010009766
578182.75 4179277.75 302.070007324
578182.75 4179278 302.119995117
578182.75 4179278 302.170013428
578182.75 4179278.25 302.209991455
578182.75 4179278.5 302.25
578182.75 4179278.5 302.269989014
578182.75 4179278.75 302.279998779
578182.75 4179279 302.279998779
578182.75 4179279.25 302.260009766
578182.75 4179279.25 302.230010986
578182.75 4179279.5 302.179992676
578182.75 4179279.75 302.109985352
578182.75 4179279.75 302.049987793
578182.75 4179280 301.980010986
578182.75 4179280.25 301.929992676
578182.75 4179280.5 301.910003662
578182.75 4179280.5 301.920013428
578182.75 4179280.75 301.959991455
578182.75 4179281 302.029998779
578182.75 4179281 302.109985352
578182.75 4179281.75 302.140014648
578182.75 4179282 301.940002441
578182.75 4179282.25 301.640014648
578182.75 4179282.5 301.640014648
578182.9375 4179275.75 301.869995117
578182.9375 4179276 301.880004883
578182.9375 4179276 301.760009766
578182.9375 4179276.5 301.859985352
578182.9375 4179276.5 301.769989014
578182.9375 4179277 301.899993896
578182.9375 4179277.25 302.130004883
578182.9375 4179277.25 302.049987793
578182.9375 4179277.5 302.119995117
578182.9375 4179277.75 302.339996338
578182.9375 4179278 302.239990234
578182.9375 4179278 302.279998779
578182.9375 4179278.25 302.309997559
578182.9375 4179278.5 302.329986572
578182.9375 4179278.5 302.350006104
578182.9375 4179278.75 302.350006104
578182.9375 4179279 302.350006104
578182.9375 4179279.25 302.329986572
578182.9375 4179279.25 302.290008545
578182.9375 4179279.5 302.239990234
578182.9375 4179279.75 302.179992676
578182.9375 4179279.75 302.109985352
578182.9375 4179280.25 302
578182.9375 4179280.5 301.970001221
578182.9375 4179280.5 301.970001221
578182.9375 4179280.75 302
578182.9375 4179281 302.059997559
578182.9375 4179281 302.140014648
578182.9375 4179281.25 302.209991455
578182.9375 4179281.5 302.260009766
578182.9375 4179281.75 302.260009766
578182.9375 4179281.75 302.190002441
578182.9375 4179282 302.029998779
578182.9375 4179282.25 301.760009766
578182.9375 4179282.5 301.380004883
578183.125 4179274.25 301.149993896
578183.125 4179274.75 301.609985352
578183.125 4179275 301.480010986
578183.125 4179275.5 301.440002441
578183.125 4179276 301.739990234
578183.125 4179276 301.790008545
578183.125 4179276.25 301.720001221
578183.125 4179276.5 301.760009766
578183.125 4179276.75 302.260009766
578183.125 4179277 302
578183.125 4179277.25 302.100006104
578183.125 4179277.25 302.339996338
578183.125 4179277.75 302.329986572
578183.125 4179278 302.369995117
578183.125 4179278 302.410003662
578183.125 4179278.25 302.429992676
578183.125 4179278.5 302.519989014
578183.125 4179278.75 302.459991455
578183.125 4179279 302.589996338
578183.125 4179279.25 302.429992676
578183.125 4179279.25 302.390014648
578183.125 4179279.5 302.450012207
578183.125 4179279.75 302.290008545
578183.125 4179279.75 302.220001221
578183.125 4179280 302.359985352
578183.125 4179280.25 302.100006104
578183.125 4179280.5 302.070007324
578183.125 4179280.5 302.049987793
578183.125 4179280.75 302.070007324
578183.125 4179281 302.109985352
578183.125 4179281 302.160003662
578183.125 4179281.25 302.220001221
578183.125 4179281.5 302.260009766
578183.125 4179281.75 302.260009766
578183.125 4179281.75 302.200012207
578183.125 4179282 302.059997559
578183.125 4179282.25 301.820007324
578183.125 4179282.5 301.480010986
578183.25 4179274.75 301.459991455
578183.25 4179274.75 301.670013428
578183.25 4179275.25 301.820007324
578183.25 4179275.25 301.799987793
578183.25 4179275.75 301.720001221
578183.25 4179276 301.690002441
578183.25 4179276 301.690002441
578183.25 4179276.25 301.730010986
578183.25 4179276.5 301.799987793
578183.25 4179276.5 301.899993896
578183.25 4179276.75 302.010009766
578183.25 4179277 302.130004883
578183.25 4179277.25 302.239990234
578183.25 4179277.25 302.329986572
578183.25 4179277.5 302.410003662
578183.25 4179277.75 302.480010986
578183.25 4179278 302.519989014
578183.25 4179278 302.429992676
578183.25 4179278.25 302.570007324
578183.25 4179278.5 302.579986572
578183.25 4179278.5 302.709991455
578183.25 4179278.75 302.579986572
578183.25 4179279 302.570007324
578183.25 4179279.25 302.690002441
578183.25 4179279.25 302.519989014
578183.25 4179279.5 302.480010986
578183.25 4179279.75 302.459991455
578183.25 4179279.75 302.359985352
578183.25 4179280 302.290008545
578183.25 4179280.25 302.230010986
578183.25 4179280.5 302.190002441
578183.25 4179280.5 302.149993896
578183.25 4179280.75 302.359985352
578183.25 4179281 302.160003662
578183.25 4179281 302.190002441
578183.25 4179281.25 302.299987793
578183.25 4179281.5 302.25
578183.25 4179281.75 302.239990234
578183.25 4179281.75 302.059997559
578183.25 4179282 302.059997559
578183.25 4179282.25 301.850006104
578183.25 4179282.5 301.549987793
578183.4375 4179274.75 301.559997559
578183.4375 4179274.75 301.709991455
578183.4375 4179275 301.779998779
578183.4375 4179275.25 301.790008545
578183.4375 4179275.25 301.75
578183.4375 4179275.5 301.709991455
578183.4375 4179275.75 301.679992676
578183.4375 4179276 301.679992676
578183.4375 4179276 301.709991455
578183.4375 4179276.25 301.769989014
578183.4375 4179276.5 301.869995117
578183.4375 4179276.5 301.989990234
578183.4375 4179276.75 302.119995117
578183.4375 4179277 302.25
578183.4375 4179277.25 302.369995117
578183.4375 4179277.25 302.480010986
578183.4375 4179277.5 302.559997559
578183.4375 4179277.75 302.630004883
578183.4375 4179278 302.670013428
578183.4375 4179278.25 302.720001221
578183.4375 4179278.5 302.730010986
578183.4375 4179278.5 302.730010986
578183.4375 4179278.75 302.730010986
578183.4375 4179279 302.720001221
578183.4375 4179279.25 302.700012207
578183.4375 4179279.25 302.670013428
578183.4375 4179279.5 302.630004883
578183.4375 4179279.75 302.570007324
578183.4375 4179279.75 302.510009766
578183.4375 4179280 302.440002441
578183.4375 4179280.25 302.450012207
578183.4375 4179280.5 302.309997559
578183.4375 4179280.5 302.260009766
578183.4375 4179280.75 302.429992676
578183.4375 4179281 302.209991455
578183.4375 4179281 302.209991455
578183.4375 4179281.25 302.160003662
578183.4375 4179281.5 302.220001221
578183.4375 4179281.75 302.209991455
578183.4375 4179281.75 302.160003662
578183.4375 4179282 302.049987793
578183.4375 4179282.25 301.869995117
578183.4375 4179282.5 301.730010986
578183.4375 4179283 301.660003662
578183.625 4179274.75 301.739990234
578183.625 4179275 301.779998779
578183.625 4179275.25 301.769989014
578183.625 4179275.25 301.730010986
578183.625 4179275.5 301.690002441
578183.625 4179275.75 301.679992676
578183.625 4179276 301.690002441
578183.625 4179276 301.739990234
578183.625 4179276.25 301.829986572
578183.625 4179276.5 301.950012207
578183.625 4179276.5 302.089996338
578183.625 4179276.75 302.230010986
578183.625 4179277 302.369995117
578183.625 4179277.25 302.5
578183.625 4179277.25 302.609985352
578183.625 4179277.5 302.700012207
578183.625 4179277.75 302.760009766
578183.625 4179278 302.809997559
578183.625 4179278 302.839996338
578183.625 4179278.25 302.859985352
578183.625 4179278.5 302.880004883
578183.625 4179278.5 302.880004883
578183.625 4179278.75 302.880004883
578183.625 4179279 302.869995117
578183.625 4179279.25 302.850006104
578183.625 4179279.25 302.820007324
578183.625 4179279.5 302.779998779
578183.625 4179279.75 302.730010986
578183.625 4179279.75 302.660003662
578183.625 4179280 302.589996338
578183.625 4179280.25 302.510009766
578183.625 4179280.5 302.429992676
578183.625 4179280.5 302.350006104
578183.625 4179280.75 302.290008545
578183.625 4179281 302.25
578183.625 4179281 302.220001221
578183.625 4179281.25 302.200012207
578183.625 4179281.5 302.200012207
578183.625 4179281.75 301.820007324
578183.625 4179282 302.040008545
578183.625 4179282.5 301.529998779
578183.625 4179282.5 301.320007324
578183.625 4179283 301.5
578183.625 4179283.5 301.329986572
578183.8125 4179274.5 301.480010986
578183.8125 4179274.75 301.769989014
578183.8125 4179275 301.529998779
578183.8125 4179275.5 301.700012207
578183.8125 4179275.75 301.869995117
578183.8125 4179276 301.730010986
578183.8125 4179276 301.799987793
578183.8125 4179276.5 302.179992676
578183.8125 4179276.5 302.179992676
578183.8125 4179276.75 302.329986572
578183.8125 4179277 302.480010986
578183.8125 4179277.25 302.609985352
578183.8125 4179277.25 302.720001221
578183.8125 4179277.5 302.809997559
578183.8125 4179277.75 302.890014648
578183.8125 4179278 302.940002441
578183.8125 4179278 302.980010986
578183.8125 4179278.25 303
578183.8125 4179278.5 303.019989014
578183.8125 4179278.5 303.029998779
578183.8125 4179278.75 303.029998779
578183.8125 4179279 303.019989014
578183.8125 4179279.25 303
578183.8125 4179279.25 302.980010986
578183.8125 4179279.5 302.929992676
578183.8125 4179279.75 302.880004883
578183.8125 4179279.75 302.799987793
578183.8125 4179280 302.720001221
578183.8125 4179280.25 302.619995117
578183.8125 4179280.5 302.519989014
578183.8125 4179280.5 302.429992676
578183.8125 4179280.75 302.339996338
578183.8125 4179281 302.269989014
578183.8125 4179281 302.220001221
578183.8125 4179281.25 302.190002441
578183.8125 4179281.5 302.170013428
578183.8125 4179281.75 302.149993896
578183.8125 4179282 302.049987793
578183.8125 4179282.25 301.920013428
578183.8125 4179282.5 301.709991455
578183.8125 4179282.5 301.410003662
578183.8125 4179283.5 301.739990234
578184 4179274 301.350006104
578184 4179274.75 301.630004883
578184 4179274.75 301.809997559
578184 4179275.25 301.720001221
578184 4179275.25 301.75
578184 4179275.5 301.730010986
578184 4179275.75 301.739990234
578184 4179276 301.779998779
578184 4179277 302.420013428
578184 4179277.25 302.809997559
578184 4179277.5 302.910003662
578184 4179277.75 302.839996338
578184 4179278 303.089996338
578184 4179278.25 303.130004883
578184 4179278.5 303.119995117
578184 4179278.5 303.160003662
578184 4179278.75 303.170013428
578184 4179279 302.940002441
578184 4179279.25 303.149993896
578184 4179279.25 303.119995117
578184 4179279.5 303.070007324
578184 4179279.75 303.010009766
578184 4179279.75 302.920013428
578184 4179280 302.820007324
578184 4179280.25 302.709991455
578184 4179280.5 302.589996338
578184 4179280.5 302.480010986
578184 4179280.75 302.369995117
578184 4179281 302.279998779
578184 4179281 302.220001221
578184 4179281.25 302.179992676
578184 4179281.5 302.160003662
578184 4179281.75 302.149993896
578184 4179281.75 302.119995117
578184 4179282 302.070007324
578184 4179282.25 301.959991455
578184 4179282.5 301.779998779
578184 4179282.5 301.5
578184 4179282.75 301.109985352
578184.1875 4179274.75 301.839996338
578184.1875 4179275 301.839996338
578184.1875 4179275.25 301.820007324
578184.1875 4179275.25 301.790008545
578184.1875 4179275.5 301.779998779
578184.1875 4179275.75 301.779998779
578184.1875 4179276 301.850006104
578184.1875 4179276.5 302.329986572
578184.1875 4179277.25 302.549987793
578184.1875 4179277.75 302.959991455
578184.1875 4179278 303.140014648
578184.1875 4179278 303.190002441
578184.1875 4179278.25 303.239990234
578184.1875 4179278.5 303.100006104
578184.1875 4179278.5 303.279998779
578184.1875 4179278.75 303.290008545
578184.1875 4179279 303.329986572
578184.1875 4179279.25 303.269989014
578184.1875 4179279.5 302.859985352
578184.1875 4179279.75 303.109985352
578184.1875 4179280 302.709991455
578184.1875 4179280.25 302.769989014
578184.1875 4179280.5 302.640014648
578184.1875 4179280.5 302.5
578184.1875 4179280.75 302.380004883
578184.1875 4179281 302.279998779
578184.1875 4179281 302.209991455
578184.1875 4179281.25 302.170013428
578184.1875 4179281.5 302.149993896
578184.1875 4179281.75 302.149993896
578184.1875 4179281.75 302.149993896
578184.1875 4179282 302.109985352
578184.1875 4179282.25 302.029998779
578184.1875 4179282.5 301.859985352
578184.1875 4179282.5 301.600006104
578184.1875 4179282.75 301.220001221
578184.375 4179274.25 301.540008545
578184.375 4179274.5 301.730010986
578184.375 4179274.75 301.829986572
578184.375 4179274.75 301.880004883
578184.375 4179275 301.880004883
578184.375 4179275.25 301.859985352
578184.375 4179275.5 301.829986572
578184.375 4179275.75 301.859985352
578184.375 4179276 301.910003662
578184.375 4179276 301.989990234
578184.375 4179276.25 302.100006104
578184.375 4179276.5 302.230010986
578184.375 4179276.75 302.519989014
578184.375 4179277 302.660003662
578184.375 4179277.25 302.799987793
578184.375 4179277.5 303.040008545
578184.375 4179277.75 303.130004883
578184.375 4179278 303.209991455
578184.375 4179278 303.269989014
578184.375 4179278.25 303.320007324
578184.375 4179278.5 303.359985352
578184.375 4179278.5 303.390014648
578184.375 4179278.75 303.399993896
578184.375 4179279 303.399993896
578184.375 4179279.25 303.380004883
578184.375 4179279.25 303.339996338
578184.375 4179279.5 303.420013428
578184.375 4179279.75 303.190002441
578184.375 4179279.75 303.079986572
578184.375 4179280 303.010009766
578184.375 4179280.25 302.809997559
578184.375 4179280.5 302.649993896
578184.375 4179280.5 302.510009766
578184.375 4179280.75 302.380004883
578184.375 4179281 302.269989014
578184.375 4179281 302.390014648
578184.375 4179281.25 302.160003662
578184.375 4179281.5 302.160003662
578184.375 4179281.75 301.970001221
578184.375 4179281.75 302.179992676
578184.375 4179282.5 301.950012207
578184.375 4179282.5 301.690002441
578184.5625 4179274.5 301.760009766
578184.5625 4179274.75 301.859985352
578184.5625 4179274.75 301.910003662
578184.5625 4179275 301.910003662
578184.5625 4179275.25 301.899993896
578184.5625 4179275.25 301.890014648
578184.5625 4179275.5 301.890014648
578184.5625 4179275.75 301.910003662
578184.5625 4179276 301.959991455
578184.5625 4179276 302.040008545
578184.5625 4179276.25 302.149993896
578184.5625 4179276.5 302.269989014
578184.5625 4179276.5 302.410003662
578184.5625 4179276.75 302.549987793
578184.5625 4179277 302.690002441
578184.5625 4179277.25 302.829986572
578184.5625 4179277.5 303.070007324
578184.5625 4179277.75 303.170013428
578184.5625 4179278 303.260009766
578184.5625 4179278 303.329986572
578184.5625 4179278.25 303.390014648
578184.5625 4179278.5 303.440002441
578184.5625 4179278.5 303.470001221
578184.5625 4179278.75 303.489990234
578184.5625 4179279 303.480010986
578184.5625 4179279.25 303.459991455
578184.5625 4179279.25 303.410003662
578184.5625 4179279.5 303.339996338
578184.5625 4179279.75 303.239990234
578184.5625 4179279.75 303.119995117
578184.5625 4179280 302.980010986
578184.5625 4179280.25 302.820007324
578184.5625 4179280.5 302.649993896
578184.5625 4179280.5 302.600006104
578184.5625 4179280.75 302.359985352
578184.5625 4179281 302.390014648
578184.5625 4179281.25 302.170013428
578184.5625 4179281.5 302.079986572
578184.5625 4179281.75 302.200012207
578184.5625 4179281.75 302.230010986
578184.5625 4179282.25 301.720001221
578184.5625 4179282.5 301.779998779
578184.5625 4179282.75 301.660003662
578184.6875 4179274.75 301.880004883
578184.6875 4179274.75 301.929992676
578184.6875 4179275 301.940002441
578184.6875 4179275.25 301.940002441
578184.6875 4179275.25 301.929992676
578184.6875 4179275.5 301.929992676
578184.6875 4179275.75 301.959991455
578184.6875 4179276 302.010009766
578184.6875 4179276 302.079986572
578184.6875 4179276.25 302.179992676
578184.6875 4179276.5 302.299987793
578184.6875 4179276.5 302.429992676
578184.6875 4179276.75 302.570007324
578184.6875 4179277 302.700012207
578184.6875 4179277.25 302.839996338
578184.6875 4179277.25 302.970001221
578184.6875 4179277.5 303.089996338
578184.6875 4179277.75 303.200012207
578184.6875 4179278 303.290008545
578184.6875 4179278 303.369995117
578184.6875 4179278.25 303.440002441
578184.6875 4179278.5 303.5
578184.6875 4179278.5 303.529998779
578184.6875 4179278.75 303.549987793
578184.6875 4179279 303.549987793
578184.6875 4179279.25 303.519989014
578184.6875 4179279.25 303.470001221
578184.6875 4179279.5 303.390014648
578184.6875 4179279.75 303.279998779
578184.6875 4179279.75 303.140014648
578184.6875 4179280 302.980010986
578184.6875 4179280.25 302.809997559
578184.6875 4179280.5 302.640014648
578184.6875 4179280.5 302.480010986
578184.6875 4179280.75 302.350006104
578184.6875 4179281 302.25
578184.6875 4179281 302.190002441
578184.6875 4179281.25 302.170013428
578184.6875 4179281.5 302.200012207
578184.6875 4179281.75 302.239990234
578184.6875 4179281.75 302.269989014
578184.6875 4179282 302.119995117
578184.6875 4179282.5 301.809997559
578184.6875 4179282.75 301.480010986
578184.6875 4179283 301.359985352
578184.6875 4179283.25 301.299987793
578184.875 4179273.75 301.369995117
578184.875 4179274.25 301.799987793
578184.875 4179275 301.989990234
578184.875 4179275.25 301.959991455
578184.875 4179275.5 302.029998779
578184.875 4179277 302.920013428
578184.875 4179277.25 302.839996338
578184.875 4179277.25 302.970001221
578184.875 4179277.5 303.089996338
578184.875 4179277.75 303.179992676
578184.875 4179278 303.299987793
578184.875 4179278 303.390014648
578184.875 4179278.25 303.470001221
578184.875 4179278.5 303.529998779
578184.875 4179278.5 303.570007324
578184.875 4179278.75 303.589996338
578184.875 4179279 303.589996338
578184.875 4179279.25 303.559997559
578184.875 4179279.25 303.510009766
578184.875 4179279.5 303.420013428
578184.875 4179279.75 303.290008545
578184.875 4179279.75 303.149993896
578184.875 4179280 302.980010986
578184.875 4179280.25 302.799987793
578184.875 4179280.5 302.630004883
578184.875 4179280.5 302.470001221
578184.875 4179280.75 302.329986572
578184.875 4179281 302.239990234
578184.875 4179281 302.190002441
578184.875 4179281.25 302.190002441
578184.875 4179281.5 302.220001221
578184.875 4179281.75 302.269989014
578184.875 4179281.75 302.309997559
578184.875 4179282 302.320007324
578184.875 4179282.25 302.269989014
578184.875 4179282.5 302.130004883
578184.875 4179282.5 301.890014648
578184.875 4179282.75 301.529998779
578184.875 4179283 301.049987793
578184.875 4179283.75 301.359985352
578185.0625 4179274.25 301.309997559
578185.0625 4179275.5 301.970001221
578185.0625 4179275.75 302.010009766
578185.0625 4179276 302.130004883
578185.0625 4179276.25 302.190002441
578185.0625 4179278.25 303.619995117
578185.0625 4179278.5 303.589996338
578185.0625 4179278.75 303.619995117
578185.0625 4179279 303.480010986
578185.0625 4179279.25 303.589996338
578185.0625 4179279.25 303.519989014
578185.0625 4179279.5 303.299987793
578185.0625 4179279.75 303.299987793
578185.0625 4179279.75 303.149993896
578185.0625 4179280 302.970001221
578185.0625 4179280.25 302.790008545
578185.0625 4179280.5 302.619995117
578185.0625 4179280.5 302.459991455
578185.0625 4179280.75 302.329986572
578185.0625 4179281 302.25
578185.0625 4179281 302.209991455
578185.0625 4179281.25 302.209991455
578185.0625 4179281.5 302.239990234
578185.0625 4179281.75 302.290008545
578185.0625 4179281.75 302.329986572
578185.0625 4179282 302.339996338
578185.0625 4179282.25 302.279998779
578185.0625 4179282.5 302.140014648
578185.0625 4179282.5 301.899993896
578185.0625 4179282.75 301.540008545
578185.0625 4179283 301.079986572
578185.25 4179274.75 301.470001221
578185.25 4179275.25 301.950012207
578185.25 4179275.75 302.010009766
578185.25 4179276 302.079986572
578185.25 4179276.5 302.350006104
578185.25 4179276.5 302.459991455
578185.25 4179277.25 302.859985352
578185.25 4179278 303.609985352
578185.25 4179278.5 303.779998779
578185.25 4179278.75 303.619995117
578185.25 4179279 303.619995117
578185.25 4179279.25 303.910003662
578185.25 4179279.5 303.429992676
578185.25 4179279.75 303.299987793
578185.25 4179279.75 303.140014648
578185.25 4179280 302.970001221
578185.25 4179280.25 302.790008545
578185.25 4179280.5 302.709991455
578185.25 4179280.5 302.459991455
578185.25 4179280.75 302.339996338
578185.25 4179281 302.260009766
578185.25 4179281 302.220001221
578185.25 4179281.25 302.230010986
578185.25 4179281.5 302.260009766
578185.25 4179281.75 302.299987793
578185.25 4179281.75 302.329986572
578185.25 4179282 302.329986572
578185.25 4179282.25 302.260009766
578185.25 4179282.5 302.119995117
578185.25 4179282.5 301.869995117
578185.25 4179282.75 301.529998779
578185.4375 4179274.5 301.700012207
578185.4375 4179274.75 301.820007324
578185.4375 4179275.25 301.920013428
578185.4375 4179275.25 301.940002441
578185.4375 4179275.5 301.959991455
578185.4375 4179275.75 302
578185.4375 4179276 302.059997559
578185.4375 4179276.25 302.239990234
578185.4375 4179276.5 302.350006104
578185.4375 4179276.5 302.470001221
578185.4375 4179277 302.700012207
578185.4375 4179277.25 302.820007324
578185.4375 4179277.25 302.929992676
578185.4375 4179277.5 303.029998779
578185.4375 4179277.75 303.140014648
578185.4375 4179278.25 303.420013428
578185.4375 4179278.5 303.5
578185.4375 4179278.5 303.559997559
578185.4375 4179278.75 303.600006104
578185.4375 4179279 303.600006104
578185.4375 4179279.5 303.420013428
578185.4375 4179279.75 303.190002441
578185.4375 4179279.75 303.140014648
578185.4375 4179280 302.959991455
578185.4375 4179280.25 302.700012207
578185.4375 4179280.5 302.619995117
578185.4375 4179280.5 302.470001221
578185.4375 4179280.75 302.359985352
578185.4375 4179281 302.260009766
578185.4375 4179281 302.239990234
578185.4375 4179281.25 302.239990234
578185.4375 4179281.5 302.260009766
578185.4375 4179281.75 302.230010986
578185.4375 4179281.75 302.309997559
578185.4375 4179282.25 302.220001221
578185.4375 4179282.5 302.059997559
578185.4375 4179282.5 301.820007324
578185.625 4179274.25 301.489990234
578185.625 4179274.5 301.660003662
578185.625 4179274.75 301.769989014
578185.625 4179274.75 301.829986572
578185.625 4179275 301.859985352
578185.625 4179275.25 301.880004883
578185.625 4179275.25 301.899993896
578185.625 4179275.5 301.929992676
578185.625 4179275.75 301.980010986
578185.625 4179276 302.049987793
578185.625 4179276 302.140014648
578185.625 4179276.5 302.350006104
578185.625 4179276.5 302.470001221
578185.625 4179276.75 302.579986572
578185.625 4179277 302.690002441
578185.625 4179277.25 302.790008545
578185.625 4179277.25 302.890014648
578185.625 4179277.5 302.989990234
578185.625 4179277.75 303.089996338
578185.625 4179278 303.190002441
578185.625 4179278 303.279998779
578185.625 4179278.25 303.369995117
578185.625 4179278.5 303.450012207
578185.625 4179278.5 303.510009766
578185.625 4179278.75 303.559997559
578185.625 4179279 303.570007324
578185.625 4179279.25 303.549987793
578185.625 4179279.25 303.489990234
578185.625 4179279.5 303.399993896
578185.625 4179279.75 303.279998779
578185.625 4179279.75 303.130004883
578185.625 4179280 302.959991455
578185.625 4179280.25 302.790008545
578185.625 4179280.5 302.630004883
578185.625 4179280.5 302.489990234
578185.625 4179280.75 302.470001221
578185.625 4179281 302.299987793
578185.625 4179281 302.190002441
578185.625 4179281.25 302.25
578185.625 4179281.75 301.929992676
578185.625 4179282 301.850006104
578185.625 4179282.5 301.980010986
578185.625 4179282.5 301.730010986
578185.625 4179282.75 301.75
578185.625 4179283 301.339996338
578185.8125 4179274.75 301.720001221
578185.8125 4179274.75 301.779998779
578185.8125 4179275 301.809997559
578185.8125 4179275.25 301.829986572
578185.8125 4179275.25 301.850006104
578185.8125 4179275.5 301.890014648
578185.8125 4179275.75 301.940002441
578185.8125 4179276 302.019989014
578185.8125 4179276 302.119995117
578185.8125 4179276.25 302.220001221
578185.8125 4179276.5 302.450012207
578185.8125 4179276.75 302.559997559
578185.8125 4179277.25 302.760009766
578185.8125 4179277.25 302.850006104
578185.8125 4179277.5 302.940002441
578185.8125 4179277.75 303.029998779
578185.8125 4179278 303.119995117
578185.8125 4179278 303.209991455
578185.8125 4179278.5 303.380004883
578185.8125 4179278.5 303.450012207
578185.8125 4179278.75 303.5
578185.8125 4179279 303.519989014
578185.8125 4179279.25 303.5
578185.8125 4179279.25 303.459991455
578185.8125 4179279.5 303.369995117
578185.8125 4179279.75 303.260009766
578185.8125 4179279.75 303.109985352
578185.8125 4179280 302.959991455
578185.8125 4179280.25 302.790008545
578185.8125 4179280.5 302.640014648
578185.8125 4179280.5 302.5
578185.8125 4179280.75 302.390014648
578185.8125 4179281 302.309997559
578185.8125 4179281 302.260009766
578185.8125 4179281.25 302.239990234
578185.8125 4179281.5 302.230010986
578185.8125 4179281.75 302.209991455
578185.8125 4179282.25 302.070007324
578185.8125 4179282.5 301.880004883
578185.8125 4179282.5 301.630004883
578185.8125 4179282.75 301.859985352
578185.8125 4179283.75 301.630004883
578186 4179274 301.380004883
578186 4179274.75 301.679992676
578186 4179275.25 301.670013428
578186 4179276 302.119995117
578186 4179276 302.079986572
578186 4179276.25 302.190002441
578186 4179276.5 302.309997559
578186 4179276.5 302.429992676
578186 4179277 302.630004883
578186 4179277.5 302.880004883
578186 4179277.75 302.959991455
578186 4179278.25 303.209991455
578186 4179278.5 303.369995117
578186 4179278.75 303.420013428
578186 4179279 303.450012207
578186 4179279.25 303.399993896
578186 4179279.5 303.329986572
578186 4179279.75 303.220001221
578186 4179279.75 303.089996338
578186 4179280 302.940002441
578186 4179280.25 302.779998779
578186 4179280.5 302.630004883
578186 4179280.5 302.5
578186 4179280.75 302.390014648
578186 4179281 302.309997559
578186 4179281 302.260009766
578186 4179281.25 302.220001221
578186 4179281.5 302.200012207
578186 4179281.75 302.179992676
578186 4179281.75 302.140014648
578186 4179282 302.070007324
578186 4179282.25 301.950012207
578186 4179282.5 301.769989014
578186 4179282.5 301.510009766
578186 4179283.25 301.510009766
578186 4179283.75 301.100006104
578186.125 4179274.75 301.649993896
578186.125 4179275.25 301.739990234
578186.125 4179276.5 302.269989014
578186.125 4179276.5 302.359985352
578186.125 4179277 302.579986572
578186.125 4179277.25 302.839996338
578186.125 4179277.75 302.880004883
578186.125 4179278 302.660003662
578186.125 4179278.25 303.119995117
578186.125 4179278.5 303.019989014
578186.125 4179278.75 303.320007324
578186.125 4179279.25 303.140014648
578186.125 4179279.25 303.329986572
578186.125 4179279.75 303.040008545
578186.125 4179280 302.899993896
578186.125 4179280.25 302.75
578186.125 4179280.5 302.609985352
578186.125 4179280.5 302.489990234
578186.125 4179280.75 302.380004883
578186.125 4179281 302.299987793
578186.125 4179281 302.239990234
578186.125 4179281.25 302.200012207
578186.125 4179281.5 302.170013428
578186.125 4179281.75 302.140014648
578186.125 4179281.75 302.079986572
578186.125 4179282 302
578186.125 4179282.25 301.859985352
578186.125 4179282.5 301.660003662
578186.125 4179282.5 301.390014648
578186.3125 4179274.25 301.339996338
578186.3125 4179274.75 301.640014648
578186.3125 4179274.75 301.440002441
578186.3125 4179275.25 301.709991455
578186.3125 4179275.5 301.709991455
578186.3125 4179276 302.149993896
578186.3125 4179276.5 302.200012207
578186.3125 4179276.75 302.470001221
578186.3125 4179277 302.5
578186.3125 4179277.25 302.399993896
578186.3125 4179277.75 302.790008545
578186.3125 4179278 302.660003662
578186.3125 4179278.5 303.160003662
578186.3125 4179279.25 303.230010986
578186.3125 4179279.75 302.760009766
578186.3125 4179279.75 302.959991455
578186.3125 4179280 302.829986572
578186.3125 4179280.25 302.660003662
578186.3125 4179280.5 302.570007324
578186.3125 4179280.5 302.450012207
578186.3125 4179280.75 302.350006104
578186.3125 4179281 302.279998779
578186.3125 4179281 302.220001221
578186.3125 4179281.25 302.179992676
578186.3125 4179281.5 302.149993896
578186.3125 4179281.75 302.100006104
578186.3125 4179281.75 302.040008545
578186.3125 4179282 301.929992676
578186.3125 4179282.25 301.779998779
578186.3125 4179282.5 301.559997559
578186.3125 4179282.5 301.279998779
578186.3125 4179282.75 300.920013428
578186.5 4179274.75 301.630004883
578186.5 4179274.75 301.690002441
578186.5 4179275 301.700012207
578186.5 4179275.25 301.700012207
578186.5 4179275.25 301.700012207
578186.5 4179275.5 301.720001221
578186.5 4179275.75 301.760009766
578186.5 4179276 301.820007324
578186.5 4179276.25 302.010009766
578186.5 4179276.5 302.109985352
578186.5 4179276.5 302.220001221
578186.5 4179277 302.410003662
578186.5 4179277.25 302.489990234
578186.5 4179277.25 302.559997559
578186.5 4179277.5 302.619995117
578186.5 4179277.75 302.690002441
578186.5 4179278.25 302.899993896
578186.5 4179278.75 303.089996338
578186.5 4179279.25 303.359985352
578186.5 4179279.25 303.100006104
578186.5 4179279.5 303.049987793
578186.5 4179279.75 303.160003662
578186.5 4179280 302.739990234
578186.5 4179280.5 302.5
578186.5 4179280.5 302.399993896
578186.5 4179280.75 302.390014648
578186.5 4179281 302.25
578186.5 4179281 302.200012207
578186.5 4179281.25 302.350006104
578186.5 4179281.5 302.130004883
578186.5 4179281.75 302.089996338
578186.5 4179281.75 302.010009766
578186.5 4179282 301.899993896
578186.5 4179282.5 301.480010986
578186.5 4179282.5 301.160003662
578186.6875 4179274.75 301.640014648
578186.6875 4179274.75 301.700012207
578186.6875 4179275 301.720001221
578186.6875 4179275.25 301.709991455
578186.6875 4179275.25 301.700012207
578186.6875 4179275.5 301.700012207
578186.6875 4179275.75 301.720001221
578186.6875 4179276 301.769989014
578186.6875 4179276 301.829986572
578186.6875 4179276.25 301.920013428
578186.6875 4179276.5 302.010009766
578186.6875 4179276.5 302.109985352
578186.6875 4179276.75 302.200012207
578186.6875 4179277 302.290008545
578186.6875 4179277.25 302.369995117
578186.6875 4179277.25 302.440002441
578186.6875 4179277.5 302.510009766
578186.6875 4179277.75 302.579986572
578186.6875 4179278 302.649993896
578186.6875 4179278 302.709991455
578186.6875 4179278.25 302.779998779
578186.6875 4179278.5 302.850006104
578186.6875 4179278.5 302.910003662
578186.6875 4179278.75 302.950012207
578186.6875 4179279.5 302.899993896
578186.6875 4179280 302.619995117
578186.6875 4179280.25 302.369995117
578186.6875 4179280.5 302.410003662
578186.6875 4179280.5 302.320007324
578186.6875 4179280.75 302.529998779
578186.6875 4179281 302.190002441
578186.6875 4179281.25 302.339996338
578186.6875 4179281.75 301.890014648
578186.6875 4179282 301.880004883
578186.6875 4179282.25 301.420013428
578186.6875 4179282.5 301.410003662
578186.6875 4179283 301.5
578186.875 4179274.75 301.720001221
578186.875 4179275 301.75
578186.875 4179275.25 301.739990234
578186.875 4179275.25 301.720001221
578186.875 4179275.5 301.700012207
578186.875 4179275.75 301.700012207
578186.875 4179276 301.760009766
578186.875 4179276.25 301.820007324
578186.875 4179276.5 301.899993896
578186.875 4179276.5 301.989990234
578186.875 4179276.75 302.079986572
578186.875 4179277 302.160003662
578186.875 4179277.25 302.25
578186.875 4179277.25 302.320007324
578186.875 4179277.5 302.399993896
578186.875 4179277.75 302.470001221
578186.875 4179278 302.529998779
578186.875 4179278 302.600006104
578186.875 4179278.25 302.670013428
578186.875 4179278.5 302.730010986
578186.875 4179278.5 302.779998779
578186.875 4179278.75 302.809997559
578186.875 4179279 302.829986572
578186.875 4179279.25 302.820007324
578186.875 4179279.25 302.790008545
578186.875 4179279.5 302.730010986
578186.875 4179279.75 302.649993896
578186.875 4179279.75 302.559997559
578186.875 4179280 302.470001221
578186.875 4179280.25 302.380004883
578186.875 4179280.5 302.299987793
578186.875 4179280.5 302.239990234
578186.875 4179281 302.190002441
578186.875 4179281 302.190002441
578186.875 4179281.25 302.190002441
578186.875 4179281.5 302.179992676
578186.875 4179281.75 302.140014648
578186.875 4179281.75 302.140014648
578186.875 4179282 301.899993896
578186.875 4179282.25 301.660003662
578186.875 4179282.5 301.809997559
578186.875 4179283.5 301.160003662
578187.0625 4179274.25 301.510009766
578187.0625 4179274.75 301.549987793
578187.0625 4179275.25 301.779998779
578187.0625 4179276 301.679992676
578187.0625 4179276.25 301.739990234
578187.0625 4179276.5 301.790008545
578187.0625 4179276.5 301.869995117
578187.0625 4179276.75 301.950012207
578187.0625 4179277 302.029998779
578187.0625 4179277.25 302.200012207
578187.0625 4179277.5 302.279998779
578187.0625 4179277.75 302.350006104
578187.0625 4179278 302.420013428
578187.0625 4179278 302.489990234
578187.0625 4179278.25 302.549987793
578187.0625 4179278.5 302.600006104
578187.0625 4179278.5 302.640014648
578187.0625 4179278.75 302.660003662
578187.0625 4179279 302.670013428
578187.0625 4179279.25 302.649993896
578187.0625 4179279.25 302.600006104
578187.0625 4179279.5 302.540008545
578187.0625 4179279.75 302.470001221
578187.0625 4179279.75 302.390014648
578187.0625 4179280 302.309997559
578187.0625 4179280.25 302.239990234
578187.0625 4179280.5 302.190002441
578187.0625 4179280.5 302.160003662
578187.0625 4179280.75 302.160003662
578187.0625 4179281 302.179992676
578187.0625 4179281 302.209991455
578187.0625 4179281.25 302.239990234
578187.0625 4179281.5 302.25
578187.0625 4179281.75 302.209991455
578187.0625 4179281.75 302.100006104
578187.0625 4179282 301.920013428
578187.0625 4179282.25 301.649993896
578187.0625 4179282.75 301.589996338
578187.0625 4179283.25 301.269989014
578187.25 4179274.25 301.320007324
578187.25 4179274.75 301.619995117
578187.25 4179275 301.809997559
578187.25 4179275.25 301.809997559
578187.25 4179275.5 301.589996338
578187.25 4179275.75 301.700012207
578187.25 4179276 301.660003662
578187.25 4179276 301.869995117
578187.25 4179276.5 301.700012207
578187.25 4179276.75 301.910003662
578187.25 4179277.25 302.179992676
578187.25 4179277.75 302.239990234
578187.25 4179278 302.359985352
578187.25 4179278.25 302.440002441
578187.25 4179278.75 302.519989014
578187.25 4179279 302.510009766
578187.25 4179279.25 302.420013428
578187.25 4179279.5 302.359985352
578187.25 4179279.75 302.279998779
578187.25 4179279.75 302.209991455
578187.25 4179280 302.140014648
578187.25 4179280.25 302.100006104
578187.25 4179280.5 302.079986572
578187.25 4179280.5 302.100006104
578187.25 4179280.75 302.140014648
578187.25 4179281 302.200012207
578187.25 4179281 302.260009766
578187.25 4179281.25 302.309997559
578187.25 4179281.5 302.329986572
578187.25 4179281.75 302.290008545
578187.25 4179281.75 302.170013428
578187.25 4179282 301.950012207
578187.25 4179282.25 301.630004883
578187.4375 4179275 301.559997559
578187.4375 4179275.5 301.540008545
578187.4375 4179276 301.660003662
578187.4375 4179276 301.739990234
578187.4375 4179276.5 301.630004883
578187.4375 4179276.75 301.950012207
578187.4375 4179277.25 302.200012207
578187.4375 4179277.75 302.149993896
578187.4375 4179278.5 302.429992676
578187.4375 4179279 302.359985352
578187.4375 4179279.25 302.489990234
578187.4375 4179279.75 302.239990234
578187.4375 4179280 302
578187.4375 4179280.25 301.980010986
578187.4375 4179280.5 302
578187.4375 4179280.5 302.049987793
578187.4375 4179280.75 302.130004883
578187.4375 4179281 302.230010986
578187.4375 4179281 302.320007324
578187.4375 4179281.25 302.390014648
578187.4375 4179281.75 302.359985352
578187.4375 4179281.75 302.209991455
578187.4375 4179282 301.959991455
578187.4375 4179282.25 301.589996338
578187.4375 4179282.5 301.109985352
578187.5625 4179274.75 301.660003662
578187.5625 4179275 301.790008545
578187.5625 4179275.25 301.839996338
578187.5625 4179275.25 301.839996338
578187.5625 4179275.5 301.799987793
578187.5625 4179276 301.679992676
578187.5625 4179276 301.619995117
578187.5625 4179276.25 301.589996338
578187.5625 4179276.5 301.589996338
578187.5625 4179276.5 301.609985352
578187.5625 4179277 301.720001221
578187.5625 4179277.5 301.980010986
578187.5625 4179277.75 302.070007324
578187.5625 4179278 302.390014648
578187.5625 4179278.25 302.25
578187.5625 4179278.5 302.359985352
578187.5625 4179278.75 302.260009766
578187.5625 4179279 302.230010986
578187.5625 4179279.25 302.230010986
578187.5625 4179279.25 302.100006104
578187.5625 4179279.5 302.029998779
578187.5625 4179279.75 302.25
578187.5625 4179280 301.890014648
578187.5625 4179280.5 302.029998779
578187.5625 4179280.5 302.029998779
578187.5625 4179281 302.130004883
578187.5625 4179282 301.920013428
578187.5625 4179282.25 301.489990234
578187.75 4179274.75 301.519989014
578187.75 4179275.25 301.799987793
578187.75 4179275.25 301.829986572
578187.75 4179275.5 301.809997559
578187.75 4179275.75 301.760009766
578187.75 4179276 301.700012207
578187.75 4179276 301.640014648
578187.75 4179276.25 301.600006104
578187.75 4179276.5 301.579986572
578187.75 4179276.5 301.589996338
578187.75 4179276.75 301.619995117
578187.75 4179277 301.679992676
578187.75 4179277.25 301.760009766
578187.75 4179277.25 301.839996338
578187.75 4179277.5 301.929992676
578187.75 4179277.75 302.010009766
578187.75 4179278 302.079986572
578187.75 4179278 302.140014648
578187.75 4179278.25 302.179992676
578187.75 4179278.5 302.200012207
578187.75 4179278.5 302.200012207
578187.75 4179278.75 302.170013428
578187.75 4179279 302.119995117
578187.75 4179279.25 301.989990234
578187.75 4179279.5 301.920013428
578187.75 4179280 301.820007324
578187.75 4179280.25 301.940002441
578187.75 4179280.5 301.929992676
578187.75 4179280.5 302.040008545
578187.75 4179280.75 301.940002441
578187.75 4179281 302.320007324
578187.75 4179281 302.440002441
578187.75 4179281.5 301.839996338
578187.75 4179282 301.799987793
578187.75 4179282.5 301.489990234
578187.9375 4179275 301.549987793
578187.9375 4179275.25 301.700012207
578187.9375 4179275.75 301.769989014
578187.9375 4179276 301.730010986
578187.9375 4179276 301.679992676
578187.9375 4179276.25 301.630004883
578187.9375 4179276.5 301.609985352
578187.9375 4179276.5 301.609985352
578187.9375 4179276.75 301.640014648
578187.9375 4179277 301.679992676
578187.9375 4179277.25 301.75
578187.9375 4179277.25 301.829986572
578187.9375 4179277.5 301.899993896
578187.9375 4179277.75 301.980010986
578187.9375 4179278 302.049987793
578187.9375 4179278 302.100006104
578187.9375 4179278.25 302.130004883
578187.9375 4179278.5 302.140014648
578187.9375 4179278.5 302.130004883
578187.9375 4179278.75 302.100006104
578187.9375 4179279 302.049987793
578187.9375 4179279.25 301.989990234
578187.9375 4179279.25 301.920013428
578187.9375 4179279.5 301.859985352
578187.9375 4179279.75 301.809997559
578187.9375 4179279.75 301.790008545
578187.9375 4179280 301.799987793
578187.9375 4179280.25 301.850006104
578187.9375 4179280.5 301.940002441
578187.9375 4179280.5 302.059997559
578187.9375 4179280.75 302.200012207
578187.9375 4179281.25 301.720001221
578187.9375 4179281.75 301.450012207
578187.9375 4179282 301.609985352
578187.9375 4179282.5 301.399993896
578187.9375 4179283 300.179992676
578188.125 4179274.75 301.779998779
578188.125 4179275.25 301.390014648
578188.125 4179275.75 301.75
578188.125 4179276 301.709991455
578188.125 4179276.25 301.679992676
578188.125 4179276.5 301.670013428
578188.125 4179276.5 301.670013428
578188.125 4179276.75 301.690002441
578188.125 4179277 301.730010986
578188.125 4179277.25 301.779998779
578188.125 4179277.25 301.839996338
578188.125 4179277.5 301.910003662
578188.125 4179277.75 301.980010986
578188.125 4179278 302.029998779
578188.125 4179278 302.070007324
578188.125 4179278.25 302.100006104
578188.125 4179278.5 302.109985352
578188.125 4179278.5 302.089996338
578188.125 4179278.75 302.059997559
578188.125 4179279 302.019989014
578188.125 4179279.25 301.959991455
578188.125 4179279.25 301.899993896
578188.125 4179279.5 301.850006104
578188.125 4179279.75 301.809997559
578188.125 4179279.75 301.799987793
578188.125 4179280 301.820007324
578188.125 4179280.25 301.880004883
578188.125 4179280.5 301.970001221
578188.125 4179280.5 302.089996338
578188.125 4179280.75 302.209991455
578188.125 4179281 302.320007324
578188.125 4179282 301.299987793
578188.125 4179283 301.420013428
578188.3125 4179276 301.399993896
578188.3125 4179276.25 301.739990234
578188.3125 4179276.5 301.730010986
578188.3125 4179276.5 301.690002441
578188.3125 4179277.25 301.809997559
578188.3125 4179277.5 301.940002441
578188.3125 4179277.75 301.989990234
578188.3125 4179278 301.890014648
578188.3125 4179278 302.070007324
578188.3125 4179278.25 302.079986572
578188.3125 4179278.5 302.089996338
578188.3125 4179278.5 302.070007324
578188.3125 4179278.75 302.049987793
578188.3125 4179279 302.010009766
578188.3125 4179279.25 301.959991455
578188.3125 4179279.25 301.920013428
578188.3125 4179279.5 301.880004883
578188.3125 4179279.75 301.859985352
578188.3125 4179279.75 301.859985352
578188.3125 4179280 301.880004883
578188.3125 4179280.25 301.929992676
578188.3125 4179280.5 302
578188.3125 4179280.5 302.089996338
578188.3125 4179281 302.239990234
578188.3125 4179281.25 302.170013428
578188.3125 4179281.5 302.019989014
