# .PCD v.7 - Point Cloud Data file format
VERSION .7
FIELDS x y z
SIZE 4 4 4
TYPE F F F
COUNT 1 1 1
WIDTH 1036
HEIGHT 1
VIEWPOINT 0 0 0 1 0 0 0
POINTS 1036
DATA ascii
578193.1875 4179287.25 297.100006104
578193.375 4179286.75 297.100006104
578193.375 4179287 297.190002441
578193.375 4179287.25 297.149993896
578193.375 4179287.5 297.079986572
578193.5 4179287 297.410003662
578193.5 4179287 297.179992676
578193.5 4179287.25 297.179992676
578193.5 4179287.5 297.140014648
578193.5 4179287.5 297.059997559
578193.6875 4179287.25 297.179992676
578193.6875 4179287.5 297.089996338
578193.6875 4179287.5 297.130004883
578193.6875 4179287.75 297.049987793
578193.875 4179287.5 297.179992676
578193.875 4179287.5 297.220001221
578193.875 4179287.75 297.119995117
578193.875 4179288 297.040008545
578194.0625 4179287.5 297.140014648
578194.0625 4179287.5 297.179992676
578194.0625 4179288.25 297.029998779
578194.25 4179287.5 297.059997559
578194.25 4179287.5 297.140014648
578194.25 4179287.75 297.170013428
578194.25 4179288.25 297.100006104
578194.25 4179288.25 297.019989014
578194.4375 4179287.5 297.059997559
578194.4375 4179288.25 297.100006104
578194.4375 4179288.5 297.019989014
578194.625 4179288.75 297.040008545
578194.8125 4179270.25 295.049987793
578194.8125 4179280 294.970001221
578194.8125 4179280.25 294.970001221
578194.9375 4179270.25 295.049987793
578194.9375 4179270.25 294.970001221
578194.9375 4179275.25 294.959991455
578194.9375 4179278.5 294.970001221
578194.9375 4179279.25 295.059997559
578194.9375 4179279.25 294.959991455
578194.9375 4179279.5 294.970001221
578194.9375 4179279.75 294.970001221
578194.9375 4179279.75 294.970001221
578194.9375 4179280 294.970001221
578194.9375 4179280.25 294.970001221
578194.9375 4179280.5 294.959991455
578194.9375 4179280.5 294.950012207
578195.125 4179270.25 294.989990234
578195.125 4179270.25 294.910003662
578195.125 4179270.75 294.929992676
578195.125 4179275.25 294.890014648
578195.125 4179275.25 294.899993896
578195.125 4179275.5 294.899993896
578195.125 4179275.75 294.899993896
578195.125 4179276 294.899993896
578195.125 4179276 294.899993896
578195.125 4179276.25 294.910003662
578195.125 4179276.5 294.910003662
578195.125 4179276.5 294.929992676
578195.125 4179276.75 294.950012207
578195.125 4179277.25 294.989990234
578195.125 4179277.25 295.010009766
578195.125 4179277.75 295.040008545
578195.125 4179278 295.040008545
578195.125 4179278 295.040008545
578195.125 4179278.5 295.019989014
578195.125 4179278.5 295
578195.125 4179279 294.980010986
578195.125 4179279.25 294.970001221
578195.125 4179279.25 294.970001221
578195.125 4179279.5 294.970001221
578195.125 4179279.75 294.970001221
578195.125 4179279.75 294.959991455
578195.125 4179280 294.970001221
578195.125 4179280.25 294.959991455
578195.125 4179280.5 294.950012207
578195.125 4179280.5 294.929992676
578195.125 4179280.75 294.910003662
578195.125 4179281 294.980010986
578195.125 4179281 294.880004883
578195.125 4179284 294.899993896
578195.125 4179284.25 294.970001221
578195.3125 4179270 294.910003662
578195.3125 4179270.25 294.940002441
578195.3125 4179270.25 294.869995117
578195.3125 4179272.25 294.839996338
578195.3125 4179272.5 294.859985352
578195.3125 4179272.75 294.880004883
578195.3125 4179272.75 294.890014648
578195.3125 4179273 294.880004883
578195.3125 4179273.25 294.890014648
578195.3125 4179273.5 294.890014648
578195.3125 4179273.5 294.880004883
578195.3125 4179273.75 294.869995117
578195.3125 4179274 294.859985352
578195.3125 4179274 294.859985352
578195.3125 4179274.25 294.859985352
578195.3125 4179274.5 294.859985352
578195.3125 4179274.75 294.869995117
578195.3125 4179274.75 294.880004883
578195.3125 4179275 294.880004883
578195.3125 4179275.25 294.890014648
578195.3125 4179275.25 294.890014648
578195.3125 4179275.5 294.890014648
578195.3125 4179275.75 294.899993896
578195.3125 4179276 294.910003662
578195.3125 4179276 294.920013428
578195.3125 4179276.25 294.950012207
578195.3125 4179276.5 294.980010986
578195.3125 4179276.5 295.010009766
578195.3125 4179276.75 295.049987793
578195.3125 4179279 295.010009766
578195.3125 4179279.25 294.989990234
578195.3125 4179279.5 294.970001221
578195.3125 4179279.75 294.959991455
578195.3125 4179279.75 295.029998779
578195.3125 4179280 294.950012207
578195.3125 4179280.25 294.940002441
578195.3125 4179280.5 294.929992676
578195.3125 4179280.5 294.950012207
578195.3125 4179280.75 294.899993896
578195.3125 4179281 294.880004883
578195.3125 4179281 294.869995117
578195.3125 4179281.25 294.859985352
578195.3125 4179281.5 294.859985352
578195.3125 4179281.75 295.029998779
578195.3125 4179281.75 294.869995117
578195.3125 4179282 294.880004883
578195.3125 4179282.5 294.890014648
578195.3125 4179282.5 294.890014648
578195.3125 4179282.75 294.869995117
578195.3125 4179283 294.859985352
578195.3125 4179283 294.850006104
578195.3125 4179283.5 294.809997559
578195.3125 4179283.75 294.809997559
578195.3125 4179283.75 294.829986572
578195.3125 4179284 294.859985352
578195.3125 4179284.25 294.910003662
578195.3125 4179284.25 294.989990234
578195.5 4179270 294.980010986
578195.5 4179270.25 294.910003662
578195.5 4179270.25 294.839996338
578195.5 4179270.5 294.790008545
578195.5 4179271.5 294.779998779
578195.5 4179271.75 294.779998779
578195.5 4179272 294.809997559
578195.5 4179272.25 294.869995117
578195.5 4179272.5 294.890014648
578195.5 4179272.75 294.910003662
578195.5 4179272.75 294.880004883
578195.5 4179273 294.920013428
578195.5 4179273.25 294.920013428
578195.5 4179273.5 294.920013428
578195.5 4179273.5 294.950012207
578195.5 4179273.75 294.910003662
578195.5 4179274 294.899993896
578195.5 4179274 294.839996338
578195.5 4179274.25 294.890014648
578195.5 4179274.5 294.890014648
578195.5 4179274.75 294.890014648
578195.5 4179274.75 294.799987793
578195.5 4179275 294.880004883
578195.5 4179275.25 294.880004883
578195.5 4179275.25 294.880004883
578195.5 4179275.5 294.890014648
578195.5 4179275.75 294.899993896
578195.5 4179276 294.920013428
578195.5 4179276 294.950012207
578195.5 4179276.25 294.989990234
578195.5 4179276.5 295.040008545
578195.5 4179279 295.029998779
578195.5 4179279.25 295
578195.5 4179279.25 294.970001221
578195.5 4179279.5 294.959991455
578195.5 4179279.75 294.950012207
578195.5 4179279.75 294.940002441
578195.5 4179280 294.929992676
578195.5 4179280.25 294.920013428
578195.5 4179280.5 294.910003662
578195.5 4179280.5 294.899993896
578195.5 4179280.75 294.880004883
578195.5 4179281 294.869995117
578195.5 4179281.25 294.869995117
578195.5 4179281.5 294.880004883
578195.5 4179281.75 294.809997559
578195.5 4179281.75 294.920013428
578195.5 4179282 294.940002441
578195.5 4179282.25 294.790008545
578195.5 4179282.5 294.970001221
578195.5 4179282.5 294.970001221
578195.5 4179282.75 294.769989014
578195.5 4179283 294.950012207
578195.5 4179283 294.920013428
578195.5 4179283.25 294.890014648
578195.5 4179283.5 294.859985352
578195.5 4179283.75 294.839996338
578195.5 4179283.75 294.829986572
578195.5 4179284 294.869995117
578195.5 4179284.25 294.880004883
578195.5 4179284.25 294.940002441
578195.5 4179284.5 294.940002441
578195.6875 4179269.75 295.010009766
578195.6875 4179270 294.940002441
578195.6875 4179270.25 294.890014648
578195.6875 4179270.25 294.839996338
578195.6875 4179270.5 294.809997559
578195.6875 4179270.75 294.790008545
578195.6875 4179270.75 294.779998779
578195.6875 4179271 294.779998779
578195.6875 4179271.25 294.779998779
578195.6875 4179271.5 294.799987793
578195.6875 4179271.5 294.809997559
578195.6875 4179271.75 294.839996338
578195.6875 4179272 294.859985352
578195.6875 4179272 294.880004883
578195.6875 4179272.25 294.899993896
578195.6875 4179272.5 294.920013428
578195.6875 4179272.75 294.929992676
578195.6875 4179272.75 294.940002441
578195.6875 4179273 294.950012207
578195.6875 4179273.25 294.950012207
578195.6875 4179273.5 294.980010986
578195.6875 4179273.5 294.950012207
578195.6875 4179273.75 294.950012207
578195.6875 4179274 294.940002441
578195.6875 4179274.25 294.929992676
578195.6875 4179274.5 294.859985352
578195.6875 4179274.75 294.910003662
578195.6875 4179274.75 294.899993896
578195.6875 4179275 294.890014648
578195.6875 4179275.25 294.859985352
578195.6875 4179275.5 294.880004883
578195.6875 4179275.75 294.899993896
578195.6875 4179276 294.929992676
578195.6875 4179276 294.989990234
578195.6875 4179276.25 295.029998779
578195.6875 4179276.5 294.950012207
578195.6875 4179279.25 295
578195.6875 4179279.25 294.970001221
578195.6875 4179279.5 294.940002441
578195.6875 4179279.75 294.929992676
578195.6875 4179279.75 294.920013428
578195.6875 4179280 294.910003662
578195.6875 4179280.25 294.899993896
578195.6875 4179280.5 294.890014648
578195.6875 4179280.5 294.880004883
578195.6875 4179280.75 294.869995117
578195.6875 4179281 294.869995117
578195.6875 4179281 294.869995117
578195.6875 4179281.25 294.890014648
578195.6875 4179281.5 294.910003662
578195.6875 4179281.75 294.940002441
578195.6875 4179281.75 294.980010986
578195.6875 4179282 295.010009766
578195.6875 4179283 295.019989014
578195.6875 4179283.25 294.970001221
578195.6875 4179283.5 294.890014648
578195.6875 4179283.75 294.880004883
578195.6875 4179283.75 294.859985352
578195.6875 4179284 294.779998779
578195.6875 4179284.25 294.859985352
578195.6875 4179284.25 294.910003662
578195.6875 4179284.5 294.839996338
578195.875 4179269.5 295.029998779
578195.875 4179269.75 294.959991455
578195.875 4179270 294.910003662
578195.875 4179270.25 294.880004883
578195.875 4179270.25 294.859985352
578195.875 4179270.5 294.850006104
578195.875 4179270.75 294.839996338
578195.875 4179270.75 294.850006104
578195.875 4179271 294.859985352
578195.875 4179271.25 294.869995117
578195.875 4179271.5 294.880004883
578195.875 4179271.5 294.890014648
578195.875 4179271.75 294.899993896
578195.875 4179272 294.910003662
578195.875 4179272 294.920013428
578195.875 4179272.25 294.929992676
578195.875 4179272.5 294.940002441
578195.875 4179272.75 294.950012207
578195.875 4179272.75 294.959991455
578195.875 4179273 294.959991455
578195.875 4179273.25 294.970001221
578195.875 4179273.5 294.970001221
578195.875 4179273.5 294.980010986
578195.875 4179273.75 294.980010986
578195.875 4179274 294.980010986
578195.875 4179274 294.970001221
578195.875 4179274.25 294.959991455
578195.875 4179274.5 294.950012207
578195.875 4179274.75 294.929992676
578195.875 4179274.75 294.910003662
578195.875 4179275 294.890014648
578195.875 4179275.25 294.880004883
578195.875 4179275.25 294.869995117
578195.875 4179275.5 294.880004883
578195.875 4179276 294.940002441
578195.875 4179276 294.700012207
578195.875 4179279.25 294.950012207
578195.875 4179279.5 294.920013428
578195.875 4179279.75 294.910003662
578195.875 4179279.75 294.890014648
578195.875 4179280 294.890014648
578195.875 4179280.25 294.880004883
578195.875 4179280.5 294.869995117
578195.875 4179280.5 294.869995117
578195.875 4179280.75 294.869995117
578195.875 4179281 294.869995117
578195.875 4179281 294.890014648
578195.875 4179281.25 294.920013428
578195.875 4179281.5 294.950012207
578195.875 4179281.75 295
578195.875 4179283.5 295.010009766
578195.875 4179283.75 294.950012207
578195.875 4179283.75 294.899993896
578195.875 4179284 294.869995117
578195.875 4179284.25 294.869995117
578195.875 4179284.25 294.890014648
578195.875 4179284.5 294.950012207
578196.0625 4179269 294.899993896
578196.0625 4179269.5 295.019989014
578196.0625 4179269.5 294.959991455
578196.0625 4179269.75 294.880004883
578196.0625 4179270 294.890014648
578196.0625 4179270.25 294.880004883
578196.0625 4179270.25 294.720001221
578196.0625 4179270.5 294.899993896
578196.0625 4179270.75 294.920013428
578196.0625 4179270.75 294.940002441
578196.0625 4179271 295.019989014
578196.0625 4179271.25 294.970001221
578196.0625 4179271.5 294.980010986
578196.0625 4179271.5 294.980010986
578196.0625 4179271.75 294.980010986
578196.0625 4179272 294.980010986
578196.0625 4179272 294.970001221
578196.0625 4179272.25 294.959991455
578196.0625 4179272.5 294.959991455
578196.0625 4179272.75 294.959991455
578196.0625 4179272.75 294.959991455
578196.0625 4179273 294.970001221
578196.0625 4179273.25 294.970001221
578196.0625 4179273.5 294.980010986
578196.0625 4179273.5 294.989990234
578196.0625 4179273.75 295
578196.0625 4179274 295
578196.0625 4179274 294.989990234
578196.0625 4179274.25 294.980010986
578196.0625 4179274.5 294.970001221
578196.0625 4179274.75 294.950012207
578196.0625 4179274.75 294.920013428
578196.0625 4179275 294.899993896
578196.0625 4179275.25 294.880004883
578196.0625 4179275.25 294.869995117
578196.0625 4179275.5 294.869995117
578196.0625 4179275.75 294.890014648
578196.0625 4179276 294.940002441
578196.0625 4179279.25 294.829986572
578196.0625 4179279.25 294.929992676
578196.0625 4179279.5 294.950012207
578196.0625 4179279.75 294.880004883
578196.0625 4179279.75 294.869995117
578196.0625 4179280 294.869995117
578196.0625 4179280.25 294.779998779
578196.0625 4179280.5 294.859985352
578196.0625 4179280.5 294.859985352
578196.0625 4179280.75 294.760009766
578196.0625 4179281 294.880004883
578196.0625 4179281 294.910003662
578196.0625 4179281.25 294.869995117
578196.0625 4179281.5 295
578196.0625 4179283.75 294.950012207
578196.0625 4179284 294.899993896
578196.0625 4179284.25 294.880004883
578196.0625 4179284.25 294.890014648
578196.0625 4179284.5 294.920013428
578196.0625 4179284.75 294.989990234
578196.25 4179269.25 295.010009766
578196.25 4179269.5 294.950012207
578196.25 4179269.5 294.890014648
578196.25 4179269.75 294.880004883
578196.25 4179270 294.880004883
578196.25 4179270.25 294.829986572
578196.25 4179270.25 294.929992676
578196.25 4179270.5 294.970001221
578196.25 4179271.5 294.799987793
578196.25 4179272 294.899993896
578196.25 4179272.25 294.989990234
578196.25 4179272.5 294.970001221
578196.25 4179272.75 294.959991455
578196.25 4179273 294.950012207
578196.25 4179273.25 294.959991455
578196.25 4179273.5 294.989990234
578196.25 4179273.75 295
578196.25 4179274 295
578196.25 4179274 295
578196.25 4179274.25 294.989990234
578196.25 4179274.5 294.980010986
578196.25 4179274.75 294.950012207
578196.25 4179274.75 294.920013428
578196.25 4179275 294.890014648
578196.25 4179275.25 294.869995117
578196.25 4179275.25 294.859985352
578196.25 4179275.5 294.859985352
578196.25 4179275.75 294.890014648
578196.25 4179276 294.940002441
578196.25 4179279 295
578196.25 4179279.25 294.940002441
578196.25 4179279.25 294.899993896
578196.25 4179279.5 294.869995117
578196.25 4179279.75 294.869995117
578196.25 4179279.75 294.850006104
578196.25 4179280 294.850006104
578196.25 4179280.25 294.940002441
578196.25 4179280.5 294.850006104
578196.25 4179280.5 294.850006104
578196.25 4179280.75 294.959991455
578196.25 4179281 294.890014648
578196.25 4179281 294.929992676
578196.25 4179281.25 294.970001221
578196.25 4179284 294.940002441
578196.25 4179284.25 294.899993896
578196.25 4179284.25 294.890014648
578196.25 4179284.5 294.910003662
578196.25 4179284.75 294.950012207
578196.4375 4179269 294.980010986
578196.4375 4179269.25 294.920013428
578196.4375 4179269.5 294.869995117
578196.4375 4179269.5 294.850006104
578196.4375 4179269.75 294.850006104
578196.4375 4179270 294.880004883
578196.4375 4179270.25 294.920013428
578196.4375 4179270.25 294.970001221
578196.4375 4179271.5 294.910003662
578196.4375 4179272.25 295
578196.4375 4179272.5 294.910003662
578196.4375 4179272.75 294.940002441
578196.4375 4179272.75 294.929992676
578196.4375 4179273 294.760009766
578196.4375 4179273.25 294.929992676
578196.4375 4179273.5 294.950012207
578196.4375 4179273.5 294.959991455
578196.4375 4179273.75 294.980010986
578196.4375 4179274 294.910003662
578196.4375 4179274 294.989990234
578196.4375 4179274.25 294.989990234
578196.4375 4179274.5 294.970001221
578196.4375 4179274.75 294.869995117
578196.4375 4179274.75 294.920013428
578196.4375 4179275 294.880004883
578196.4375 4179275.25 294.850006104
578196.4375 4179275.25 294.850006104
578196.4375 4179275.5 294.850006104
578196.4375 4179275.75 294.880004883
578196.4375 4179276 294.929992676
578196.4375 4179279 294.959991455
578196.4375 4179279.25 294.910003662
578196.4375 4179279.25 294.869995117
578196.4375 4179279.5 294.850006104
578196.4375 4179279.75 294.839996338
578196.4375 4179279.75 294.829986572
578196.4375 4179280 294.829986572
578196.4375 4179280.25 294.839996338
578196.4375 4179280.5 294.839996338
578196.4375 4179280.5 294.850006104
578196.4375 4179280.75 294.869995117
578196.4375 4179281 294.899993896
578196.4375 4179281 294.940002441
578196.4375 4179281.25 294.760009766
578196.4375 4179284 294.970001221
578196.4375 4179284.25 294.920013428
578196.4375 4179284.25 294.959991455
578196.4375 4179284.5 294.890014648
578196.4375 4179284.75 294.920013428
578196.4375 4179285 294.799987793
578196.5625 4179269 294.959991455
578196.5625 4179269 294.880004883
578196.5625 4179269.25 294.829986572
578196.5625 4179269.5 294.799987793
578196.5625 4179269.5 294.799987793
578196.5625 4179269.75 294.829986572
578196.5625 4179270 294.880004883
578196.5625 4179270.25 294.940002441
578196.5625 4179272.25 294.989990234
578196.5625 4179272.5 294.950012207
578196.5625 4179272.75 294.910003662
578196.5625 4179272.75 294.890014648
578196.5625 4179273 294.880004883
578196.5625 4179273.25 294.890014648
578196.5625 4179273.5 294.899993896
578196.5625 4179273.5 294.890014648
578196.5625 4179273.75 294.940002441
578196.5625 4179274 294.959991455
578196.5625 4179274 294.820007324
578196.5625 4179274.25 294.959991455
578196.5625 4179274.5 294.950012207
578196.5625 4179274.75 294.820007324
578196.5625 4179274.75 294.899993896
578196.5625 4179275 294.869995117
578196.5625 4179275.25 294.850006104
578196.5625 4179275.25 294.829986572
578196.5625 4179275.5 294.839996338
578196.5625 4179275.75 294.799987793
578196.5625 4179276 294.910003662
578196.5625 4179276 294.980010986
578196.5625 4179278.75 294.980010986
578196.5625 4179279 294.910003662
578196.5625 4179279.25 294.869995117
578196.5625 4179279.25 294.829986572
578196.5625 4179279.5 294.820007324
578196.5625 4179279.75 294.809997559
578196.5625 4179279.75 294.820007324
578196.5625 4179280 294.820007324
578196.5625 4179280.25 294.829986572
578196.5625 4179280.5 294.839996338
578196.5625 4179280.5 294.859985352
578196.5625 4179280.75 294.880004883
578196.5625 4179281 294.910003662
578196.5625 4179281 294.950012207
578196.5625 4179283.75 294.869995117
578196.5625 4179284.25 294.890014648
578196.5625 4179284.5 294.880004883
578196.5625 4179284.75 294.890014648
578196.75 4179268.25 294.950012207
578196.75 4179268.75 294.940002441
578196.75 4179269 294.850006104
578196.75 4179269 294.779998779
578196.75 4179269.25 294.75
578196.75 4179269.5 294.739990234
578196.75 4179269.5 294.760009766
578196.75 4179269.75 294.809997559
578196.75 4179270 294.880004883
578196.75 4179270.25 294.959991455
578196.75 4179272.25 294.980010986
578196.75 4179272.5 294.920013428
578196.75 4179272.75 294.869995117
578196.75 4179272.75 294.839996338
578196.75 4179273 294.829986572
578196.75 4179273.25 294.829986572
578196.75 4179273.5 294.850006104
578196.75 4179273.5 294.869995117
578196.75 4179273.75 294.890014648
578196.75 4179274 294.910003662
578196.75 4179274 294.920013428
578196.75 4179274.25 294.920013428
578196.75 4179274.5 294.910003662
578196.75 4179274.75 294.899993896
578196.75 4179274.75 294.869995117
578196.75 4179275 294.850006104
578196.75 4179275.25 294.829986572
578196.75 4179275.25 294.869995117
578196.75 4179275.5 294.820007324
578196.75 4179275.75 294.839996338
578196.75 4179276 294.950012207
578196.75 4179276.5 294.850006104
578196.75 4179278.75 294.75
578196.75 4179279 294.859985352
578196.75 4179279.25 294.820007324
578196.75 4179279.25 294.850006104
578196.75 4179279.5 294.790008545
578196.75 4179279.75 294.799987793
578196.75 4179279.75 294.809997559
578196.75 4179280 294.820007324
578196.75 4179280.25 294.829986572
578196.75 4179280.5 294.850006104
578196.75 4179280.5 294.859985352
578196.75 4179280.75 294.880004883
578196.75 4179281 294.910003662
578196.75 4179281 294.950012207
578196.75 4179284.25 294.920013428
578196.75 4179284.25 294.880004883
578196.75 4179284.5 294.859985352
578196.75 4179284.75 294.850006104
578196.75 4179285 294.869995117
578196.75 4179285 294.910003662
578196.75 4179285.25 294.959991455
578196.75 4179285.5 294.899993896
578196.9375 4179268.25 294.779998779
578196.9375 4179268.5 294.929992676
578196.9375 4179268.75 294.809997559
578196.9375 4179269 294.75
578196.9375 4179269 294.700012207
578196.9375 4179269.25 294.929992676
578196.9375 4179269.5 294.690002441
578196.9375 4179269.5 294.869995117
578196.9375 4179269.75 294.790008545
578196.9375 4179270 294.880004883
578196.9375 4179270.25 294.980010986
578196.9375 4179272.25 294.950012207
578196.9375 4179272.5 294.880004883
578196.9375 4179272.75 294.829986572
578196.9375 4179272.75 294.790008545
578196.9375 4179273 294.769989014
578196.9375 4179273.25 294.769989014
578196.9375 4179273.5 294.779998779
578196.9375 4179273.5 294.799987793
578196.9375 4179273.75 294.829986572
578196.9375 4179274 294.850006104
578196.9375 4179274 294.869995117
578196.9375 4179274.25 294.869995117
578196.9375 4179274.5 294.869995117
578196.9375 4179274.75 294.859985352
578196.9375 4179274.75 294.839996338
578196.9375 4179275 294.820007324
578196.9375 4179275.25 294.799987793
578196.9375 4179275.25 294.790008545
578196.9375 4179275.5 294.799987793
578196.9375 4179275.75 294.809997559
578196.9375 4179276 294.850006104
578196.9375 4179276 294.899993896
578196.9375 4179276.25 294.959991455
578196.9375 4179278 294.859985352
578196.9375 4179278.5 294.910003662
578196.9375 4179278.75 294.809997559
578196.9375 4179279 294.809997559
578196.9375 4179279.25 294.779998779
578196.9375 4179279.25 294.910003662
578196.9375 4179279.5 294.769989014
578196.9375 4179279.75 294.790008545
578196.9375 4179279.75 294.739990234
578196.9375 4179280 294.820007324
578196.9375 4179280.25 294.839996338
578196.9375 4179280.5 294.859985352
578196.9375 4179280.75 294.890014648
578196.9375 4179281 294.920013428
578196.9375 4179284.25 294.899993896
578196.9375 4179284.25 294.859985352
578196.9375 4179284.5 294.829986572
578196.9375 4179284.75 294.820007324
578196.9375 4179285 294.829986572
578196.9375 4179285 294.850006104
578196.9375 4179285.25 294.890014648
578196.9375 4179285.5 294.940002441
578197.125 4179268.25 294.940002441
578197.125 4179268.5 294.829986572
578197.125 4179268.75 294.739990234
578197.125 4179269 294.670013428
578197.125 4179269 294.640014648
578197.125 4179269.5 294.660003662
578197.125 4179269.5 294.709991455
578197.125 4179272 294.670013428
578197.125 4179272.25 294.929992676
578197.125 4179272.5 294.850006104
578197.125 4179272.75 294.720001221
578197.125 4179272.75 294.739990234
578197.125 4179273 294.720001221
578197.125 4179273.25 294.890014648
578197.125 4179273.5 294.720001221
578197.125 4179273.5 294.739990234
578197.125 4179273.75 294.769989014
578197.125 4179274 294.790008545
578197.125 4179274 294.809997559
578197.125 4179274.25 294.820007324
578197.125 4179274.5 294.820007324
578197.125 4179274.75 294.820007324
578197.125 4179274.75 294.809997559
578197.125 4179275 294.790008545
578197.125 4179275.25 294.779998779
578197.125 4179275.25 294.769989014
578197.125 4179275.5 294.769989014
578197.125 4179275.75 294.790008545
578197.125 4179276 294.809997559
578197.125 4179276 294.850006104
578197.125 4179276.25 294.890014648
578197.125 4179276.5 294.940002441
578197.125 4179278.25 294.940002441
578197.125 4179278.5 294.880004883
578197.125 4179278.5 294.829986572
578197.125 4179278.75 294.790008545
578197.125 4179279 294.760009766
578197.125 4179279.25 294.75
578197.125 4179279.25 294.75
578197.125 4179279.5 294.760009766
578197.125 4179279.75 294.779998779
578197.125 4179279.75 294.890014648
578197.125 4179280 294.829986572
578197.125 4179280.25 294.850006104
578197.125 4179280.5 294.929992676
578197.125 4179280.5 294.890014648
578197.125 4179280.75 294.899993896
578197.125 4179281 294.920013428
578197.125 4179284 294.929992676
578197.125 4179284.25 294.869995117
578197.125 4179284.25 294.829986572
578197.125 4179284.5 294.799987793
578197.125 4179284.75 294.790008545
578197.125 4179285 294.790008545
578197.125 4179285 294.799987793
578197.125 4179285.25 294.829986572
578197.125 4179285.5 294.869995117
578197.125 4179285.5 294.920013428
578197.3125 4179268.25 294.869995117
578197.3125 4179268.5 294.760009766
578197.3125 4179268.75 294.679992676
578197.3125 4179269 294.619995117
578197.3125 4179269 294.600006104
578197.3125 4179269.25 294.609985352
578197.3125 4179269.5 294.640014648
578197.3125 4179269.5 294.709991455
578197.3125 4179269.75 294.790008545
578197.3125 4179270 294.890014648
578197.3125 4179272.25 294.899993896
578197.3125 4179272.5 294.820007324
578197.3125 4179272.75 294.959991455
578197.3125 4179272.75 294.709991455
578197.3125 4179273 294.679992676
578197.3125 4179273.25 294.670013428
578197.3125 4179273.5 294.899993896
578197.3125 4179273.5 294.690002441
578197.3125 4179274.25 294.779998779
578197.3125 4179274.5 294.839996338
578197.3125 4179274.75 294.790008545
578197.3125 4179274.75 294.779998779
578197.3125 4179275 294.859985352
578197.3125 4179275.25 294.769989014
578197.3125 4179275.25 294.760009766
578197.3125 4179275.5 294.760009766
578197.3125 4179275.75 294.760009766
578197.3125 4179276 294.769989014
578197.3125 4179276 294.790008545
578197.3125 4179276.25 294.820007324
578197.3125 4179276.5 294.850006104
578197.3125 4179276.5 294.890014648
578197.3125 4179276.75 294.920013428
578197.3125 4179277 294.940002441
578197.3125 4179277.75 294.940002441
578197.3125 4179278 294.910003662
578197.3125 4179278 294.869995117
578197.3125 4179278.25 294.829986572
578197.3125 4179278.5 294.799987793
578197.3125 4179278.5 294.760009766
578197.3125 4179278.75 294.739990234
578197.3125 4179279 294.730010986
578197.3125 4179279.25 294.730010986
578197.3125 4179279.25 294.739990234
578197.3125 4179279.5 294.769989014
578197.3125 4179279.75 294.790008545
578197.3125 4179279.75 294.820007324
578197.3125 4179280 294.850006104
578197.3125 4179280.25 294.869995117
578197.3125 4179280.5 294.890014648
578197.3125 4179280.5 294.910003662
578197.3125 4179280.75 294.920013428
578197.3125 4179281 294.929992676
578197.3125 4179284 294.890014648
578197.3125 4179284.25 294.799987793
578197.3125 4179284.5 294.769989014
578197.3125 4179284.75 294.829986572
578197.3125 4179285 294.760009766
578197.3125 4179285 294.769989014
578197.3125 4179285.25 294.850006104
578197.3125 4179285.5 294.829986572
578197.3125 4179285.5 294.869995117
578197.3125 4179285.75 294.929992676
578197.5 4179268.25 294.820007324
578197.5 4179268.5 294.720001221
578197.5 4179268.75 294.649993896
578197.5 4179269 294.600006104
578197.5 4179269 294.589996338
578197.5 4179269.25 294.609985352
578197.5 4179269.5 294.649993896
578197.5 4179269.5 294.720001221
578197.5 4179269.75 294.809997559
578197.5 4179270 294.910003662
578197.5 4179272.25 294.890014648
578197.5 4179272.5 294.809997559
578197.5 4179272.75 294.75
578197.5 4179272.75 294.700012207
578197.5 4179273 294.670013428
578197.5 4179273.25 294.660003662
578197.5 4179273.5 294.660003662
578197.5 4179273.5 294.670013428
578197.5 4179273.75 294.730010986
578197.5 4179274 294.730010986
578197.5 4179274.25 294.75
578197.5 4179274.5 294.799987793
578197.5 4179274.75 294.769989014
578197.5 4179274.75 294.769989014
578197.5 4179275 294.839996338
578197.5 4179275.25 294.760009766
578197.5 4179275.25 294.760009766
578197.5 4179275.5 294.75
578197.5 4179276 294.75
578197.5 4179276 294.75
578197.5 4179276.5 294.779998779
578197.5 4179276.5 294.790008545
578197.5 4179276.75 294.679992676
578197.5 4179277 294.820007324
578197.5 4179277.25 294.820007324
578197.5 4179277.25 294.679992676
578197.5 4179277.5 294.820007324
578197.5 4179277.75 294.809997559
578197.5 4179278 294.799987793
578197.5 4179278 294.779998779
578197.5 4179278.25 294.75
578197.5 4179278.5 294.730010986
578197.5 4179278.5 294.720001221
578197.5 4179278.75 294.709991455
578197.5 4179279 294.720001221
578197.5 4179279.25 294.730010986
578197.5 4179279.25 294.75
578197.5 4179279.5 294.779998779
578197.5 4179279.75 294.820007324
578197.5 4179279.75 294.850006104
578197.5 4179280 294.880004883
578197.5 4179280.25 294.899993896
578197.5 4179280.5 294.920013428
578197.5 4179280.5 294.929992676
578197.5 4179280.75 294.940002441
578197.5 4179284 294.850006104
578197.5 4179284.25 294.809997559
578197.5 4179284.25 294.779998779
578197.5 4179284.5 294.820007324
578197.5 4179284.75 294.75
578197.5 4179285.25 294.779998779
578197.5 4179285.5 294.820007324
578197.5 4179285.5 294.859985352
578197.5 4179285.75 294.920013428
578197.6875 4179267.75 294.899993896
578197.6875 4179268.25 294.630004883
578197.6875 4179268.25 294.809997559
578197.6875 4179268.5 294.720001221
578197.6875 4179268.75 294.769989014
578197.6875 4179269 294.619995117
578197.6875 4179269 294.609985352
578197.6875 4179269.25 294.640014648
578197.6875 4179269.5 294.690002441
578197.6875 4179269.5 294.760009766
578197.6875 4179269.75 294.839996338
578197.6875 4179270 294.940002441
578197.6875 4179272.25 294.899993896
578197.6875 4179272.5 294.829986572
578197.6875 4179272.75 294.760009766
578197.6875 4179272.75 294.720001221
578197.6875 4179273 294.690002441
578197.6875 4179273.25 294.670013428
578197.6875 4179273.5 294.670013428
578197.6875 4179273.5 294.679992676
578197.6875 4179273.75 294.690002441
578197.6875 4179274 294.709991455
578197.6875 4179274 294.730010986
578197.6875 4179274.25 294.75
578197.6875 4179274.5 294.760009766
578197.6875 4179274.75 294.769989014
578197.6875 4179274.75 294.779998779
578197.6875 4179275 294.779998779
578197.6875 4179275.25 294.779998779
578197.6875 4179275.25 294.769989014
578197.6875 4179275.5 294.790008545
578197.6875 4179275.75 294.75
578197.6875 4179276 294.739990234
578197.6875 4179276 294.709991455
578197.6875 4179276.25 294.730010986
578197.6875 4179276.5 294.720001221
578197.6875 4179276.5 294.700012207
578197.6875 4179276.75 294.720001221
578197.6875 4179277 294.720001221
578197.6875 4179277.25 294.720001221
578197.6875 4179277.25 294.779998779
578197.6875 4179277.5 294.720001221
578197.6875 4179277.75 294.720001221
578197.6875 4179278 294.720001221
578197.6875 4179278.5 294.709991455
578197.6875 4179278.5 294.679992676
578197.6875 4179278.75 294.720001221
578197.6875 4179279 294.730010986
578197.6875 4179279.25 294.720001221
578197.6875 4179279.25 294.790008545
578197.6875 4179279.5 294.820007324
578197.6875 4179279.75 294.859985352
578197.6875 4179279.75 294.890014648
578197.6875 4179280 294.920013428
578197.6875 4179283.75 294.899993896
578197.6875 4179283.75 294.859985352
578197.6875 4179284 294.820007324
578197.6875 4179284.25 294.790008545
578197.6875 4179284.25 294.769989014
578197.6875 4179284.5 294.760009766
578197.6875 4179284.75 294.75
578197.6875 4179285.5 294.839996338
578197.6875 4179286.25 294.910003662
578197.875 4179268.25 294.850006104
578197.875 4179268.5 294.760009766
578197.875 4179268.75 294.700012207
578197.875 4179269 294.670013428
578197.875 4179269 294.670013428
578197.875 4179269.25 294.690002441
578197.875 4179269.5 294.75
578197.875 4179269.5 294.809997559
578197.875 4179269.75 294.899993896
578197.875 4179270 294.859985352
578197.875 4179272.5 294.869995117
578197.875 4179272.75 294.820007324
578197.875 4179272.75 294.769989014
578197.875 4179273 294.739990234
578197.875 4179273.25 294.730010986
578197.875 4179273.5 294.720001221
578197.875 4179273.5 294.720001221
578197.875 4179273.75 294.730010986
578197.875 4179274 294.75
578197.875 4179274 294.760009766
578197.875 4179274.25 294.779998779
578197.875 4179274.5 294.790008545
578197.875 4179274.75 294.809997559
578197.875 4179274.75 294.809997559
578197.875 4179275 294.820007324
578197.875 4179275.25 294.809997559
578197.875 4179275.25 294.809997559
578197.875 4179275.5 294.790008545
578197.875 4179275.75 294.779998779
578197.875 4179276 294.760009766
578197.875 4179276 294.739990234
578197.875 4179276.25 294.720001221
578197.875 4179276.5 294.700012207
578197.875 4179276.5 294.690002441
578197.875 4179276.75 294.679992676
578197.875 4179277 294.670013428
578197.875 4179277.25 294.670013428
578197.875 4179277.25 294.670013428
578197.875 4179277.5 294.670013428
578197.875 4179277.75 294.679992676
578197.875 4179278 294.880004883
578197.875 4179278 294.690002441
578197.875 4179278.25 294.700012207
578197.875 4179278.5 294.850006104
578197.875 4179278.5 294.730010986
578197.875 4179278.75 294.75
578197.875 4179279 294.700012207
578197.875 4179279.25 294.839996338
578197.875 4179279.5 294.880004883
578197.875 4179279.75 294.910003662
578197.875 4179281.75 294.859985352
578197.875 4179283.75 294.880004883
578197.875 4179283.75 294.850006104
578197.875 4179284 294.820007324
578197.875 4179284.25 294.799987793
578197.875 4179284.25 294.790008545
578197.875 4179284.5 294.779998779
578197.875 4179284.75 294.790008545
578197.875 4179285 294.799987793
578197.875 4179285 294.829986572
578197.875 4179285.25 294.859985352
578197.875 4179285.5 294.910003662
578198 4179268.25 294.920013428
578198 4179268.5 294.839996338
578198 4179268.75 294.790008545
578198 4179269 294.619995117
578198 4179269.5 294.760009766
578198 4179270.25 294.850006104
578198 4179271.25 294.869995117
578198 4179272.5 294.829986572
578198 4179272.75 294.899993896
578198 4179272.75 294.859985352
578198 4179273 294.679992676
578198 4179273.25 294.820007324
578198 4179273.5 294.809997559
578198 4179273.5 294.809997559
578198 4179273.75 294.820007324
578198 4179274 294.829986572
578198 4179274 294.839996338
578198 4179274.25 294.850006104
578198 4179274.5 294.859985352
578198 4179274.75 294.869995117
578198 4179274.75 294.880004883
578198 4179275 294.880004883
578198 4179275.25 294.880004883
578198 4179275.25 294.869995117
578198 4179275.5 294.859985352
578198 4179275.75 294.829986572
578198 4179276 294.809997559
578198 4179276 294.779998779
578198 4179276.25 294.75
578198 4179276.5 294.720001221
578198 4179276.5 294.700012207
578198 4179276.75 294.679992676
578198 4179277 294.670013428
578198 4179277.25 294.670013428
578198 4179277.25 294.670013428
578198 4179277.5 294.670013428
578198 4179277.75 294.679992676
578198 4179278 294.700012207
578198 4179278 294.709991455
578198 4179278.25 294.739990234
578198 4179278.5 294.790008545
578198 4179279.5 294.859985352
578198 4179280.75 294.910003662
578198 4179282.25 294.890014648
578198 4179282.75 294.760009766
578198 4179283.75 294.899993896
578198 4179283.75 294.869995117
578198 4179284 294.859985352
578198 4179284.25 294.839996338
578198 4179284.25 294.839996338
578198 4179284.5 294.839996338
578198 4179284.75 294.859985352
578198 4179285 294.880004883
578198 4179285 294.910003662
578198.1875 4179268.75 294.910003662
578198.1875 4179272.25 294.649993896
578198.1875 4179273 294.720001221
578198.1875 4179273.5 294.790008545
578198.1875 4179274.25 294.799987793
578198.1875 4179276 294.890014648
578198.1875 4179276 294.859985352
578198.1875 4179276.25 294.820007324
578198.1875 4179276.5 294.790008545
578198.1875 4179276.5 294.760009766
578198.1875 4179276.75 294.739990234
578198.1875 4179277 294.730010986
578198.1875 4179277.25 294.720001221
578198.1875 4179277.25 294.720001221
578198.1875 4179277.5 294.730010986
578198.1875 4179278 294.760009766
578198.1875 4179278 294.790008545
578198.1875 4179278.5 294.880004883
578198.1875 4179281.25 294.660003662
578198.1875 4179281.75 294.820007324
578198.1875 4179282.5 294.799987793
578198.1875 4179283 294.769989014
578198.1875 4179284 294.739990234
578198.1875 4179284.5 294.630004883
578198.375 4179273.5 294.899993896
578198.375 4179274 294.790008545
578198.375 4179274.75 294.820007324
578198.375 4179276 294.739990234
578198.375 4179276.5 294.899993896
578198.375 4179276.5 294.799987793
578198.375 4179277 294.829986572
578198.375 4179277.25 294.690002441
578198.375 4179283.75 294.839996338
578198.375 4179284.25 294.869995117
578198.375 4179284.75 294.809997559
578198.5625 4179275.25 294.850006104
578198.5625 4179276 294.880004883
578198.5625 4179278.5 294.709991455
578198.5625 4179285.25 294.670013428
