# .PCD v.7 - Point Cloud Data file format
VERSION .7
FIELDS x y z
SIZE 4 4 4
TYPE F F F
COUNT 1 1 1
WIDTH 155
HEIGHT 1
VIEWPOINT 0 0 0 1 0 0 0
POINTS 155
DATA ascii
578176.2 4179276 295.86
578176.1 4179275 295.88
578176.2 4179279 295.89
578175.9 4179275 295.9
578176.2 4179278 295.9
578176.2 4179280 295.9
578176.6 4179274 295.91
578177 4179274 295.91
578176.4 4179275 295.91
578176.4 4179275 295.91
578176.6 4179275 295.91
578176.4 4179276 295.91
578176.6 4179276 295.91
578176.4 4179276 295.91
578176.6 4179276 295.91
578176.4 4179275 295.92
578176.6 4179275 295.92
578176.4 4179276 295.92
578176.6 4179276 295.92
578176.4 4179279 295.92
578176.2 4179279 295.92
578176.4 4179280 295.92
578176.6 4179274 295.93
578176.2 4179275 295.93
578176.4 4179275 295.93
578176.6 4179275 295.93
578176.2 4179275 295.93
578176.8 4179275 295.93
578176.2 4179276 295.93
578176.8 4179276 295.93
578176.4 4179276 295.93
578176.6 4179276 295.93
578176.2 4179279 295.93
578176.2 4179280 295.93
578176.6 4179280 295.93
578176.4 4179274 295.94
578176.6 4179274 295.94
578176.2 4179275 295.94
578176.8 4179275 295.94
578176.2 4179276 295.94
578176.8 4179276 295.94
578176.2 4179276 295.94
578176.4 4179276 295.94
578176.2 4179279 295.94
578176.6 4179279 295.94
578176.6 4179280 295.94
578176.4 4179274 295.95
578176.2 4179274 295.95
578177 4179274 295.95
578176.8 4179275 295.95
578176.2 4179276 295.95
578176.6 4179276 295.95
578176.8 4179276 295.95
578176.4 4179278 295.95
578176.4 4179274 295.96
578176.6 4179274 295.96
578176.2 4179274 295.96
578176.8 4179274 295.96
578176.1 4179275 295.96
578176.8 4179275 295.96
578175.9 4179276 295.96
578177 4179276 295.96
578176.2 4179276 295.96
578176.4 4179276 295.96
578176.6 4179279 295.96
578176.1 4179279 295.96
578176.1 4179280 295.96
578176.6 4179280 295.96
578176.2 4179280 295.96
578176.2 4179274 295.97
578176.4 4179274 295.97
578176.6 4179274 295.97
578176.8 4179274 295.97
578176.8 4179274 295.97
578176.1 4179275 295.97
578177 4179275 295.97
578176.2 4179276 295.97
578176.2 4179278 295.97
578176.4 4179278 295.97
578176.9 4179280 295.97
578176.1 4179280 295.97
578176.8 4179280 295.97
578176.2 4179280 295.97
578176.6 4179274 295.98
578176.8 4179274 295.98
578176.8 4179274 295.98
578176.1 4179274 295.98
578177 4179275 295.98
578176.8 4179275 295.98
578177 4179275 295.98
578176.1 4179276 295.98
578176.1 4179276 295.98
578177 4179276 295.98
578175.9 4179276 295.98
578176.4 4179276 295.98
578176.6 4179276 295.98
578176.2 4179277 295.98
578176.1 4179278 295.98
578176.6 4179278 295.98
578176.8 4179279 295.98
578176.8 4179280 295.98
578176.4 4179280 295.98
578176.6 4179280 295.98
578176.4 4179274 295.99
578176.8 4179274 295.99
578176.2 4179274 295.99
578176.1 4179274 295.99
578176.1 4179276 295.99
578176.8 4179276 295.99
578176.4 4179277 295.99
578176.4 4179278 295.99
578176.1 4179280 295.99
578176.8 4179280 295.99
578176.6 4179280 295.99
578176.4 4179274 296
578176.6 4179274 296
578176.1 4179274 296
578176.1 4179276 296
578176.6 4179276 296
578176.1 4179277 296
578176.2 4179277 296
578176.1 4179278 296
578176.2 4179278 296
578176.6 4179278 296
578175.9 4179279 296
578176.1 4179280 296
578176.2 4179274 296.015
578176.1 4179274 296.02
578175.9 4179274 296.02
578175.9 4179275 296.02
578175.9 4179275 296.02
578176.2 4179277 296.01
578176.1 4179278 296.01
578176.2 4179278 296.01
578175.9 4179278 296.02
578175.9 4179279 296.01
578176.4 4179279 296.01
578175.9 4179279 296.01
578175.9 4179280 296.01
578176.4 4179279 296.01
578175.9 4179280 296.02
578176.2 4179280 296.01
578175.8 4179274 296.03
578175.9 4179274 296.03
578175.9 4179275 296.03
578175.9 4179277 296.03
578175.9 4179278 296.03
578175.9 4179278 296.03
578175.9 4179278 296.03
578175.9 4179278 296.03
578175.9 4179280 296.03
578176.1 4179280 296.03
578175.9 4179276 296.04
578175.9 4179276 296.04
578175.9 4179277 296.04
