# .PCD v.7 - Point Cloud Data file format
VERSION .7
FIELDS x y z
SIZE 4 4 4
TYPE F F F
COUNT 1 1 1
WIDTH 1380
HEIGHT 1
VIEWPOINT 0 0 0 1 0 0 0
POINTS 1380
DATA ascii
578193 4179283 295.230010986
578193 4179283.25 295.25
578193 4179283.5 295.25
578193 4179283.75 295.239990234
578193 4179284 295.190002441
578193 4179284.25 295.179992676
578193 4179284.25 295.170013428
578193 4179284.5 295.200012207
578193 4179284.75 295.260009766
578193 4179285 295.230010986
578193 4179285 295.5
578193 4179288.5 296.410003662
578193 4179288.75 296.170013428
578193 4179288.75 296.350006104
578193 4179289 296.329986572
578193 4179289.25 296.410003662
578193 4179289.5 296.279998779
578193 4179289.5 296.25
578193 4179289.75 296.309997559
578193 4179290 296.160003662
578193 4179290 296.109985352
578193 4179290.25 296.070007324
578193 4179290.5 296.029998779
578193 4179290.75 296
578193 4179290.75 295.980010986
578193 4179291 295.980010986
578193.1875 4179263.5 296
578193.1875 4179263.75 296
578193.1875 4179263.75 296
578193.1875 4179264 296
578193.1875 4179264.25 296
578193.1875 4179264.5 296
578193.1875 4179264.5 296
578193.1875 4179264.75 296
578193.1875 4179265 296
578193.1875 4179265 296.010009766
578193.1875 4179265.25 296
578193.1875 4179265.5 296
578193.1875 4179265.75 295.989990234
578193.1875 4179265.75 295.970001221
578193.1875 4179266 295.950012207
578193.1875 4179266.25 295.929992676
578193.1875 4179266.25 295.980010986
578193.1875 4179266.5 295.899993896
578193.1875 4179266.75 295.890014648
578193.1875 4179267 295.880004883
578193.1875 4179267 295.940002441
578193.1875 4179267.25 295.910003662
578193.1875 4179267.5 295.809997559
578193.1875 4179267.75 295.950012207
578193.1875 4179267.75 295.970001221
578193.1875 4179268 295.980010986
578193.1875 4179268.25 295.980010986
578193.1875 4179268.25 295.970001221
578193.1875 4179268.5 295.950012207
578193.1875 4179268.75 295.920013428
578193.1875 4179269 295.869995117
578193.1875 4179269 295.950012207
578193.1875 4179269.25 295.75
578193.1875 4179269.5 295.350006104
578193.1875 4179269.75 295.570007324
578193.1875 4179270 295.529998779
578193.1875 4179270.25 295.510009766
578193.1875 4179270.25 295.459991455
578193.1875 4179270.5 295.440002441
578193.1875 4179270.75 295.420013428
578193.1875 4179270.75 295.399993896
578193.1875 4179271 295.380004883
578193.1875 4179271.25 295.359985352
578193.1875 4179271.5 295.339996338
578193.1875 4179271.5 295.309997559
578193.1875 4179271.75 295.279998779
578193.1875 4179272 295.239990234
578193.1875 4179272 295.209991455
578193.1875 4179272.25 295.179992676
578193.1875 4179272.5 295.149993896
578193.1875 4179272.75 295.119995117
578193.1875 4179272.75 295.100006104
578193.1875 4179273 295.079986572
578193.1875 4179273.25 295.059997559
578193.1875 4179273.5 295.040008545
578193.1875 4179273.5 295.029998779
578193.1875 4179273.75 295.019989014
578193.1875 4179274 295
578193.1875 4179274 294.989990234
578193.1875 4179274.25 294.980010986
578193.1875 4179274.5 294.959991455
578193.1875 4179274.75 294.950012207
578193.1875 4179274.75 294.929992676
578193.1875 4179275 294.920013428
578193.1875 4179275.25 294.910003662
578193.1875 4179275.25 294.910003662
578193.1875 4179275.5 294.929992676
578193.1875 4179275.75 294.910003662
578193.1875 4179276 294.910003662
578193.1875 4179276 294.799987793
578193.1875 4179276.25 294.940002441
578193.1875 4179276.5 294.950012207
578193.1875 4179276.5 294.970001221
578193.1875 4179276.75 294.989990234
578193.1875 4179277 295.019989014
578193.1875 4179277.25 295.040008545
578193.1875 4179277.25 294.850006104
578193.1875 4179277.5 295.070007324
578193.1875 4179277.75 295.079986572
578193.1875 4179278 295.089996338
578193.1875 4179278 295.089996338
578193.1875 4179278.25 295.089996338
578193.1875 4179278.5 295.089996338
578193.1875 4179278.5 294.970001221
578193.1875 4179278.75 295.089996338
578193.1875 4179279 295.079986572
578193.1875 4179279.25 295.070007324
578193.1875 4179279.25 295.070007324
578193.1875 4179279.5 295.059997559
578193.1875 4179279.75 294.929992676
578193.1875 4179279.75 295.049987793
578193.1875 4179280 295.029998779
578193.1875 4179280.25 295.019989014
578193.1875 4179280.5 295
578193.1875 4179280.5 294.989990234
578193.1875 4179280.75 294.970001221
578193.1875 4179281 294.959991455
578193.1875 4179281 294.950012207
578193.1875 4179281.25 294.940002441
578193.1875 4179281.5 294.940002441
578193.1875 4179281.75 294.950012207
578193.1875 4179281.75 294.959991455
578193.1875 4179282 294.980010986
578193.1875 4179282.25 295.010009766
578193.1875 4179282.5 295.049987793
578193.1875 4179282.5 295.089996338
578193.1875 4179282.75 295.130004883
578193.1875 4179283 295.170013428
578193.1875 4179283 295.200012207
578193.1875 4179283.25 295.220001221
578193.1875 4179283.5 295.230010986
578193.1875 4179283.75 295.230010986
578193.1875 4179283.75 295.220001221
578193.1875 4179284 295.200012207
578193.1875 4179284.25 295.179992676
578193.1875 4179284.25 295.170013428
578193.1875 4179284.5 295.179992676
578193.1875 4179284.75 295.230010986
578193.1875 4179285 295.309997559
578193.1875 4179285 295.429992676
578193.1875 4179285.25 295.600006104
578193.1875 4179285.5 295.799987793
578193.1875 4179288.75 296.390014648
578193.1875 4179288.75 296.359985352
578193.1875 4179289 296.480010986
578193.1875 4179289.25 296.320007324
578193.1875 4179289.5 296.299987793
578193.1875 4179289.5 296.269989014
578193.1875 4179289.75 296.239990234
578193.1875 4179290 296.200012207
578193.1875 4179290 296.149993896
578193.1875 4179290.25 295.989990234
578193.1875 4179290.5 296.059997559
578193.1875 4179290.75 296.029998779
578193.1875 4179290.75 295.890014648
578193.375 4179263.5 295.980010986
578193.375 4179263.75 295.980010986
578193.375 4179263.75 295.989990234
578193.375 4179264 295.989990234
578193.375 4179264.25 295.989990234
578193.375 4179264.5 296
578193.375 4179264.5 296
578193.375 4179264.75 296.010009766
578193.375 4179265 296.010009766
578193.375 4179265 296.010009766
578193.375 4179265.25 296.010009766
578193.375 4179265.5 296
578193.375 4179265.75 295.980010986
578193.375 4179265.75 295.970001221
578193.375 4179266 295.950012207
578193.375 4179266.25 295.929992676
578193.375 4179266.25 295.910003662
578193.375 4179266.5 295.899993896
578193.375 4179266.75 295.890014648
578193.375 4179267 295.890014648
578193.375 4179267 295.910003662
578193.375 4179267.25 295.920013428
578193.375 4179267.5 295.940002441
578193.375 4179267.75 295.970001221
578193.375 4179267.75 295.980010986
578193.375 4179268 295.989990234
578193.375 4179268.25 295.760009766
578193.375 4179268.25 295.959991455
578193.375 4179268.5 295.920013428
578193.375 4179268.75 296.179992676
578193.375 4179269 295.75
578193.375 4179269.25 295.589996338
578193.375 4179269.5 295.570007324
578193.375 4179269.75 295.519989014
578193.375 4179270 295.489990234
578193.375 4179270.25 295.459991455
578193.375 4179270.25 295.450012207
578193.375 4179270.5 295.429992676
578193.375 4179270.75 295.369995117
578193.375 4179270.75 295.410003662
578193.375 4179271 295.390014648
578193.375 4179271.25 295.420013428
578193.375 4179271.5 295.339996338
578193.375 4179271.5 295.309997559
578193.375 4179271.75 295.269989014
578193.375 4179272 295.429992676
578193.375 4179272.25 295.160003662
578193.375 4179272.5 295.130004883
578193.375 4179272.75 295.100006104
578193.375 4179272.75 295.079986572
578193.375 4179273 295.059997559
578193.375 4179273.25 295.049987793
578193.375 4179273.5 295.029998779
578193.375 4179273.5 295.019989014
578193.375 4179273.75 295.010009766
578193.375 4179274 295
578193.375 4179274 294.980010986
578193.375 4179274.25 294.970001221
578193.375 4179274.5 294.959991455
578193.375 4179274.75 294.940002441
578193.375 4179274.75 294.929992676
578193.375 4179275 294.920013428
578193.375 4179275.25 294.910003662
578193.375 4179275.25 294.899993896
578193.375 4179275.5 294.899993896
578193.375 4179275.75 294.899993896
578193.375 4179276 294.899993896
578193.375 4179276 294.910003662
578193.375 4179276.25 294.920013428
578193.375 4179276.5 294.929992676
578193.375 4179276.5 294.730010986
578193.375 4179276.75 294.959991455
578193.375 4179277 294.980010986
578193.375 4179277.25 294.989990234
578193.375 4179277.25 295
578193.375 4179277.5 295.019989014
578193.375 4179277.75 295.029998779
578193.375 4179278 294.910003662
578193.375 4179278 295.049987793
578193.375 4179278.25 295.059997559
578193.375 4179278.5 294.980010986
578193.375 4179278.5 295.070007324
578193.375 4179278.75 295.070007324
578193.375 4179279 295.059997559
578193.375 4179279.25 295.059997559
578193.375 4179279.25 295.049987793
578193.375 4179279.5 295.029998779
578193.375 4179279.75 295.010009766
578193.375 4179279.75 295
578193.375 4179280 294.980010986
578193.375 4179280.25 294.959991455
578193.375 4179280.5 294.940002441
578193.375 4179280.5 294.929992676
578193.375 4179280.75 294.920013428
578193.375 4179281 295
578193.375 4179281 294.920013428
578193.375 4179281.25 294.920013428
578193.375 4179281.5 294.929992676
578193.375 4179281.75 295.179992676
578193.375 4179281.75 294.959991455
578193.375 4179282.25 295.25
578193.375 4179282.5 295.040008545
578193.375 4179282.5 295.079986572
578193.375 4179282.75 295.109985352
578193.375 4179283 295.149993896
578193.375 4179283 295.179992676
578193.375 4179283.25 295.209991455
578193.375 4179283.5 295.230010986
578193.375 4179283.75 295.230010986
578193.375 4179283.75 295.230010986
578193.375 4179284 295.209991455
578193.375 4179284.25 295.200012207
578193.375 4179284.25 295.190002441
578193.375 4179284.5 295.190002441
578193.375 4179284.75 295.220001221
578193.375 4179285 295.279998779
578193.375 4179285 295.380004883
578193.375 4179285.25 295.510009766
578193.375 4179285.5 295.690002441
578193.375 4179285.5 295.899993896
578193.375 4179288.75 296.420013428
578193.375 4179288.75 296.380004883
578193.375 4179289 296.359985352
578193.375 4179289.25 296.339996338
578193.375 4179289.5 296.029998779
578193.375 4179289.75 296.269989014
578193.375 4179290 296.230010986
578193.375 4179290 296.190002441
578193.375 4179290.25 296.410003662
578193.375 4179290.75 296.059997559
578193.375 4179290.75 295.970001221
578193.5 4179263.5 295.959991455
578193.5 4179263.75 295.970001221
578193.5 4179263.75 295.980010986
578193.5 4179264 295.980010986
578193.5 4179264.25 295.989990234
578193.5 4179264.5 296
578193.5 4179264.5 296.010009766
578193.5 4179264.75 296.010009766
578193.5 4179265 296.010009766
578193.5 4179265 296.010009766
578193.5 4179265.25 296.010009766
578193.5 4179265.5 296
578193.5 4179265.75 295.980010986
578193.5 4179265.75 295.959991455
578193.5 4179266 295.940002441
578193.5 4179266.25 295.929992676
578193.5 4179266.25 295.910003662
578193.5 4179266.5 295.899993896
578193.5 4179266.75 295.899993896
578193.5 4179267 295.910003662
578193.5 4179267 295.929992676
578193.5 4179267.25 295.940002441
578193.5 4179267.5 295.959991455
578193.5 4179267.75 295.980010986
578193.5 4179267.75 295.989990234
578193.5 4179268 295.980010986
578193.5 4179268.25 295.959991455
578193.5 4179268.25 295.929992676
578193.5 4179268.5 295.880004883
578193.5 4179269 295.690002441
578193.5 4179269.25 295.630004883
578193.5 4179269.5 295.570007324
578193.5 4179269.5 295.519989014
578193.5 4179269.75 295.359985352
578193.5 4179270 295.459991455
578193.5 4179270.25 295.440002441
578193.5 4179270.25 295.420013428
578193.5 4179270.5 295.420013428
578193.5 4179270.75 295.420013428
578193.5 4179270.75 295.399993896
578193.5 4179271 295.630004883
578193.5 4179271.5 295.329986572
578193.5 4179271.5 295.299987793
578193.5 4179271.75 295.25
578193.5 4179272 295.209991455
578193.5 4179272 295.170013428
578193.5 4179272.25 295.140014648
578193.5 4179272.5 295.350006104
578193.5 4179272.75 295.049987793
578193.5 4179273 295.100006104
578193.5 4179273.25 295.019989014
578193.5 4179273.5 295.010009766
578193.5 4179273.5 295
578193.5 4179273.75 294.989990234
578193.5 4179274 294.980010986
578193.5 4179274 294.970001221
578193.5 4179274.25 294.959991455
578193.5 4179274.5 294.950012207
578193.5 4179274.75 294.940002441
578193.5 4179274.75 294.920013428
578193.5 4179275 294.910003662
578193.5 4179275.25 294.910003662
578193.5 4179275.25 294.899993896
578193.5 4179275.5 294.899993896
578193.5 4179275.75 294.890014648
578193.5 4179276 294.890014648
578193.5 4179276 294.899993896
578193.5 4179276.25 294.899993896
578193.5 4179276.5 294.899993896
578193.5 4179276.5 294.910003662
578193.5 4179276.75 294.910003662
578193.5 4179277 294.920013428
578193.5 4179277.25 294.929992676
578193.5 4179277.25 294.940002441
578193.5 4179277.5 294.950012207
578193.5 4179277.75 294.959991455
578193.5 4179278 294.970001221
578193.5 4179278 294.989990234
578193.5 4179278.25 295.010009766
578193.5 4179278.5 295.019989014
578193.5 4179278.5 295.029998779
578193.5 4179278.75 295.029998779
578193.5 4179279 295.029998779
578193.5 4179279.25 295.029998779
578193.5 4179279.25 295.019989014
578193.5 4179279.5 295
578193.5 4179279.75 295.109985352
578193.5 4179279.75 294.959991455
578193.5 4179280 294.940002441
578193.5 4179280.25 295.100006104
578193.5 4179280.5 294.899993896
578193.5 4179280.5 294.899993896
578193.5 4179280.75 295.109985352
578193.5 4179281 294.899993896
578193.5 4179281 294.910003662
578193.5 4179281.5 295.260009766
578193.5 4179281.75 294.950012207
578193.5 4179281.75 294.970001221
578193.5 4179282 294.989990234
578193.5 4179282.25 295.010009766
578193.5 4179282.5 295.040008545
578193.5 4179282.5 295.059997559
578193.5 4179282.75 295.010009766
578193.5 4179283 295.130004883
578193.5 4179283 295.160003662
578193.5 4179283.25 295.190002441
578193.5 4179283.5 295.170013428
578193.5 4179283.75 295.230010986
578193.5 4179283.75 295.239990234
578193.5 4179284 295.190002441
578193.5 4179284.25 295.230010986
578193.5 4179284.25 295.220001221
578193.5 4179284.5 295.220001221
578193.5 4179284.75 295.230010986
578193.5 4179285 295.339996338
578193.5 4179285.25 295.440002441
578193.5 4179285.5 295.589996338
578193.5 4179285.5 295.769989014
578193.5 4179288.75 296.470001221
578193.5 4179288.75 296.420013428
578193.5 4179289 296.380004883
578193.5 4179289.25 296.359985352
578193.5 4179289.5 296.339996338
578193.5 4179289.75 296.299987793
578193.5 4179290 296.279998779
578193.5 4179290 296.239990234
578193.5 4179290.25 296.200012207
578193.5 4179290.5 296.160003662
578193.5 4179290.75 296.109985352
578193.5 4179290.75 296.070007324
578193.6875 4179263.75 296.25
578193.6875 4179263.75 295.959991455
578193.6875 4179264 295.970001221
578193.6875 4179264.25 295.989990234
578193.6875 4179264.5 295.899993896
578193.6875 4179264.5 296.010009766
578193.6875 4179264.75 296.010009766
578193.6875 4179265 295.899993896
578193.6875 4179265 296.010009766
578193.6875 4179265.25 296.010009766
578193.6875 4179265.5 296
578193.6875 4179265.75 296.109985352
578193.6875 4179265.75 295.959991455
578193.6875 4179266 295.950012207
578193.6875 4179266.25 295.929992676
578193.6875 4179266.25 295.920013428
578193.6875 4179266.5 295.920013428
578193.6875 4179266.75 295.920013428
578193.6875 4179267 295.929992676
578193.6875 4179267 295.950012207
578193.6875 4179267.25 295.959991455
578193.6875 4179267.5 295.980010986
578193.6875 4179267.75 295.989990234
578193.6875 4179267.75 295.980010986
578193.6875 4179268 295.970001221
578193.6875 4179268.5 295.839996338
578193.6875 4179268.75 295.769989014
578193.6875 4179269 295.700012207
578193.6875 4179269 295.640014648
578193.6875 4179269.25 295.570007324
578193.6875 4179269.5 295.519989014
578193.6875 4179269.5 295.480010986
578193.6875 4179269.75 295.450012207
578193.6875 4179270 295.429992676
578193.6875 4179270.25 295.410003662
578193.6875 4179270.25 295.410003662
578193.6875 4179270.5 295.399993896
578193.6875 4179270.75 295.390014648
578193.6875 4179270.75 295.380004883
578193.6875 4179271 295.359985352
578193.6875 4179271.25 295.329986572
578193.6875 4179271.5 295.290008545
578193.6875 4179271.5 295.260009766
578193.6875 4179272 294.910003662
578193.6875 4179272.5 294.820007324
578193.6875 4179272.75 295.049987793
578193.6875 4179272.75 295.029998779
578193.6875 4179273 295.010009766
578193.6875 4179273.25 295
578193.6875 4179273.5 294.989990234
578193.6875 4179273.5 294.989990234
578193.6875 4179273.75 294.970001221
578193.6875 4179274 294.959991455
578193.6875 4179274 294.959991455
578193.6875 4179274.25 294.980010986
578193.6875 4179274.5 294.940002441
578193.6875 4179274.75 294.929992676
578193.6875 4179274.75 295.130004883
578193.6875 4179275 294.920013428
578193.6875 4179275.25 294.910003662
578193.6875 4179275.25 294.899993896
578193.6875 4179275.5 294.899993896
578193.6875 4179275.75 294.890014648
578193.6875 4179276 294.890014648
578193.6875 4179276 294.880004883
578193.6875 4179276.25 294.880004883
578193.6875 4179276.5 294.869995117
578193.6875 4179276.5 294.859985352
578193.6875 4179276.75 294.859985352
578193.6875 4179277 294.850006104
578193.6875 4179277.25 294.850006104
578193.6875 4179277.25 294.859985352
578193.6875 4179277.5 294.869995117
578193.6875 4179277.75 294.880004883
578193.6875 4179278 294.899993896
578193.6875 4179278 294.920013428
578193.6875 4179278.25 294.940002441
578193.6875 4179278.5 294.959991455
578193.6875 4179278.5 294.980010986
578193.6875 4179278.75 294.989990234
578193.6875 4179279 295
578193.6875 4179279.25 295
578193.6875 4179279.25 294.989990234
578193.6875 4179279.5 294.970001221
578193.6875 4179279.75 294.950012207
578193.6875 4179279.75 294.929992676
578193.6875 4179280 294.910003662
578193.6875 4179280.25 294.899993896
578193.6875 4179280.5 294.890014648
578193.6875 4179280.5 294.880004883
578193.6875 4179280.75 294.890014648
578193.6875 4179281 294.899993896
578193.6875 4179281 294.920013428
578193.6875 4179281.25 294.940002441
578193.6875 4179281.75 294.970001221
578193.6875 4179281.75 294.989990234
578193.6875 4179282 294.940002441
578193.6875 4179282.25 295.010009766
578193.6875 4179282.5 295.029998779
578193.6875 4179282.5 295.279998779
578193.6875 4179282.75 295.070007324
578193.6875 4179283 295.089996338
578193.6875 4179283 295.109985352
578193.6875 4179283.25 295.160003662
578193.6875 4179283.5 295.190002441
578193.6875 4179283.75 295.220001221
578193.6875 4179283.75 295.25
578193.6875 4179284 295.260009766
578193.6875 4179284.25 295.260009766
578193.6875 4179284.25 295.260009766
578193.6875 4179284.5 295.260009766
578193.6875 4179284.75 295.380004883
578193.6875 4179285 295.279998779
578193.6875 4179285 295.309997559
578193.6875 4179285.25 295.380004883
578193.6875 4179285.5 295.489990234
578193.6875 4179289 296.420013428
578193.6875 4179289.25 296.390014648
578193.6875 4179289.5 296.369995117
578193.6875 4179289.75 296.339996338
578193.6875 4179290 296.320007324
578193.6875 4179290 296.290008545
578193.6875 4179290.5 296.209991455
578193.6875 4179290.75 296.160003662
578193.6875 4179290.75 296.109985352
578193.875 4179263.5 295.920013428
578193.875 4179263.75 295.950012207
578193.875 4179264 295.959991455
578193.875 4179264.25 295.839996338
578193.875 4179264.5 296
578193.875 4179264.5 296.010009766
578193.875 4179264.75 295.850006104
578193.875 4179265 296.019989014
578193.875 4179265 296.019989014
578193.875 4179265.25 296.160003662
578193.875 4179265.5 296
578193.875 4179265.75 295.989990234
578193.875 4179265.75 295.950012207
578193.875 4179266 295.959991455
578193.875 4179266.25 295.790008545
578193.875 4179266.25 295.940002441
578193.875 4179266.5 295.940002441
578193.875 4179266.75 295.820007324
578193.875 4179267 295.959991455
578193.875 4179267 295.970001221
578193.875 4179267.25 295.980010986
578193.875 4179267.5 295.959991455
578193.875 4179267.75 295.980010986
578193.875 4179267.75 295.970001221
578193.875 4179268.25 296.320007324
578193.875 4179268.5 295.790008545
578193.875 4179268.75 295.720001221
578193.875 4179269 295.649993896
578193.875 4179269 295.589996338
578193.875 4179269.25 295.529998779
578193.875 4179269.5 295.480010986
578193.875 4179269.5 295.440002441
578193.875 4179269.75 295.420013428
578193.875 4179270 295.399993896
578193.875 4179270.25 295.380004883
578193.875 4179270.25 295.369995117
578193.875 4179270.5 295.359985352
578193.875 4179270.75 295.350006104
578193.875 4179270.75 295.329986572
578193.875 4179271 295.309997559
578193.875 4179271.25 295.279998779
578193.875 4179271.5 295.239990234
578193.875 4179271.5 295.209991455
578193.875 4179271.75 295.170013428
578193.875 4179272 295.130004883
578193.875 4179272 295.100006104
578193.875 4179272.25 295.059997559
578193.875 4179272.5 295.040008545
578193.875 4179272.75 295.010009766
578193.875 4179272.75 294.989990234
578193.875 4179273 294.880004883
578193.875 4179273.25 294.959991455
578193.875 4179273.5 294.950012207
578193.875 4179273.5 294.829986572
578193.875 4179273.75 294.940002441
578193.875 4179274 294.929992676
578193.875 4179274 294.929992676
578193.875 4179274.25 294.940002441
578193.875 4179274.5 294.929992676
578193.875 4179274.75 294.920013428
578193.875 4179274.75 294.920013428
578193.875 4179275 294.920013428
578193.875 4179275.25 294.920013428
578193.875 4179275.25 294.850006104
578193.875 4179275.5 294.910003662
578193.875 4179275.75 294.899993896
578193.875 4179276 294.890014648
578193.875 4179276 294.869995117
578193.875 4179276.25 294.859985352
578193.875 4179276.5 294.839996338
578193.875 4179276.5 294.970001221
578193.875 4179276.75 294.799987793
578193.875 4179277 294.790008545
578193.875 4179277.25 294.980010986
578193.875 4179277.25 294.779998779
578193.875 4179277.5 294.790008545
578193.875 4179277.75 294.799987793
578193.875 4179278 294.820007324
578193.875 4179278 294.850006104
578193.875 4179278.25 294.880004883
578193.875 4179278.5 294.910003662
578193.875 4179278.5 294.929992676
578193.875 4179278.75 294.950012207
578193.875 4179279 294.959991455
578193.875 4179279.25 294.970001221
578193.875 4179279.25 294.959991455
578193.875 4179279.5 294.950012207
578193.875 4179279.75 294.940002441
578193.875 4179279.75 294.920013428
578193.875 4179280 294.899993896
578193.875 4179280.25 294.890014648
578193.875 4179280.5 294.890014648
578193.875 4179280.5 294.890014648
578193.875 4179280.75 294.899993896
578193.875 4179281 294.910003662
578193.875 4179281 294.929992676
578193.875 4179281.25 294.950012207
578193.875 4179281.5 294.970001221
578193.875 4179281.75 294.980010986
578193.875 4179281.75 294.989990234
578193.875 4179282 295
578193.875 4179282.25 295
578193.875 4179282.5 295.010009766
578193.875 4179282.5 295.019989014
578193.875 4179282.75 295.029998779
578193.875 4179283 295.049987793
578193.875 4179283 295.079986572
578193.875 4179283.25 295.119995117
578193.875 4179283.5 295.160003662
578193.875 4179283.75 295.200012207
578193.875 4179283.75 295.320007324
578193.875 4179284 295.269989014
578193.875 4179284.25 295.290008545
578193.875 4179284.25 295.420013428
578193.875 4179284.5 295.290008545
578193.875 4179284.75 295.290008545
578193.875 4179285 295.390014648
578193.875 4179285 295.309997559
578193.875 4179285.25 295.350006104
578193.875 4179285.5 295.339996338
578193.875 4179285.5 295.519989014
578193.875 4179289.25 296.440002441
578193.875 4179289.5 296.420013428
578193.875 4179289.5 296.660003662
578193.875 4179290 296.369995117
578193.875 4179290 296.350006104
578193.875 4179290.25 296.570007324
578193.875 4179290.75 296.220001221
578193.875 4179290.75 296.160003662
578194.0625 4179263.5 295.910003662
578194.0625 4179263.75 295.920013428
578194.0625 4179263.75 295.940002441
578194.0625 4179264 295.959991455
578194.0625 4179264.25 295.980010986
578194.0625 4179264.5 295.989990234
578194.0625 4179264.5 296.010009766
578194.0625 4179264.75 296.019989014
578194.0625 4179265 296.019989014
578194.0625 4179265 296.019989014
578194.0625 4179265.25 296.010009766
578194.0625 4179265.5 296
578194.0625 4179265.75 295.989990234
578194.0625 4179265.75 295.989990234
578194.0625 4179266 295.980010986
578194.0625 4179266.25 295.970001221
578194.0625 4179266.25 295.799987793
578194.0625 4179266.5 295.970001221
578194.0625 4179266.75 295.980010986
578194.0625 4179267 295.980010986
578194.0625 4179267 295.910003662
578194.0625 4179267.25 295.989990234
578194.0625 4179267.5 295.980010986
578194.0625 4179267.75 295.980010986
578194.0625 4179267.75 295.940002441
578194.0625 4179268 295.910003662
578194.0625 4179268.25 296.140014648
578194.0625 4179268.25 295.799987793
578194.0625 4179268.5 295.660003662
578194.0625 4179268.75 295.679992676
578194.0625 4179269 295.609985352
578194.0625 4179269 295.5
578194.0625 4179269.25 295.5
578194.0625 4179269.5 295.450012207
578194.0625 4179269.5 295.380004883
578194.0625 4179269.75 295.390014648
578194.0625 4179270 295.369995117
578194.0625 4179270.25 295.350006104
578194.0625 4179270.25 295.329986572
578194.0625 4179270.5 295.309997559
578194.0625 4179270.75 295.290008545
578194.0625 4179270.75 295.260009766
578194.0625 4179271 295.230010986
578194.0625 4179271.25 295.200012207
578194.0625 4179271.5 295.170013428
578194.0625 4179271.5 295.130004883
578194.0625 4179271.75 295.100006104
578194.0625 4179272 295.070007324
578194.0625 4179272 295.040008545
578194.0625 4179272.25 295.019989014
578194.0625 4179272.5 294.989990234
578194.0625 4179272.75 294.970001221
578194.0625 4179272.75 294.959991455
578194.0625 4179273 294.940002441
578194.0625 4179273.25 294.929992676
578194.0625 4179273.5 294.920013428
578194.0625 4179273.5 294.910003662
578194.0625 4179273.75 294.899993896
578194.0625 4179274 294.899993896
578194.0625 4179274 294.899993896
578194.0625 4179274.25 294.899993896
578194.0625 4179274.5 294.910003662
578194.0625 4179274.75 294.910003662
578194.0625 4179274.75 294.739990234
578194.0625 4179275 294.920013428
578194.0625 4179275.25 294.920013428
578194.0625 4179275.25 294.809997559
578194.0625 4179275.5 294.910003662
578194.0625 4179275.75 294.899993896
578194.0625 4179276 295.070007324
578194.0625 4179276 294.869995117
578194.0625 4179276.25 294.839996338
578194.0625 4179276.5 294.820007324
578194.0625 4179276.5 294.779998779
578194.0625 4179276.75 294.760009766
578194.0625 4179277 294.739990234
578194.0625 4179277.25 294.720001221
578194.0625 4179277.25 294.720001221
578194.0625 4179277.5 294.720001221
578194.0625 4179277.75 294.829986572
578194.0625 4179278 294.760009766
578194.0625 4179278 294.790008545
578194.0625 4179278.25 294.820007324
578194.0625 4179278.5 294.929992676
578194.0625 4179278.5 294.890014648
578194.0625 4179278.75 294.920013428
578194.0625 4179279 294.890014648
578194.0625 4179279.25 294.950012207
578194.0625 4179279.25 294.950012207
578194.0625 4179279.5 294.890014648
578194.0625 4179279.75 294.929992676
578194.0625 4179279.75 294.920013428
578194.0625 4179280 294.910003662
578194.0625 4179280.25 294.899993896
578194.0625 4179280.5 294.899993896
578194.0625 4179280.5 294.899993896
578194.0625 4179280.75 294.910003662
578194.0625 4179281 294.929992676
578194.0625 4179281 294.940002441
578194.0625 4179281.25 294.959991455
578194.0625 4179281.5 294.970001221
578194.0625 4179281.75 294.980010986
578194.0625 4179281.75 294.989990234
578194.0625 4179282 294.989990234
578194.0625 4179282.25 294.980010986
578194.0625 4179282.5 294.980010986
578194.0625 4179282.5 294.980010986
578194.0625 4179282.75 294.980010986
578194.0625 4179283 295
578194.0625 4179283 295.029998779
578194.0625 4179283.25 295.059997559
578194.0625 4179283.5 295.109985352
578194.0625 4179283.75 295.160003662
578194.0625 4179283.75 295.209991455
578194.0625 4179284 295.260009766
578194.0625 4179284.25 295.290008545
578194.0625 4179284.25 295.309997559
578194.0625 4179284.5 295.320007324
578194.0625 4179284.75 295.320007324
578194.0625 4179285 295.309997559
578194.0625 4179285 295.309997559
578194.0625 4179285.25 295.320007324
578194.0625 4179285.5 295.359985352
578194.0625 4179285.5 295.429992676
578194.0625 4179285.75 295.540008545
578194.0625 4179289.5 296.480010986
578194.0625 4179289.5 296.459991455
578194.0625 4179290 296.420013428
578194.0625 4179290 296.399993896
578194.0625 4179290.25 296.369995117
578194.0625 4179290.5 296.320007324
578194.0625 4179290.75 296.269989014
578194.0625 4179290.75 296.239990234
578194.25 4179263.5 295.899993896
578194.25 4179263.75 295.910003662
578194.25 4179263.75 295.929992676
578194.25 4179264 295.950012207
578194.25 4179264.25 295.970001221
578194.25 4179264.5 295.989990234
578194.25 4179264.5 296
578194.25 4179264.75 296.010009766
578194.25 4179265 296.019989014
578194.25 4179265 296.019989014
578194.25 4179265.25 296.019989014
578194.25 4179265.5 296.010009766
578194.25 4179265.75 296.010009766
578194.25 4179265.75 296
578194.25 4179266 296
578194.25 4179266.25 296
578194.25 4179266.25 296
578194.25 4179266.5 296
578194.25 4179266.75 296
578194.25 4179267 296
578194.25 4179267 296
578194.25 4179267.25 295.989990234
578194.25 4179267.5 295.970001221
578194.25 4179267.75 295.950012207
578194.25 4179267.75 295.910003662
578194.25 4179268 295.869995117
578194.25 4179268.5 295.700012207
578194.25 4179268.75 295.399993896
578194.25 4179269 295.579986572
578194.25 4179269 295.529998779
578194.25 4179269.25 295.359985352
578194.25 4179269.5 295.429992676
578194.25 4179269.5 295.399993896
578194.25 4179269.75 295.359985352
578194.25 4179270 295.329986572
578194.25 4179270.25 295.299987793
578194.25 4179270.25 295.5
578194.25 4179270.5 295.239990234
578194.25 4179270.75 295.200012207
578194.25 4179270.75 295.070007324
578194.25 4179271 295.140014648
578194.25 4179271.5 295.049987793
578194.25 4179271.75 295.019989014
578194.25 4179272 295
578194.25 4179272 294.989990234
578194.25 4179272.25 294.970001221
578194.25 4179272.5 294.950012207
578194.25 4179272.75 294.940002441
578194.25 4179272.75 294.920013428
578194.25 4179273 294.910003662
578194.25 4179273.25 294.890014648
578194.25 4179273.5 294.880004883
578194.25 4179273.5 294.869995117
578194.25 4179273.75 294.869995117
578194.25 4179274 294.869995117
578194.25 4179274 294.869995117
578194.25 4179274.25 294.869995117
578194.25 4179274.5 294.880004883
578194.25 4179274.75 294.899993896
578194.25 4179274.75 294.910003662
578194.25 4179275 294.920013428
578194.25 4179275.25 294.920013428
578194.25 4179275.25 294.929992676
578194.25 4179275.5 294.920013428
578194.25 4179275.75 294.910003662
578194.25 4179276 294.890014648
578194.25 4179276 294.859985352
578194.25 4179276.25 294.829986572
578194.25 4179276.5 294.799987793
578194.25 4179276.5 294.760009766
578194.25 4179276.75 294.730010986
578194.25 4179277 294.769989014
578194.25 4179277.25 294.679992676
578194.25 4179277.25 294.679992676
578194.25 4179277.5 294.679992676
578194.25 4179277.75 294.829986572
578194.25 4179278 294.720001221
578194.25 4179278 294.75
578194.25 4179278.25 294.799987793
578194.25 4179278.5 294.829986572
578194.25 4179278.5 294.859985352
578194.25 4179278.75 294.940002441
578194.25 4179279 294.910003662
578194.25 4179279.25 294.929992676
578194.25 4179279.25 294.940002441
578194.25 4179279.5 294.940002441
578194.25 4179279.75 294.940002441
578194.25 4179279.75 294.929992676
578194.25 4179280 294.920013428
578194.25 4179280.25 294.899993896
578194.25 4179280.5 294.920013428
578194.25 4179280.5 294.920013428
578194.25 4179280.75 294.940002441
578194.25 4179281 294.940002441
578194.25 4179281 294.950012207
578194.25 4179281.25 294.809997559
578194.25 4179281.5 294.970001221
578194.25 4179281.75 294.970001221
578194.25 4179281.75 294.970001221
578194.25 4179282 294.959991455
578194.25 4179282.25 294.950012207
578194.25 4179282.5 294.940002441
578194.25 4179282.5 294.929992676
578194.25 4179282.75 294.929992676
578194.25 4179283 294.940002441
578194.25 4179283 294.959991455
578194.25 4179283.25 295
578194.25 4179283.5 295.049987793
578194.25 4179283.75 295.100006104
578194.25 4179283.75 295.160003662
578194.25 4179284 295.220001221
578194.25 4179284.25 295.269989014
578194.25 4179284.25 295.309997559
578194.25 4179284.5 295.329986572
578194.25 4179284.75 295.339996338
578194.25 4179285 295.329986572
578194.25 4179285 295.329986572
578194.25 4179285.25 295.320007324
578194.25 4179285.5 295.329986572
578194.25 4179285.5 295.369995117
578194.25 4179285.75 295.440002441
578194.25 4179286 295.559997559
578194.25 4179289.75 296.119995117
578194.25 4179290 296.450012207
578194.25 4179290.25 296.429992676
578194.25 4179290.5 296.369995117
578194.4375 4179263.5 295.899993896
578194.4375 4179263.75 295.899993896
578194.4375 4179263.75 295.920013428
578194.4375 4179264 295.940002441
578194.4375 4179264.25 296.059997559
578194.4375 4179264.5 295.980010986
578194.4375 4179264.5 296
578194.4375 4179264.75 296.010009766
578194.4375 4179265 296.019989014
578194.4375 4179265 296.019989014
578194.4375 4179265.25 296.019989014
578194.4375 4179265.5 296.019989014
578194.4375 4179265.75 296.019989014
578194.4375 4179265.75 296.019989014
578194.4375 4179266 296.019989014
578194.4375 4179266.25 296.019989014
578194.4375 4179266.25 296.019989014
578194.4375 4179266.5 296.019989014
578194.4375 4179266.75 296.019989014
578194.4375 4179267 296.010009766
578194.4375 4179267 296
578194.4375 4179267.25 295.980010986
578194.4375 4179267.5 295.950012207
578194.4375 4179267.75 295.910003662
578194.4375 4179267.75 295.869995117
578194.4375 4179268 295.820007324
578194.4375 4179268.25 295.769989014
578194.4375 4179268.25 295.720001221
578194.4375 4179268.5 295.660003662
578194.4375 4179268.75 295.609985352
578194.4375 4179269 295.559997559
578194.4375 4179269 295.510009766
578194.4375 4179269.25 295.459991455
578194.4375 4179269.5 295.420013428
578194.4375 4179269.5 295.380004883
578194.4375 4179269.75 295.269989014
578194.4375 4179270 295.290008545
578194.4375 4179270.25 295.549987793
578194.4375 4179270.75 294.820007324
578194.4375 4179271 295.029998779
578194.4375 4179271.5 294.700012207
578194.4375 4179271.5 294.959991455
578194.4375 4179271.75 294.940002441
578194.4375 4179272 294.929992676
578194.4375 4179272 295.109985352
578194.4375 4179272.25 294.920013428
578194.4375 4179272.5 294.910003662
578194.4375 4179272.75 295.100006104
578194.4375 4179272.75 294.890014648
578194.4375 4179273 294.880004883
578194.4375 4179273.25 294.720001221
578194.4375 4179273.5 294.850006104
578194.4375 4179273.5 294.839996338
578194.4375 4179273.75 294.839996338
578194.4375 4179274 294.839996338
578194.4375 4179274 294.839996338
578194.4375 4179274.25 294.850006104
578194.4375 4179274.5 294.859985352
578194.4375 4179274.75 294.880004883
578194.4375 4179274.75 294.899993896
578194.4375 4179275 294.910003662
578194.4375 4179275.25 294.920013428
578194.4375 4179275.25 294.929992676
578194.4375 4179275.5 294.920013428
578194.4375 4179275.75 294.910003662
578194.4375 4179276 294.890014648
578194.4375 4179276 294.859985352
578194.4375 4179276.25 294.829986572
578194.4375 4179276.5 294.790008545
578194.4375 4179276.5 294.75
578194.4375 4179276.75 294.720001221
578194.4375 4179277 294.690002441
578194.4375 4179277.25 294.679992676
578194.4375 4179277.25 294.670013428
578194.4375 4179277.5 294.670013428
578194.4375 4179277.75 294.690002441
578194.4375 4179278 294.709991455
578194.4375 4179278 294.75
578194.4375 4179278.25 294.779998779
578194.4375 4179278.5 294.820007324
578194.4375 4179278.5 294.850006104
578194.4375 4179278.75 294.880004883
578194.4375 4179279 294.910003662
578194.4375 4179279.25 294.929992676
578194.4375 4179279.25 294.989990234
578194.4375 4179279.5 294.940002441
578194.4375 4179279.75 294.950012207
578194.4375 4179279.75 294.859985352
578194.4375 4179280 294.940002441
578194.4375 4179280.25 294.940002441
578194.4375 4179280.5 294.940002441
578194.4375 4179280.5 295.019989014
578194.4375 4179280.75 294.940002441
578194.4375 4179281 294.940002441
578194.4375 4179281 294.950012207
578194.4375 4179281.25 294.950012207
578194.4375 4179281.5 294.950012207
578194.4375 4179281.75 294.940002441
578194.4375 4179281.75 294.929992676
578194.4375 4179282 294.899993896
578194.4375 4179282.25 294.910003662
578194.4375 4179282.5 295.170013428
578194.4375 4179283 294.880004883
578194.4375 4179283 294.820007324
578194.4375 4179283.25 294.929992676
578194.4375 4179283.5 294.980010986
578194.4375 4179283.75 295.359985352
578194.4375 4179284 295.170013428
578194.4375 4179284.25 295.230010986
578194.4375 4179284.25 295.290008545
578194.4375 4179284.5 295.320007324
578194.4375 4179284.75 295.339996338
578194.4375 4179285 295.350006104
578194.4375 4179285 295.339996338
578194.4375 4179285.25 295.329986572
578194.4375 4179285.5 295.329986572
578194.4375 4179285.5 295.350006104
578194.4375 4179285.75 295.390014648
578194.4375 4179286 295.459991455
578194.4375 4179286.25 295.579986572
578194.4375 4179290.25 296.459991455
578194.625 4179263.5 296.100006104
578194.625 4179263.75 295.899993896
578194.625 4179263.75 295.920013428
578194.625 4179264 295.970001221
578194.625 4179264.25 295.959991455
578194.625 4179264.5 295.980010986
578194.625 4179264.5 295.989990234
578194.625 4179264.75 295.929992676
578194.625 4179265 296.019989014
578194.625 4179265.25 296.029998779
578194.625 4179265.5 295.829986572
578194.625 4179265.75 296.040008545
578194.625 4179266 295.809997559
578194.625 4179266.25 296.049987793
578194.625 4179266.25 296.040008545
578194.625 4179266.5 296.040008545
578194.625 4179266.75 296.029998779
578194.625 4179267 295.989990234
578194.625 4179267.25 295.959991455
578194.625 4179267.5 295.920013428
578194.625 4179267.75 295.880004883
578194.625 4179267.75 295.829986572
578194.625 4179268 295.790008545
578194.625 4179268.25 295.739990234
578194.625 4179268.25 295.690002441
578194.625 4179268.5 295.640014648
578194.625 4179268.75 295.589996338
578194.625 4179269 295.549987793
578194.625 4179269 295.5
578194.625 4179269.25 295.459991455
578194.625 4179269.5 295.410003662
578194.625 4179269.5 295.359985352
578194.625 4179269.75 295.299987793
578194.625 4179270 295.25
578194.625 4179270.25 295.190002441
578194.625 4179270.75 295.010009766
578194.625 4179270.75 294.959991455
578194.625 4179271 294.929992676
578194.625 4179271.25 294.899993896
578194.625 4179271.5 295
578194.625 4179271.5 294.869995117
578194.625 4179271.75 294.869995117
578194.625 4179272 294.950012207
578194.625 4179272 294.880004883
578194.625 4179272.25 294.880004883
578194.625 4179272.5 294.869995117
578194.625 4179272.75 294.880004883
578194.625 4179272.75 294.869995117
578194.625 4179273 294.869995117
578194.625 4179273.25 294.850006104
578194.625 4179273.5 294.829986572
578194.625 4179273.5 294.820007324
578194.625 4179273.75 294.920013428
578194.625 4179274 294.809997559
578194.625 4179274 294.820007324
578194.625 4179274.25 294.820007324
578194.625 4179274.5 294.850006104
578194.625 4179274.75 294.869995117
578194.625 4179274.75 294.890014648
578194.625 4179275 294.869995117
578194.625 4179275.25 294.920013428
578194.625 4179275.25 294.920013428
578194.625 4179275.5 294.920013428
578194.625 4179275.75 294.910003662
578194.625 4179276 294.890014648
578194.625 4179276 294.859985352
578194.625 4179276.25 294.829986572
578194.625 4179276.5 294.799987793
578194.625 4179276.5 294.769989014
578194.625 4179276.75 294.739990234
578194.625 4179277 294.720001221
578194.625 4179277.25 294.700012207
578194.625 4179277.25 294.700012207
578194.625 4179277.5 294.709991455
578194.625 4179277.75 294.720001221
578194.625 4179278 294.75
578194.625 4179278 294.769989014
578194.625 4179278.25 294.799987793
578194.625 4179278.5 294.829986572
578194.625 4179278.5 294.859985352
578194.625 4179278.75 294.890014648
578194.625 4179279 294.910003662
578194.625 4179279.25 294.929992676
578194.625 4179279.25 294.940002441
578194.625 4179279.5 294.950012207
578194.625 4179279.75 294.959991455
578194.625 4179279.75 294.959991455
578194.625 4179280 294.959991455
578194.625 4179280.25 294.959991455
578194.625 4179280.5 294.950012207
578194.625 4179280.5 294.950012207
578194.625 4179280.75 294.950012207
578194.625 4179281 294.940002441
578194.625 4179281 294.809997559
578194.625 4179281.25 294.929992676
578194.625 4179281.5 294.920013428
578194.625 4179281.75 294.739990234
578194.625 4179281.75 294.899993896
578194.625 4179282 294.880004883
578194.625 4179282.25 294.720001221
578194.625 4179282.5 294.850006104
578194.625 4179282.75 294.790008545
578194.625 4179283 294.829986572
578194.625 4179283 294.839996338
578194.625 4179283.25 294.869995117
578194.625 4179283.5 294.910003662
578194.625 4179283.75 294.959991455
578194.625 4179284.25 295.239990234
578194.625 4179284.5 295.480010986
578194.625 4179284.75 295.329986572
578194.625 4179285 295.359985352
578194.625 4179285 295.329986572
578194.625 4179285.25 295.359985352
578194.625 4179285.5 295.350006104
578194.625 4179285.5 295.420013428
578194.625 4179285.75 295.369995117
578194.625 4179286 295.410003662
578194.625 4179286.25 295.489990234
578194.8125 4179263.5 295.899993896
578194.8125 4179263.75 295.899993896
578194.8125 4179263.75 295.910003662
578194.8125 4179264 295.929992676
578194.8125 4179264.25 295.950012207
578194.8125 4179264.5 295.769989014
578194.8125 4179264.5 295.989990234
578194.8125 4179264.75 296
578194.8125 4179265 296.369995117
578194.8125 4179265.5 296.040008545
578194.8125 4179265.75 296.339996338
578194.8125 4179266.25 296.179992676
578194.8125 4179266.25 296.059997559
578194.8125 4179266.5 296.049987793
578194.8125 4179266.75 295.950012207
578194.8125 4179267 296.529998779
578194.8125 4179267.25 296.029998779
578194.8125 4179267.5 295.890014648
578194.8125 4179267.75 295.850006104
578194.8125 4179267.75 295.730010986
578194.8125 4179268 295.75
578194.8125 4179268.25 295.709991455
578194.8125 4179268.25 295.670013428
578194.8125 4179268.5 295.619995117
578194.8125 4179268.75 295.579986572
578194.8125 4179269 295.540008545
578194.8125 4179269 295.489990234
578194.8125 4179269.25 295.450012207
578194.8125 4179269.5 295.390014648
578194.8125 4179270 295.190002441
578194.8125 4179270.25 295.119995117
578194.8125 4179270.25 295.049987793
578194.8125 4179270.5 294.980010986
578194.8125 4179270.75 294.920013428
578194.8125 4179270.75 294.869995117
578194.8125 4179271 294.829986572
578194.8125 4179271.25 294.799987793
578194.8125 4179271.5 294.790008545
578194.8125 4179271.5 294.790008545
578194.8125 4179271.75 294.799987793
578194.8125 4179272 294.820007324
578194.8125 4179272 294.839996338
578194.8125 4179272.25 294.850006104
578194.8125 4179272.5 294.859985352
578194.8125 4179272.75 294.859985352
578194.8125 4179272.75 294.859985352
578194.8125 4179273 294.850006104
578194.8125 4179273.25 294.839996338
578194.8125 4179273.5 294.829986572
578194.8125 4179273.5 294.790008545
578194.8125 4179273.75 294.809997559
578194.8125 4179274 294.809997559
578194.8125 4179274 294.739990234
578194.8125 4179274.25 294.820007324
578194.8125 4179274.5 294.839996338
578194.8125 4179274.75 294.859985352
578194.8125 4179274.75 294.920013428
578194.8125 4179275 294.899993896
578194.8125 4179275.25 294.910003662
578194.8125 4179275.25 294.920013428
578194.8125 4179275.5 294.910003662
578194.8125 4179275.75 294.910003662
578194.8125 4179276 294.890014648
578194.8125 4179276 294.760009766
578194.8125 4179276.25 294.850006104
578194.8125 4179276.5 294.820007324
578194.8125 4179276.5 294.799987793
578194.8125 4179276.75 294.779998779
578194.8125 4179277 294.769989014
578194.8125 4179277.25 294.769989014
578194.8125 4179277.25 294.769989014
578194.8125 4179277.5 294.779998779
578194.8125 4179277.75 294.799987793
578194.8125 4179278 294.809997559
578194.8125 4179278 294.839996338
578194.8125 4179278.25 294.859985352
578194.8125 4179278.5 294.880004883
578194.8125 4179278.5 294.899993896
578194.8125 4179278.75 294.910003662
578194.8125 4179279 294.929992676
578194.8125 4179279.25 294.940002441
578194.8125 4179279.25 294.950012207
578194.8125 4179279.5 294.959991455
578194.8125 4179279.75 294.970001221
578194.8125 4179279.75 294.970001221
578194.8125 4179280 294.970001221
578194.8125 4179280.25 294.970001221
578194.8125 4179280.5 294.959991455
578194.8125 4179280.5 294.950012207
578194.8125 4179280.75 294.940002441
578194.8125 4179281 294.929992676
578194.8125 4179281 294.920013428
578194.8125 4179281.25 294.910003662
578194.8125 4179281.5 294.890014648
578194.8125 4179281.75 294.880004883
578194.8125 4179281.75 294.869995117
578194.8125 4179282 294.850006104
578194.8125 4179282.25 294.839996338
578194.8125 4179282.5 294.820007324
578194.8125 4179282.5 294.809997559
578194.8125 4179282.75 294.799987793
578194.8125 4179283 294.790008545
578194.8125 4179283 294.799987793
578194.8125 4179283.25 294.820007324
578194.8125 4179283.5 294.850006104
578194.8125 4179283.75 294.899993896
578194.8125 4179284 294.630004883
578194.8125 4179284.25 295.179992676
578194.8125 4179284.5 295.25
578194.8125 4179284.75 295.290008545
578194.8125 4179285 295.350006104
578194.8125 4179285 295.380004883
578194.8125 4179285.25 295.429992676
578194.8125 4179285.5 295.380004883
578194.8125 4179285.5 295.380004883
578194.8125 4179285.75 295.380004883
578194.8125 4179286 295.399993896
578194.8125 4179286.25 295.450012207
578194.8125 4179286.25 295.470001221
578194.9375 4179263.5 295.899993896
578194.9375 4179263.75 295.899993896
578194.9375 4179263.75 295.910003662
578194.9375 4179264 295.929992676
578194.9375 4179264.25 295.940002441
578194.9375 4179264.5 295.959991455
578194.9375 4179264.5 295.980010986
578194.9375 4179264.75 295.989990234
578194.9375 4179265 296
578194.9375 4179265.25 296.029998779
578194.9375 4179265.5 296.040008545
578194.9375 4179265.75 296.049987793
578194.9375 4179266 296.059997559
578194.9375 4179266.25 296.059997559
578194.9375 4179266.25 296.059997559
578194.9375 4179266.5 296.040008545
578194.9375 4179266.75 296.019989014
578194.9375 4179267 295.950012207
578194.9375 4179267.25 295.709991455
578194.9375 4179267.5 295.859985352
578194.9375 4179267.75 295.820007324
578194.9375 4179267.75 295.690002441
578194.9375 4179268 295.730010986
578194.9375 4179268.25 295.690002441
578194.9375 4179268.25 295.649993896
578194.9375 4179268.5 295.619995117
578194.9375 4179268.75 295.579986572
578194.9375 4179269 295.559997559
578194.9375 4179269 295.489990234
578194.9375 4179269.25 295.429992676
578194.9375 4179269.5 295.679992676
578194.9375 4179270.25 295.049987793
578194.9375 4179270.25 294.970001221
578194.9375 4179270.5 294.899993896
578194.9375 4179270.75 294.839996338
578194.9375 4179270.75 294.790008545
578194.9375 4179271 294.75
578194.9375 4179271.25 294.739990234
578194.9375 4179271.5 294.730010986
578194.9375 4179271.5 294.739990234
578194.9375 4179271.75 294.760009766
578194.9375 4179272 294.779998779
578194.9375 4179272 294.809997559
578194.9375 4179272.25 294.829986572
578194.9375 4179272.5 294.850006104
578194.9375 4179272.75 294.859985352
578194.9375 4179272.75 294.859985352
578194.9375 4179273 294.859985352
578194.9375 4179273.25 294.850006104
578194.9375 4179273.5 294.839996338
578194.9375 4179273.5 294.820007324
578194.9375 4179273.75 294.820007324
578194.9375 4179274 294.809997559
578194.9375 4179274 294.809997559
578194.9375 4179274.25 294.820007324
578194.9375 4179274.5 294.839996338
578194.9375 4179274.75 294.850006104
578194.9375 4179274.75 294.869995117
578194.9375 4179275 294.890014648
578194.9375 4179275.25 294.899993896
578194.9375 4179275.25 294.959991455
578194.9375 4179275.5 294.910003662
578194.9375 4179275.75 294.910003662
578194.9375 4179276 295.130004883
578194.9375 4179276 294.890014648
578194.9375 4179276.25 294.869995117
578194.9375 4179276.5 294.739990234
578194.9375 4179276.5 294.859985352
578194.9375 4179276.75 294.850006104
578194.9375 4179277 294.859985352
578194.9375 4179277.25 294.869995117
578194.9375 4179277.25 294.75
578194.9375 4179277.5 294.890014648
578194.9375 4179277.75 294.899993896
578194.9375 4179278 294.829986572
578194.9375 4179278 294.929992676
578194.9375 4179278.25 294.929992676
578194.9375 4179278.5 294.940002441
578194.9375 4179278.5 294.970001221
578194.9375 4179278.75 294.950012207
578194.9375 4179279 294.950012207
578194.9375 4179279.25 295.059997559
578194.9375 4179279.25 294.959991455
578194.9375 4179279.5 294.970001221
578194.9375 4179279.75 294.970001221
578194.9375 4179279.75 294.970001221
578194.9375 4179280 294.970001221
