# .PCD v.7 - Point Cloud Data file format
VERSION .7
FIELDS x y z
SIZE 4 4 4
TYPE F F F
COUNT 1 1 1
WIDTH 1322
HEIGHT 1
VIEWPOINT 0 0 0 1 0 0 0
POINTS 1322
DATA ascii
578186.1 4179282 301.39
578183.8 4179282 301.41
578186.7 4179282 301.42
578183.1 4179276 301.44
578188.5 4179277 301.46
578180.9 4179279 301.46
578181.3 4179280 301.48
578186.5 4179282 301.48
578184.7 4179283 301.48
578188.5 4179276 301.49
578181.1 4179278 301.5
578184 4179282 301.5
578182.2 4179276 301.51
578180.9 4179278 301.52
578182.4 4179282 301.51
578186 4179282 301.51
578183.8 4179275 301.53
578188.7 4179281 301.53
578183.6 4179282 301.53
578184.9 4179283 301.53
578185.2 4179283 301.53
578187.4 4179276 301.54
578182.2 4179282 301.54
578185.1 4179283 301.54
578186.3 4179282 301.56
578182.8 4179275 301.57
578187.8 4179276 301.58
578188.9 4179280 301.57
578187.2 4179276 301.59
578187.6 4179276 301.59
578187.6 4179276 301.59
578187.8 4179276 301.59
578180.9 4179278 301.59
578187.8 4179276 301.6
578187.6 4179276 301.61
578187.9 4179276 301.61
578181.1 4179280 301.6
578188.9 4179280 301.61
578181.6 4179281 301.6
578181.8 4179281 301.6
578184.2 4179282 301.6
578187.6 4179276 301.62
578181.8 4179276 301.62
578187.8 4179277 301.62
578181.3 4179277 301.62
578181.3 4179278 301.62
578181.5 4179281 301.62
578187.9 4179276 301.63
578187.4 4179276 301.63
578189.4 4179278 301.63
578189.4 4179278 301.63
578187.2 4179282 301.63
578185.8 4179282 301.63
578187.8 4179276 301.64
578187.9 4179277 301.64
578189.4 4179278 301.64
578181.5 4179281 301.64
578182.4 4179281 301.64
578187.1 4179282 301.65
578187.2 4179276 301.66
578187.4 4179276 301.66
578188.7 4179278 301.66
578189.4 4179278 301.66
578181.5 4179280 301.66
578186.9 4179282 301.66
578186.1 4179282 301.66
578184.6 4179283 301.66
578186 4179275 301.67
578188.1 4179276 301.67
578180.9 4179278 301.67
578182 4179282 301.67
578186 4179275 301.68
578183.4 4179276 301.68
578183.6 4179276 301.68
578183.4 4179276 301.68
578187.1 4179276 301.68
578187.6 4179276 301.68
578187.9 4179276 301.68
578188.1 4179276 301.68
578187.8 4179277 301.68
578187.9 4179277 301.68
578181.3 4179278 301.68
578189.4 4179279 301.68
578183.6 4179276 301.69
578183.2 4179276 301.69
578183.6 4179276 301.69
578188.3 4179276 301.69
578188.1 4179277 301.69
578188.9 4179279 301.69
578189.2 4179280 301.69
578184.4 4179282 301.69
578186.5 4179275 301.7
578186.5 4179275 301.7
578186.7 4179275 301.7
578183.8 4179276 301.7
578186.7 4179276 301.7
578186.9 4179276 301.7
578186.9 4179276 301.7
578187.2 4179276 301.7
578187.8 4179276 301.7
578187.2 4179276 301.7
578186.3 4179275 301.71
578186.7 4179275 301.71
578183.4 4179276 301.71
578186.3 4179276 301.71
578183.4 4179276 301.71
578188.1 4179276 301.71
578189.4 4179279 301.71
578188.7 4179280 301.71
578183.8 4179282 301.71
578185.8 4179275 301.72
578186.7 4179275 301.72
578184 4179275 301.72
578186.9 4179275 301.72
578186.5 4179276 301.72
578183.2 4179276 301.72
578186.7 4179276 301.72
578183.1 4179276 301.72
578187.6 4179277 301.72
578189.4 4179280 301.72
578188.9 4179280 301.72
578187.9 4179281 301.72
578184.6 4179282 301.72
578183.6 4179275 301.73
578184 4179276 301.73
578183.2 4179276 301.73
578183.8 4179276 301.73
578187.9 4179276 301.73
578188.3 4179276 301.73
578188.1 4179277 301.73
578183.4 4179282 301.73
578185.6 4179282 301.73
578186.1 4179275 301.74
578186.9 4179275 301.74
578184 4179276 301.74
578183.1 4179276 301.74
578183.6 4179276 301.74
578187.1 4179276 301.74
578187.4 4179276 301.74
578188.3 4179276 301.74
578189.4 4179279 301.74
578186.9 4179275 301.75
578183.4 4179275 301.75
578184 4179275 301.75
578188.1 4179276 301.75
578187.9 4179277 301.75
578180.9 4179278 301.75
578182.6 4179282 301.75
578185.6 4179283 301.75
578185.6 4179275 301.77
578183.6 4179275 301.77
578186.5 4179276 301.76
578187.8 4179276 301.76
578187.9 4179276 301.77
578182.9 4179276 301.76
578183.4 4179276 301.77
578186.7 4179276 301.77
578186.9 4179276 301.76
578182.8 4179276 301.76
578182.9 4179276 301.77
578183.1 4179276 301.76
578182.6 4179277 301.77
578187.8 4179277 301.76
578181.1 4179279 301.77
578189.1 4179280 301.77
578182.2 4179282 301.76
578182.6 4179282 301.77
578182.9 4179282 301.76
578186 4179282 301.77
578183.4 4179275 301.78
578183.6 4179275 301.78
578185.8 4179275 301.78
578187.1 4179275 301.78
578184.2 4179276 301.78
578184.2 4179276 301.78
578184 4179276 301.78
578182.6 4179276 301.78
578182.8 4179277 301.78
578182.4 4179277 301.78
578182.6 4179277 301.78
578188.1 4179277 301.78
578189.4 4179278 301.78
578181.8 4179281 301.78
578186.3 4179282 301.78
578184 4179282 301.78
578184.6 4179282 301.78
578183.2 4179275 301.8
578183.4 4179275 301.79
578184.2 4179275 301.79
578187.6 4179276 301.8
578182.8 4179276 301.79
578183.1 4179276 301.79
578183.8 4179276 301.8
578183.2 4179276 301.8
578187.1 4179276 301.79
578182.4 4179277 301.79
578182.4 4179277 301.79
578181.1 4179278 301.8
578188.7 4179278 301.8
578187.9 4179280 301.79
578188.1 4179280 301.8
578187.9 4179280 301.8
578181.6 4179281 301.8
578185.8 4179275 301.81
578187.2 4179275 301.81
578187.8 4179276 301.81
578182.6 4179276 301.81
578182.6 4179277 301.81
578188.3 4179277 301.81
578181.1 4179279 301.81
578181.5 4179280 301.81
578187.9 4179280 301.81
578188.1 4179280 301.81
578182 4179281 301.81
578184.7 4179282 301.81
578186.9 4179282 301.81
578184.4 4179275 301.83
578185.4 4179275 301.82
578185.6 4179275 301.83
578183.2 4179275 301.82
578184.2 4179275 301.82
578185.8 4179275 301.83
578184.4 4179276 301.83
578183.6 4179276 301.83
578186.5 4179276 301.82
578186.7 4179276 301.83
578186.9 4179276 301.82
578182.4 4179276 301.83
578188.7 4179276 301.83
578182.2 4179277 301.82
578182.4 4179277 301.83
578182.8 4179277 301.82
578187.9 4179277 301.83
578180.9 4179278 301.82
578189.2 4179278 301.83
578189.2 4179278 301.83
578181.1 4179279 301.82
578181.1 4179280 301.83
578187.8 4179280 301.82
578188.1 4179280 301.82
578182.2 4179280 301.83
578183.6 4179282 301.82
578183.1 4179282 301.82
578185.4 4179282 301.82
578184.2 4179275 301.84
578187.6 4179275 301.84
578182.2 4179277 301.84
578187.8 4179277 301.84
578188.1 4179277 301.84
578181.3 4179280 301.84
578187.8 4179282 301.84
578184.6 4179275 301.86
578185.6 4179275 301.86
578184.4 4179275 301.86
578185.8 4179275 301.85
578184.4 4179276 301.86
578182.8 4179276 301.85
578184.2 4179276 301.85
578182.9 4179276 301.86
578182.2 4179277 301.86
578182.6 4179277 301.86
578189.2 4179278 301.86
578189.2 4179278 301.85
578189.2 4179278 301.85
578181.1 4179279 301.85
578187.9 4179280 301.86
578188.1 4179280 301.85
578181.1 4179280 301.86
578188.3 4179280 301.86
578181.1 4179280 301.85
578187.9 4179280 301.85
578185.6 4179282 301.85
578183.2 4179282 301.85
578186.1 4179282 301.86
578184.2 4179282 301.86
578185.8 4179283 301.86
578182.9 4179276 301.87
578183.8 4179276 301.87
578182.6 4179276 301.87
578187.2 4179276 301.87
578183.4 4179276 301.87
578187.1 4179276 301.87
578189.2 4179277 301.87
578189.2 4179278 301.87
578180.9 4179278 301.87
578189.2 4179279 301.87
578183.4 4179282 301.87
578185.2 4179282 301.87
578184.4 4179275 301.88
578184.7 4179275 301.88
578185.6 4179275 301.88
578182.9 4179276 301.88
578182 4179277 301.88
578182.8 4179277 301.88
578189.2 4179277 301.88
578182.4 4179278 301.88
578188.3 4179280 301.88
578188.3 4179280 301.88
578188.1 4179280 301.88
578186.7 4179282 301.88
578185.8 4179282 301.88
578184.6 4179275 301.89
578184.6 4179276 301.89
578185.8 4179276 301.89
578182 4179277 301.89
578188.3 4179278 301.89
578188.5 4179280 301.89
578189.2 4179280 301.89
578187.6 4179280 301.89
578189.1 4179280 301.89
578182.6 4179280 301.89
578186.7 4179282 301.89
578184.9 4179282 301.89
578184.6 4179275 301.9
578185.6 4179275 301.9
578183.2 4179276 301.9
578186.9 4179276 301.9
578182.9 4179277 301.9
578187.9 4179278 301.9
578189.2 4179279 301.9
578181.3 4179279 301.9
578188.1 4179279 301.9
578182.6 4179280 301.9
578182 4179281 301.9
578186.5 4179282 301.9
578186.9 4179282 301.9
578185.1 4179282 301.9
578184.6 4179275 301.91
578184.6 4179276 301.91
578182.8 4179276 301.91
578184.4 4179276 301.91
578187.2 4179277 301.91
578188.1 4179278 301.91
578188.5 4179279 301.91
578182.8 4179280 301.91
578181.8 4179281 301.91
578185.4 4179275 301.92
578186.7 4179276 301.92
578182.2 4179276 301.92
578182 4179278 301.92
578182.6 4179278 301.92
578187.8 4179280 301.92
578187.9 4179279 301.92
578188.3 4179279 301.92
578189.2 4179279 301.92
578182.6 4179280 301.92
578182.4 4179280 301.92
578182.8 4179280 301.92
578187.1 4179282 301.92
578187.6 4179282 301.92
578183.8 4179282 301.92
578184.7 4179275 301.93
578184.7 4179275 301.93
578184.7 4179276 301.93
578185.6 4179276 301.93
578187.8 4179278 301.93
578182.2 4179278 301.93
578189.2 4179280 301.93
578188.5 4179280 301.93
578182.8 4179280 301.93
578188.3 4179280 301.93
578187.8 4179280 301.93
578185.6 4179282 301.93
578186.3 4179282 301.93
578184.7 4179275 301.94
578184.7 4179275 301.94
578185.4 4179275 301.94
578185.8 4179276 301.94
578182.6 4179276 301.94
578182 4179277 301.94
578188.9 4179277 301.94
578182.8 4179277 301.94
578188.3 4179278 301.94
578182.4 4179278 301.94
578189.2 4179279 301.94
578182.4 4179280 301.94
578187.8 4179280 301.94
578182.6 4179281 301.94
578187.8 4179281 301.94
578187.9 4179280 301.94
578182.8 4179282 301.94
578185.2 4179275 301.95
578183.6 4179276 301.95
578187.1 4179277 301.95
578187.4 4179277 301.95
578189.1 4179277 301.95
578188.5 4179280 301.95
578182.4 4179281 301.95
578187.2 4179282 301.95
578186 4179282 301.95
578184.4 4179282 301.95
578184.9 4179275 301.96
578185.4 4179276 301.96
578182.8 4179276 301.96
578184.7 4179276 301.96
578184.6 4179276 301.96
578188.5 4179278 301.96
578189.1 4179278 301.96
578189.1 4179278 301.96
578188.1 4179279 301.96
578188.3 4179279 301.96
578182.6 4179280 301.96
578182.8 4179281 301.96
578182 4179281 301.96
578182.2 4179281 301.96
578187.4 4179282 301.96
578184 4179282 301.96
578185.1 4179276 301.97
578181.8 4179277 301.97
578189.1 4179278 301.97
578189.1 4179278 301.97
578188.5 4179279 301.97
578189.1 4179280 301.97
578188.5 4179280 301.97
578182.9 4179280 301.97
578188.1 4179280 301.97
578188.7 4179280 301.97
578182.6 4179281 301.97
578184.4 4179282 301.97
578185.6 4179276 301.98
578181.5 4179276 301.98
578182.2 4179277 301.98
578188.7 4179277 301.98
578188.9 4179277 301.98
578189.1 4179277 301.98
578187.6 4179278 301.98
578182.6 4179278 301.98
578187.9 4179278 301.98
578188.1 4179278 301.98
578189.1 4179278 301.98
578188.5 4179278 301.98
578189.1 4179279 301.98
578182.8 4179280 301.98
578187.4 4179280 301.98
578182.2 4179280 301.98
578182.2 4179281 301.98
578185.6 4179282 301.98
578184.9 4179275 301.99
578182.8 4179276 301.99
578184.4 4179276 301.99
578183.4 4179276 301.99
578186.9 4179276 301.99
578181.8 4179277 301.99
578189.1 4179277 301.99
578181.8 4179278 301.99
578189.1 4179278 301.99
578188.3 4179278 301.99
578187.8 4179279 301.99
578187.9 4179279 301.99
578182.4 4179280 301.99
578185.4 4179276 302
578182 4179276 302
578183.1 4179277 302
578188.7 4179277 302
578181.1 4179278 302
578182.2 4179278 302
578182.4 4179278 302
578189.1 4179279 302
578187.4 4179280 302
578182.9 4179280 302
578182 4179281 302
578182.9 4179281 302
578187.4 4179280 302
578188.3 4179280 302
578186.1 4179282 302
578185.1 4179276 302.01
578185.2 4179276 302.01
578182.6 4179276 302.01
578184.7 4179276 302.01
578185.8 4179276 302.02
578186.5 4179276 302.01
578186.7 4179276 302.01
578183.2 4179277 302.01
578188.9 4179277 302.015
578182.8 4179278 302.01
578188.7 4179278 302.02
578182 4179278 302.01
578187.8 4179278 302.01
578188.5 4179278 302.02
578188.1 4179279 302.02
578188.3 4179279 302.01
578188.7 4179279 302.02
578182.6 4179280 302.02
578182.2 4179280 302.01
578181.8 4179281 302.01
578182.4 4179280 302.01
578188.5 4179280 302.01
578182.6 4179282 302.01
578186.5 4179282 302.01
578184.9 4179276 302.03
578181.8 4179277 302.03
578187.1 4179277 302.03
578188.9 4179278 302.03
578181.8 4179278 302.03
578188.9 4179278 302.03
578188.1 4179278 302.03
578188.9 4179278 302.03
578188.9 4179278 302.03
578187.6 4179280 302.03
578189.1 4179279 302.03
578182 4179280 302.03
578187.6 4179280 302.03
578182.8 4179281 302.03
578182.9 4179282 302.03
578184.2 4179282 302.03
578182.6 4179276 302.04
578182.6 4179276 302.05
578184.6 4179276 302.04
578185.6 4179276 302.05
578181.6 4179277 302.05
578182.9 4179277 302.05
578182.2 4179278 302.04
578188.7 4179278 302.04
578182 4179278 302.04
578182.6 4179278 302.04
578187.9 4179278 302.05
578188.3 4179279 302.05
578188.5 4179279 302.05
578187.9 4179279 302.05
578182.8 4179280 302.05
578183.1 4179280 302.05
578187.4 4179280 302.05
578187.8 4179280 302.04
578186.3 4179282 302.04
578183.4 4179282 302.05
578183.6 4179282 302.04
578183.8 4179282 302.05
578185.4 4179276 302.06
578188.7 4179278 302.06
578188.1 4179279 302.06
578182 4179279 302.06
578182 4179280 302.06
578187.9 4179280 302.06
578182.9 4179281 302.06
578183.2 4179282 302.06
578183.1 4179282 302.06
578183.2 4179282 302.06
578185.4 4179282 302.06
578184.7 4179276 302.08
578185.2 4179276 302.08
578186 4179276 302.08
578186.9 4179277 302.08
578181.6 4179277 302.07
578181.6 4179278 302.07
578182.8 4179278 302.07
578187.6 4179278 302.07
578182.2 4179278 302.07
578182.4 4179278 302.07
578187.8 4179278 302.08
578188.1 4179278 302.07
578188.3 4179278 302.07
578188.3 4179278 302.075
578188.5 4179278 302.08
578181.8 4179280 302.08
578183.1 4179280 302.07
578187.2 4179280 302.08
578184.6 4179282 302.08
578186.1 4179282 302.08
578184 4179282 302.07
578186 4179282 302.07
578185.8 4179282 302.07
578182.4 4179276 302.09
578183.6 4179276 302.09
578181.6 4179277 302.09
578181.8 4179278 302.09
578188.1 4179278 302.09
578188.3 4179278 302.09
578181.3 4179279 302.09
578182.6 4179280 302.09
578188.1 4179280 302.09
578188.3 4179280 302.09
578186.5 4179282 302.09
578184.4 4179276 302.1
578186.5 4179276 302.11
578186.7 4179276 302.11
578183.1 4179277 302.1
578181.6 4179278 302.1
578182 4179278 302.11
578182.6 4179278 302.1
578187.9 4179278 302.1
578182 4179278 302.1
578188.1 4179278 302.105
578187.9 4179279 302.1
578181.3 4179279 302.1
578187.6 4179279 302.1
578182.2 4179280 302.11
578182.4 4179280 302.11
578182.8 4179280 302.11
578182.9 4179280 302.11
578182 4179280 302.1
578183.1 4179280 302.1
578187.2 4179280 302.1
578187.2 4179280 302.1
578182.8 4179281 302.11
578183.1 4179281 302.11
578186.3 4179282 302.1
578187.1 4179282 302.1
578184.2 4179282 302.11
578185.8 4179276 302.12
578186 4179276 302.12
578183.4 4179277 302.12
578182.9 4179278 302.12
578182.8 4179278 302.12
578187.8 4179279 302.12
578184 4179282 302.12
578184.7 4179282 302.12
578185.2 4179282 302.12
578185.1 4179276 302.13
578182.9 4179277 302.13
578183.2 4179277 302.13
578182.2 4179278 302.13
578182.4 4179278 302.13
578187.9 4179278 302.13
578182.2 4179280 302.13
578181.8 4179280 302.13
578187.4 4179281 302.13
578187.6 4179281 302.13
578186.5 4179282 302.13
578184.9 4179282 302.13
578185.6 4179276 302.14
578181.3 4179278 302.14
578187.8 4179278 302.14
578187.9 4179278 302.14
578182 4179280 302.14
578187.2 4179280 302.14
578187.2 4179281 302.14
578182.9 4179281 302.14
578182.8 4179282 302.14
578186 4179282 302.14
578186.1 4179282 302.14
578186.9 4179282 302.14
578185.1 4179282 302.14
578184.6 4179276 302.15
578186.3 4179276 302.15
578181.5 4179278 302.15
578187.4 4179278 302.15
578181.6 4179278 302.15
578181.8 4179278 302.15
578182.6 4179278 302.15
578182.6 4179280 302.15
578183.2 4179280 302.15
578183.8 4179282 302.15
578184 4179282 302.15
578184.2 4179282 302.15
578186.3 4179282 302.15
578186.9 4179277 302.16
578182.4 4179280 302.16
578187.1 4179280 302.16
578183.1 4179281 302.16
578183.2 4179281 302.16
578183.4 4179281 302.16
578184.4 4179281 302.16
578183.4 4179282 302.16
578184 4179282 302.16
578184.4 4179282 302.16
578182.8 4179278 302.17
578187.8 4179279 302.17
578182.4 4179280 302.17
578182.2 4179280 302.17
578184.2 4179281 302.17
578184.6 4179281 302.17
578184.7 4179281 302.17
578188.3 4179281 302.17
578183.8 4179282 302.17
578186.1 4179282 302.17
578187.2 4179282 302.17
578184.7 4179276 302.18
578183.8 4179276 302.18
578187.2 4179277 302.18
578182.4 4179278 302.18
578187.8 4179278 302.18
578182.8 4179280 302.18
578182.9 4179280 302.18
578181.8 4179280 302.18
578187.1 4179281 302.18
578184 4179281 302.18
578186.3 4179281 302.18
578184.4 4179282 302.18
578186 4179282 302.18
578186.9 4179282 302.18
578185.1 4179276 302.19
578186 4179276 302.19
578182 4179280 302.19
578183.2 4179280 302.19
578187.1 4179280 302.19
578183.2 4179281 302.19
578184.7 4179281 302.19
578184.9 4179281 302.19
578185.6 4179281 302.19
578186.7 4179281 302.19
578186.9 4179281 302.19
578183.8 4179281 302.19
578184.9 4179281 302.19
578186.9 4179281 302.19
578182.9 4179282 302.19
578186.3 4179276 302.2
578186.7 4179277 302.2
578187.1 4179277 302.2
578187.4 4179277 302.2
578182.2 4179278 302.2
578182.6 4179278 302.2
578187.8 4179278 302.2
578182.6 4179279 302.2
578187.9 4179281 302.2
578186.5 4179281 302.2
578187.2 4179281 302.2
578183.6 4179281 302.2
578186.1 4179281 302.2
578183.1 4179282 302.2
578183.6 4179282 302.2
578184.6 4179282 302.2
578184.7 4179282 302.2
578186 4179282 302.2
578182.8 4179278 302.21
578187.2 4179280 302.21
578188.1 4179281 302.21
578183.4 4179281 302.21
578184.2 4179281 302.21
578185.1 4179281 302.21
578187.1 4179281 302.21
578182.9 4179281 302.21
578185.1 4179281 302.21
578183.4 4179282 302.21
578185.8 4179282 302.21
578187.1 4179282 302.21
578187.4 4179282 302.21
578185.8 4179276 302.22
578186.5 4179276 302.22
578181.8 4179278 302.22
578182.4 4179278 302.22
578183.1 4179280 302.22
578181.8 4179280 302.22
578183.6 4179281 302.22
578183.8 4179281 302.22
578184 4179281 302.22
578185.2 4179281 302.22
578186.3 4179281 302.22
578183.1 4179281 302.22
578186 4179281 302.22
578183.4 4179282 302.22
578184.9 4179282 302.22
578185.4 4179282 302.22
578184.4 4179276 302.23
578183.6 4179277 302.23
578182.6 4179278 302.23
578187.6 4179279 302.23
578182.8 4179279 302.23
578187.6 4179279 302.23
578182 4179280 302.23
578182.2 4179280 302.23
578183.2 4179280 302.23
578187.4 4179281 302.23
578185.2 4179281 302.23
578184.6 4179282 302.23
578185.4 4179282 302.23
578185.8 4179282 302.23
578185.4 4179276 302.24
578183.2 4179277 302.24
578187.2 4179278 302.24
578182.9 4179278 302.24
578181.6 4179278 302.24
578182 4179278 302.24
578182.6 4179279 302.24
578182.9 4179280 302.24
578187.4 4179280 302.24
578187.1 4179280 302.24
578186.9 4179280 302.24
578184.9 4179281 302.24
578185.4 4179281 302.24
578186.1 4179281 302.24
578188.3 4179281 302.24
578185.4 4179281 302.24
578185.8 4179281 302.24
578187.1 4179281 302.24
578183.2 4179282 302.24
578184.7 4179282 302.24
578185.1 4179282 302.24
578183.4 4179277 302.25
578186.9 4179277 302.25
578182.2 4179278 302.25
578182.8 4179278 302.25
578187.6 4179278 302.25
578182.4 4179279 302.25
578182.6 4179279 302.25
578182.6 4179279 302.25
578182.4 4179279 302.25
578187.6 4179280 302.25
578183.6 4179281 302.25
578184.7 4179281 302.25
578185.1 4179281 302.25
578186.5 4179281 302.25
578185.6 4179281 302.25
578183.2 4179282 302.25
578187.1 4179282 302.25
578184.6 4179276 302.27
578186.1 4179276 302.27
578183.1 4179277 302.26
578181.8 4179278 302.27
578182.8 4179278 302.27
578187.6 4179279 302.26
578181.5 4179279 302.27
578182.4 4179279 302.26
578181.5 4179279 302.26
578182.2 4179279 302.26
578182.8 4179279 302.26
578181.8 4179280 302.26
578183.4 4179280 302.26
578183.8 4179281 302.27
578184.4 4179281 302.27
578185.2 4179281 302.26
578185.4 4179281 302.26
578185.8 4179281 302.26
578186 4179281 302.26
578187.2 4179281 302.26
578182.9 4179282 302.26
578183.1 4179282 302.26
578184.7 4179282 302.27
578184.9 4179282 302.27
578185.2 4179282 302.26
578185.4 4179282 302.26
578184.9 4179282 302.27
578185.2 4179282 302.26
578187.1 4179278 302.28
578182.9 4179278 302.28
578182 4179278 302.28
578182.8 4179279 302.28
578182.8 4179279 302.28
578182 4179280 302.28
578182.2 4179279 302.28
578187.2 4179280 302.28
578184 4179281 302.28
578184.2 4179281 302.28
578186.3 4179281 302.28
578185.1 4179282 302.28
578184.7 4179276 302.3
578186.7 4179277 302.29
578182.2 4179279 302.29
578182.2 4179279 302.29
578182.9 4179279 302.29
578181.8 4179280 302.29
578183.1 4179280 302.29
578183.2 4179280 302.29
578183.6 4179281 302.29
578186.9 4179280 302.3
578185.6 4179281 302.3
578186.1 4179281 302.3
578183.2 4179281 302.3
578185.1 4179282 302.29
578185.2 4179282 302.3
578187.2 4179282 302.29
578186 4179276 302.31
578182.9 4179278 302.31
578182 4179279 302.31
578187.1 4179280 302.31
578183.4 4179280 302.31
578185.8 4179281 302.31
578186 4179281 302.31
578187.2 4179281 302.31
578184.9 4179282 302.31
578185.4 4179282 302.31
578184.2 4179276 302.33
578183.8 4179277 302.33
578183.2 4179277 302.33
578186.9 4179277 302.32
578183.1 4179278 302.33
578181.8 4179278 302.32
578182.9 4179278 302.33
578182 4179279 302.32
578181.8 4179280 302.32
578182.4 4179279 302.32
578182.9 4179279 302.33
578184.9 4179281 302.33
578185.1 4179281 302.33
578186.7 4179280 302.32
578187.4 4179281 302.32
578187.8 4179281 302.32
578188.1 4179281 302.32
578185.1 4179282 302.33
578185.2 4179282 302.33
578187.2 4179282 302.33
578184.9 4179282 302.32
578185.2 4179282 302.33
578183.1 4179277 302.34
578182.9 4179278 302.34
578181.6 4179279 302.34
578181.8 4179279 302.34
578183.8 4179281 302.34
578185.2 4179281 302.34
578186.7 4179281 302.34
578185.1 4179282 302.34
578185.2 4179276 302.35
578185.4 4179276 302.35
578185.6 4179276 302.35
578186.1 4179276 302.36
578187.1 4179278 302.35
578187.2 4179278 302.36
578182.9 4179278 302.35
578187.6 4179278 302.36
578181.8 4179279 302.35
578182.9 4179279 302.35
578181.6 4179279 302.35
578182.9 4179279 302.35
578187.4 4179279 302.36
578181.6 4179279 302.35
578181.8 4179279 302.36
578187.2 4179280 302.36
578183.2 4179280 302.36
578183.1 4179280 302.36
578183.2 4179281 302.36
578183.6 4179280 302.35
578184.6 4179281 302.36
578184.7 4179281 302.35
578185.4 4179281 302.36
578186.3 4179281 302.35
578186.5 4179281 302.35
578187.4 4179282 302.36
578183.4 4179277 302.37
578183.6 4179277 302.37
578186.7 4179277 302.37
578183.1 4179278 302.37
578186.7 4179280 302.37
578184 4179281 302.37
578186.9 4179280 302.38
578184.2 4179281 302.38
578184.4 4179281 302.38
578186.1 4179281 302.38
578187.6 4179278 302.39
578183.1 4179279 302.39
578187.1 4179280 302.39
578185.8 4179281 302.39
578186 4179281 302.39
578186.5 4179281 302.39
578184.4 4179281 302.39
578184.6 4179281 302.39
578187.4 4179281 302.39
578186.3 4179277 302.4
578186.9 4179278 302.4
578186.5 4179280 302.4
578184.6 4179276 302.41
578186.5 4179277 302.41
578183.2 4179278 302.41
578183.1 4179278 302.41
578186.7 4179280 302.41
578184 4179277 302.42
578187.1 4179278 302.42
578187.2 4179279 302.42
578184.7 4179276 302.43
578186 4179276 302.43
578183.2 4179278 302.43
578183.1 4179278 302.43
578187.4 4179278 302.43
578183.1 4179279 302.43
578183.4 4179281 302.43
578183.6 4179280 302.43
578183.8 4179280 302.43
578186.7 4179277 302.44
578187.2 4179278 302.44
578183.4 4179280 302.44
578187.8 4179281 302.44
578185.8 4179276 302.45
578183.1 4179280 302.45
578183.4 4179280 302.45
578186.3 4179280 302.45
578185.2 4179276 302.46
578183.1 4179279 302.46
578183.2 4179280 302.46
578185.1 4179280 302.46
578185.2 4179280 302.46
578185.4 4179276 302.47
578185.6 4179276 302.47
578186.3 4179277 302.47
578186.9 4179278 302.47
578187.1 4179280 302.47
578186.9 4179280 302.47
578184.9 4179280 302.47
578185.4 4179280 302.47
578185.6 4179281 302.47
578183.4 4179277 302.48
578183.8 4179277 302.48
578183.2 4179278 302.48
578183.2 4179280 302.48
578184 4179280 302.48
578184.7 4179280 302.48
578186.5 4179277 302.49
578187.1 4179278 302.49
578187.4 4179279 302.49
578185.6 4179280 302.49
578186.1 4179280 302.49
578183.6 4179277 302.5
578186.3 4179277 302.5
578184.2 4179280 302.5
578185.8 4179280 302.5
578186 4179280 302.5
578186.5 4179280 302.5
578184.4 4179277 302.52
578186.7 4179278 302.51
578183.2 4179278 302.52
578183.1 4179278 302.52
578187.2 4179279 302.52
578187.2 4179279 302.51
578183.2 4179279 302.52
578183.4 4179280 302.51
578183.6 4179280 302.51
578183.8 4179280 302.52
578184.4 4179280 302.51
578186.9 4179278 302.53
578186.7 4179281 302.53
578184.6 4179277 302.55
578184.2 4179277 302.55
578187.1 4179278 302.55
578187.1 4179280 302.54
578185.8 4179277 302.56
578186.5 4179277 302.56
578183.4 4179278 302.56
578186.9 4179280 302.56
578184.7 4179277 302.57
578185.6 4179277 302.58
578186.1 4179277 302.58
578186.7 4179278 302.58
578183.2 4179278 302.575
578183.2 4179279 302.58
578183.2 4179279 302.57
578183.4 4179280 302.57
578186.3 4179280 302.57
578183.1 4179279 302.59
578183.6 4179280 302.59
578184 4179280 302.59
578183.6 4179277 302.61
578183.8 4179277 302.61
578186.9 4179278 302.6
578187.1 4179278 302.6
578187.1 4179279 302.6
578184.6 4179280 302.6
578186.1 4179280 302.61
578186.5 4179278 302.62
578186.7 4179280 302.62
578183.8 4179280 302.62
578185.1 4179280 302.62
578185.4 4179280 302.62
578186 4179277 302.63
578183.4 4179278 302.63
578183.4 4179280 302.63
578184.9 4179280 302.63
578185.6 4179280 302.63
578186 4179280 302.63
578187.1 4179278 302.64
578184.2 4179280 302.64
578184.7 4179280 302.64
578185.8 4179280 302.64
578186.7 4179278 302.65
578187.1 4179279 302.65
578186.9 4179280 302.65
578184.4 4179280 302.65
578184.6 4179280 302.65
578184.4 4179277 302.66
578186.1 4179278 302.66
578186.3 4179278 302.66
578187.1 4179279 302.66
578183.6 4179280 302.66
578186.3 4179280 302.66
578183.4 4179278 302.67
578186.9 4179278 302.67
578187.1 4179279 302.67
578183.4 4179279 302.67
578184.6 4179277 302.69
578185.6 4179277 302.69
578186.5 4179278 302.69
578183.2 4179279 302.69
578184.7 4179277 302.7
578185.4 4179277 302.7
578183.6 4179278 302.7
578183.4 4179279 302.7
578185.4 4179280 302.7
578186.7 4179278 302.71
578183.2 4179278 302.71
578184.2 4179280 302.71
578184 4179280 302.71
578185.2 4179280 302.71
578183.8 4179277 302.72
578183.4 4179278 302.72
578183.4 4179279 302.72
578183.8 4179280 302.72
578183.4 4179278 302.73
578186.9 4179278 302.73
578183.4 4179279 302.73
578186.9 4179280 302.73
578183.6 4179280 302.73
578186.5 4179280 302.74
578186.1 4179280 302.75
578185.8 4179277 302.76
578183.6 4179278 302.76
578186.3 4179280 302.76
578184.2 4179280 302.77
578186.7 4179278 302.78
578186.9 4179278 302.78
578183.6 4179280 302.78
578186 4179280 302.78
578184.4 4179277 302.8
578185.6 4179277 302.79
578186.3 4179278 302.79
578186.9 4179279 302.79
578183.8 4179280 302.8
578184.9 4179280 302.8
578185.1 4179280 302.79
578185.2 4179280 302.79
578185.6 4179280 302.79
578185.8 4179280 302.79
578184 4179277 302.81
578183.8 4179278 302.81
578183.6 4179278 302.81
578186.9 4179279 302.81
578184.4 4179280 302.81
578184.7 4179280 302.81
578184.6 4179277 302.83
578185.4 4179277 302.82
578186.9 4179279 302.83
578183.6 4179279 302.82
578186.9 4179279 302.82
578184 4179280 302.82
578186.3 4179280 302.83
578184.6 4179280 302.82
578184.7 4179277 302.84
578184.9 4179277 302.84
578186.1 4179277 302.84
578184 4179278 302.84
578183.6 4179278 302.84
578185.2 4179277 302.86
578185.8 4179277 302.85
578183.6 4179278 302.86
578186.7 4179278 302.85
578183.6 4179279 302.85
578184.2 4179280 302.86
578183.6 4179279 302.87
578186 4179278 302.88
578186.1 4179278 302.88
578183.6 4179278 302.88
578183.6 4179279 302.88
578183.8 4179280 302.88
578185.6 4179277 302.89
578183.8 4179278 302.89
578186.5 4179278 302.9
578186.7 4179280 302.9
578186.1 4179280 302.9
578184 4179278 302.91
578186.7 4179278 302.91
578184.9 4179277 302.92
578184 4179280 302.92
578185.4 4179277 302.93
578183.8 4179280 302.93
578185.8 4179278 302.94
578183.8 4179278 302.94
578184 4179279 302.94
578186 4179280 302.94
578186.7 4179279 302.95
578184.2 4179278 302.96
578186 4179278 302.96
578186.3 4179280 302.96
578185.4 4179280 302.96
578185.6 4179280 302.96
578185.8 4179280 302.96
578184.7 4179277 302.97
578184.9 4179277 302.97
578185.1 4179280 302.97
578185.2 4179280 302.97
578183.8 4179278 302.98
578183.8 4179279 302.98
578184.6 4179280 302.98
578184.7 4179280 302.98
578184.9 4179280 302.98
578185.6 4179278 302.99
578183.8 4179278 303
578183.8 4179279 303
578183.8 4179278 303.02
578186.1 4179278 303.02
578183.8 4179279 303.02
578184 4179280 303.01
578184.4 4179280 303.01
578185.4 4179278 303.03
578185.8 4179278 303.03
578183.8 4179278 303.03
578183.8 4179279 303.03
578184.4 4179278 303.04
578186.5 4179280 303.05
578186.1 4179280 303.04
578184.6 4179278 303.07
578184 4179280 303.07
578184.4 4179280 303.08
578184.7 4179278 303.09
578184.9 4179278 303.09
578185.6 4179278 303.09
578184 4179278 303.09
578186.5 4179279 303.09
578186 4179280 303.09
578184.2 4179278 303.1
578186.5 4179279 303.1
578184.2 4179280 303.11
578185.8 4179280 303.11
578185.8 4179278 303.12
578184 4179278 303.12
578186.1 4179278 303.12
578184 4179279 303.12
578184.6 4179280 303.12
578184.4 4179278 303.13
578184 4179278 303.13
578185.6 4179280 303.13
578185.4 4179278 303.14
578184.2 4179278 303.14
578186.1 4179279 303.14
578184.7 4179280 303.14
578185.2 4179280 303.14
578185.4 4179280 303.14
578184 4179279 303.15
578184.9 4179280 303.15
578185.1 4179280 303.15
578184 4179278 303.16
578186.3 4179278 303.16
578186.5 4179280 303.16
578184.6 4179278 303.17
578184 4179279 303.17
578184.9 4179278 303.18
578184.2 4179278 303.19
578185.6 4179278 303.19
578184.4 4179280 303.19
578185.4 4179280 303.19
578184.7 4179278 303.2
578184.4 4179278 303.21
578185.8 4179278 303.21
578186 4179278 303.21
578186 4179280 303.22
578186.3 4179279 303.23
578184.2 4179278 303.24
578184.6 4179280 303.24
578184.4 4179278 303.27
578184.6 4179278 303.26
578184.2 4179279 303.27
578185.8 4179280 303.26
578185.6 4179278 303.28
578184.2 4179278 303.28
578184.7 4179280 303.28
578185.6 4179280 303.28
578184.7 4179278 303.29
578184.9 4179278 303.3
578184.2 4179279 303.29
578185.1 4179280 303.3
578184.9 4179280 303.29
578185.1 4179280 303.3
578185.2 4179280 303.3
578184.6 4179278 303.33
578184.4 4179278 303.32
578186.1 4179279 303.32
578184.2 4179279 303.33
578186 4179280 303.33
578186.1 4179279 303.33
578184.4 4179279 303.34
578184.6 4179280 303.34
578184.4 4179278 303.36
578186.5 4179279 303.36
578184.7 4179278 303.37
578185.6 4179278 303.37
578186 4179278 303.37
578185.8 4179280 303.37
578185.8 4179278 303.38
578184.4 4179279 303.38
578184.9 4179278 303.39
578184.4 4179278 303.39
578184.6 4179278 303.39
578184.7 4179280 303.39
578184.4 4179279 303.4
578184.4 4179279 303.4
578185.6 4179280 303.4
578186 4179279 303.4
578184.6 4179279 303.41
578185.4 4179278 303.42
578186 4179279 303.42
578184.4 4179280 303.42
578184.9 4179280 303.42
578185.4 4179280 303.42
578185.2 4179280 303.43
578184.6 4179278 303.44
578184.7 4179278 303.44
578185.6 4179278 303.45
578185.8 4179278 303.45
578186 4179279 303.45
578184.6 4179279 303.46
578185.8 4179279 303.46
578184.6 4179278 303.47
578184.9 4179278 303.47
578184.7 4179279 303.47
578184.6 4179279 303.48
578185.1 4179279 303.48
578184.6 4179279 303.49
578185.6 4179279 303.49
578184.7 4179278 303.5
578185.4 4179278 303.5
578185.8 4179279 303.5
578185.8 4179279 303.5
578185.6 4179278 303.51
578185.8 4179279 303.52
578184.7 4179279 303.52
578184.9 4179279 303.51
578185.1 4179279 303.52
578184.7 4179278 303.53
578184.9 4179278 303.53
578184.7 4179279 303.55
578184.7 4179279 303.55
578185.6 4179279 303.55
578185.4 4179278 303.56
578185.6 4179279 303.56
578184.9 4179279 303.56
578184.9 4179278 303.57
578185.6 4179279 303.57
578185.1 4179278 303.59
578184.9 4179279 303.59
578184.9 4179279 303.59
578185.1 4179279 303.59
578185.2 4179278 303.61
578185.4 4179279 303.6
578185.4 4179279 303.6
578185.1 4179278 303.62
578185.1 4179279 303.62
578185.2 4179279 303.62
578185.2 4179279 303.62
