# .PCD v.7 - Point Cloud Data file format
VERSION .7
FIELDS x y z
SIZE 4 4 4
TYPE F F F
COUNT 1 1 1
WIDTH 123
HEIGHT 1
VIEWPOINT 0 0 0 1 0 0 0
POINTS 123
DATA ascii
578191.75 4179287.5 297.179992676
578192.0625 4179287.5 296.839996338
578192.4375 4179287 296.809997559
578192.625 4179286.5 297.769989014
578192.625 4179287 296.980010986
578192.625 4179287 296.920013428
578192.8125 4179286.5 297.739990234
578193 4179287.25 297.029998779
578193 4179287.5 296.869995117
578193 4179287.5 296.809997559
578193.1875 4179287.25 297.100006104
578193.1875 4179287.5 297
578193.1875 4179287.5 296.890014648
578193.1875 4179287.75 296.769989014
578193.375 4179286.5 296.980010986
578193.375 4179286.75 297.100006104
578193.375 4179287 297.190002441
578193.375 4179287.25 297.149993896
578193.375 4179287.5 297.079986572
578193.375 4179287.5 296.980010986
578193.375 4179287.75 296.859985352
578193.375 4179288 296.75
578193.5 4179287 297.410003662
578193.5 4179287 297.179992676
578193.5 4179287.25 297.179992676
578193.5 4179287.5 297.140014648
578193.5 4179287.5 297.059997559
578193.5 4179287.75 296.959991455
578193.5 4179288 296.839996338
578193.5 4179288.25 296.730010986
578193.6875 4179287.25 297.179992676
578193.6875 4179287.5 297.089996338
578193.6875 4179287.5 297.130004883
578193.6875 4179287.75 297.049987793
578193.6875 4179288 296.850006104
578193.6875 4179288.25 296.829986572
578193.6875 4179288.25 296.720001221
578193.875 4179287 297.799987793
578193.875 4179287.5 297.179992676
578193.875 4179287.5 297.220001221
578193.875 4179287.75 297.119995117
578193.875 4179288 297.040008545
578193.875 4179288.5 296.709991455
578194.0625 4179287.5 297.140014648
578194.0625 4179287.5 297.179992676
578194.0625 4179288 296.820007324
578194.0625 4179288.25 297.029998779
578194.0625 4179288.5 296.820007324
578194.0625 4179288.75 296.790008545
578194.25 4179287.5 297.059997559
578194.25 4179287.5 297.140014648
578194.25 4179287.75 297.170013428
578194.25 4179288.25 297.100006104
578194.25 4179288.25 297.019989014
578194.25 4179288.5 296.929992676
578194.25 4179288.75 296.829986572
578194.25 4179288.75 296.739990234
578194.4375 4179287.5 296.940002441
578194.4375 4179287.5 297.059997559
578194.4375 4179287.75 297.140014648
578194.4375 4179288 297.160003662
578194.4375 4179288.25 297.149993896
578194.4375 4179288.25 297.100006104
578194.4375 4179288.5 297.019989014
578194.4375 4179288.75 296.940002441
578194.4375 4179288.75 296.850006104
578194.4375 4179289 296.769989014
578194.4375 4179289.25 296.700012207
578194.625 4179287.75 297.329986572
578194.625 4179288 297.130004883
578194.625 4179288.25 297.149993896
578194.625 4179288.25 297.140014648
578194.625 4179288.5 297.100006104
578194.625 4179288.75 297.040008545
578194.625 4179288.75 296.959991455
578194.625 4179289 296.880004883
578194.625 4179289.25 296.809997559
578194.625 4179289.5 296.75
578194.625 4179289.5 296.690002441
578194.8125 4179288 297.609985352
578194.8125 4179288.25 297.119995117
578194.8125 4179288.25 296.899993896
578194.8125 4179288.75 297.119995117
578194.8125 4179288.75 297.059997559
578194.8125 4179289 297.019989014
578194.8125 4179289.25 296.920013428
578194.8125 4179289.5 296.769989014
578194.8125 4179289.75 296.709991455
578194.9375 4179288.25 297.040008545
578194.9375 4179288.25 297.119995117
578194.9375 4179288.5 297.170013428
578194.9375 4179288.75 297.160003662
578194.9375 4179289 296.700012207
578194.9375 4179289.75 296.760009766
578194.9375 4179290 296.670013428
578195.125 4179288.25 296.929992676
578195.125 4179288.25 297.049987793
578195.125 4179288.5 297.130004883
578195.125 4179288.75 297.179992676
578195.125 4179289.75 296.799987793
578195.125 4179290 296.690002441
578195.125 4179290.75 296.829986572
578195.3125 4179288.25 296.950012207
578195.3125 4179288.75 297.179992676
578195.3125 4179289 297.170013428
578195.3125 4179289.25 297.119995117
578195.3125 4179289.75 296.820007324
578195.3125 4179290 296.690002441
578195.5 4179288.75 297.549987793
578195.5 4179289 297.149993896
578195.5 4179289.25 297.109985352
578195.5 4179289.5 297.040008545
578195.5 4179289.5 296.929992676
578195.6875 4179289 297.089996338
578195.6875 4179289.25 297.260009766
578195.6875 4179289.5 297
578195.6875 4179289.75 297.209991455
578195.875 4179288.75 296.839996338
578195.875 4179289 297.329986572
578195.875 4179289.5 296.910003662
578195.875 4179289.5 297.070007324
578196.0625 4179289.5 296.799987793
578196.25 4179289.5 296.649993896
