# .PCD v.7 - Point Cloud Data file format
VERSION .7
FIELDS x y z
SIZE 4 4 4
TYPE F F F
COUNT 1 1 1
WIDTH 105
HEIGHT 1
VIEWPOINT 0 0 0 1 0 0 0
POINTS 105
DATA ascii
574722.1875 4177118 317.579986572
574722.25 4177118 318.279998779
574722.3125 4177118.25 317.690002441
574723.5625 4177118.25 318.380004883
574721.125 4177118.5 315.730010986
574721.25 4177118.75 316.260009766
574723.375 4177118.5 318.739990234
574723.4375 4177119 318.519989014
574723.625 4177118.5 317.739990234
574724.6875 4177119 318.410003662
574721.125 4177119.25 316.130004883
574721.3125 4177119.25 315.850006104
574722.5 4177119.5 317.290008545
574723.5625 4177119 317.339996338
574723.625 4177119.5 316.510009766
574723.6875 4177119 317.980010986
574724.8125 4177119.25 317.829986572
574724.875 4177119 318.220001221
574725 4177119.25 317.170013428
574721.3125 4177119.75 316.299987793
574721.375 4177120.25 315.959991455
574722.625 4177120 316.029998779
574723.6875 4177120 316.799987793
574723.6875 4177119.5 318.049987793
574723.8125 4177119.75 317.119995117
574723.875 4177120.25 316.700012207
574724.75 4177120.25 318.880004883
574725 4177120 318.390014648
574723.875 4177120.75 317.019989014
574725.0625 4177120.5 315.820007324
574725.0625 4177121.25 316.760009766
574725.25 4177120.75 315.940002441
574722.75 4177121.5 316.410003662
574723.875 4177121.5 318.179992676
574724 4177121.5 316.75
574721.5625 4177122 315.929992676
574722.375 4177122.5 319.519989014
574723.75 4177122 317.980010986
574724 4177122.25 317.630004883
574725 4177122.25 318.369995117
574720 4177123 318.420013428
574721.3125 4177123 318.070007324
574721.5625 4177122.75 317.230010986
574722.5 4177122.75 318.890014648
574722.625 4177122.75 318.739990234
574725.125 4177122.5 317.760009766
574725.25 4177122.75 316.700012207
574725.25 4177122.75 317.739990234
574725.375 4177123 317.459991455
574720.125 4177123.5 317.75
574720.1875 4177123 318.290008545
574720.25 4177123.5 318.109985352
574722.5625 4177123.25 318.489990234
574722.6875 4177123.25 319.440002441
574723.625 4177123.5 320.970001221
574723.875 4177123.5 320.160003662
574725.3125 4177123.25 316.390014648
574720.1875 4177124 317.570007324
574720.3125 4177124 318.079986572
574721.375 4177123.75 318.369995117
574721.5 4177123.75 318.920013428
574721.5625 4177124 318.140014648
574722.625 4177124 320.630004883
574722.875 4177124.25 315.899993896
574723.0625 4177124.25 316.010009766
574723.75 4177123.75 320.089996338
574723.9375 4177123.75 320.130004883
574724 4177124.25 317.929992676
574724 4177124.25 319.75
574725.4375 4177124.25 315.720001221
574720.1875 4177124.75 318.299987793
574720.375 4177124.5 318.290008545
574721.375 4177124.5 319.359985352
574721.625 4177124.5 318.179992676
574722.5 4177124.25 320.369995117
574722.625 4177124.75 319.649993896
574722.6875 4177124.5 319.959991455
574722.75 4177124.75 319.609985352
574723.8125 4177124.25 320.179992676
574724.125 4177124.5 316.679992676
574724.25 4177124.5 317.079986572
574724.3125 4177124.75 316.670013428
574725.625 4177124.5 315.769989014
574720.5 4177125 316.910003662
574721.4375 4177125 318.970001221
574721.6875 4177125 318.130004883
574721.6875 4177125.5 318.079986572
574722.8125 4177125.25 317.950012207
574723 4177125.25 315.940002441
574723 4177125 317.049987793
574724.125 4177125.25 317.329986572
574724.375 4177125.25 316.75
574725.4375 4177125 316.399993896
574725.625 4177125 316.279998779
574721.5 4177125.5 318.559997559
574723 4177126 316.200012207
574723.125 4177126 316.820007324
574724.1875 4177125.75 317.010009766
574724.375 4177126 317.510009766
574723.1875 4177126.5 316.809997559
574723.25 4177126.5 315.910003662
574723.0625 4177126.75 316.570007324
574722.0625 4177127.5 316.510009766
574723.125 4177127.25 316.640014648
574723.25 4177127.25 316.809997559
