# .PCD v.7 - Point Cloud Data file format
VERSION .7
FIELDS x y z
SIZE 4 4 4
TYPE F F F
COUNT 1 1 1
WIDTH 149
HEIGHT 1
VIEWPOINT 0 0 0 1 0 0 0
POINTS 149
DATA ascii
574792.9375 4177118.25 320.730010986
574793.125 4177118.25 320.540008545
574801.1875 4177118.25 322.600006104
574801.3125 4177118.25 322.679992676
574793 4177118.75 320.359985352
574793.1875 4177118.75 320.230010986
574794.3125 4177118.5 321.429992676
574794.4375 4177118.5 321.220001221
574795.75 4177118.5 320.579986572
574795.875 4177118.75 319.910003662
574795.9375 4177118.75 321
574799.6875 4177118.5 323.739990234
574799.875 4177118.5 323.670013428
574799.875 4177119 323.859985352
574801.1875 4177119 322.869995117
574801.375 4177118.75 322.829986572
574801.375 4177119 321.079986572
574794.3125 4177119.25 322.179992676
574794.4375 4177119.25 322.040008545
574796 4177119 319.970001221
574796.125 4177119.25 319.029998779
574799.75 4177119 323.420013428
574799.875 4177119.25 322.200012207
574799.9375 4177119.25 323.579986572
574800.0625 4177119.25 320.489990234
574800.0625 4177119.5 322.320007324
574800.1875 4177119.5 320.970001221
574801.5625 4177119 320.910003662
574802.75 4177119.25 321.450012207
574794.375 4177119.75 322.049987793
574798.625 4177120 323.559997559
574800.125 4177119.75 319.730010986
574800.3125 4177119.75 320.010009766
574801.25 4177120.25 323.359985352
574801.5625 4177119.75 321.649993896
574802.8125 4177119.75 321.380004883
574802.9375 4177119.75 321.529998779
574803 4177120 321.5
574798.5 4177120.75 323.609985352
574798.6875 4177120.25 322.929992676
574801.5625 4177120.5 322.559997559
574802.875 4177120.25 321.309997559
574794.5 4177120.75 322.940002441
574795.8125 4177121.25 322.660003662
574796 4177121 322.559997559
574798.5625 4177121.25 323.320007324
574800 4177121.25 323.380004883
574800.125 4177121.25 323.679992676
574800.1875 4177121 320.720001221
574800.25 4177121.25 321.839996338
574801.3125 4177120.75 323.579986572
574801.375 4177121.25 323.600006104
574801.5625 4177121 322.970001221
574801.75 4177121.25 319.220001221
574801.75 4177120.75 320.700012207
574802.875 4177121 322.070007324
574803.0625 4177121 321.399993896
574796.0625 4177121.5 322.119995117
574797.1875 4177121.5 323.299987793
574797.3125 4177121.5 324.149993896
574797.375 4177121.75 323.619995117
574797.5 4177122 322.140014648
574798.625 4177121.75 323.549987793
574798.75 4177121.25 323.570007324
574798.8125 4177121.75 323.450012207
574798.8125 4177121.5 320.980010986
574798.9375 4177122 320.100006104
574799 4177121.5 320.660003662
574801.75 4177121.75 319.200012207
574801.875 4177121.5 319.589996338
574801.9375 4177121.75 319.369995117
574802.9375 4177121.5 321.299987793
574796.0625 4177122 322.920013428
574797.25 4177122 323.399993896
574800.125 4177122 322.380004883
574800.3125 4177122.25 322.459991455
574801.875 4177122.25 318.679992676
574802 4177122.25 319.119995117
574803.25 4177122.25 318.820007324
574803.5 4177122.5 318.309997559
574797.3125 4177122.75 323.459991455
574797.5 4177122.75 323.410003662
574801.8125 4177123 320.059997559
574802 4177123 320.059997559
574803.25 4177123 319.350006104
574803.5 4177123 319.010009766
574797.375 4177123.25 323.380004883
574797.5 4177123.25 323.660003662
574802.0625 4177123.25 319.869995117
574802.25 4177123.75 317.630004883
574803.3125 4177123.5 319.329986572
574803.5625 4177123.25 317.859985352
574803.6875 4177123.5 317.260009766
574798.875 4177124.25 322.739990234
574800.25 4177123.75 323.049987793
574800.4375 4177123.75 322.809997559
574800.5 4177124.25 322.630004883
574801.8125 4177124 321.230010986
574802 4177124 320.779998779
574799 4177124.75 322.149993896
574799.0625 4177124.25 322.730010986
574799.1875 4177124.75 322.149993896
574800.3125 4177124.25 322.779998779
574800.375 4177124.75 322.399993896
574800.5 4177124.75 322.899993896
574801.8125 4177124.5 321.529998779
574799 4177125.25 322.299987793
574799.1875 4177125.25 322.100006104
574800.4375 4177125.25 322.390014648
574800.5625 4177125 322.179992676
574801.875 4177125.25 321.920013428
574802 4177125.5 322.149993896
574803.125 4177125.25 323.049987793
574799.25 4177125.75 322.679992676
574800.5625 4177125.75 323.279998779
574801.875 4177126 322.350006104
574802.0625 4177126 322.359985352
574803.1875 4177125.5 322.709991455
574803.375 4177125.5 322.989990234
574803.4375 4177126 322.429992676
574799 4177126 323.200012207
574799.0625 4177126.5 323.100006104
574799.25 4177126.25 323.029998779
574800.375 4177126.25 323.589996338
574800.5625 4177126.5 323.980010986
574801.9375 4177126.5 321.970001221
574802.125 4177126.25 322.179992676
574803.25 4177126 322.390014648
574799.125 4177127 322.640014648
574799.3125 4177126.75 322.670013428
574799.375 4177127 322.100006104
574800.4375 4177126.75 323.609985352
574800.625 4177126.75 324.049987793
574802 4177127 322.269989014
574799.1875 4177127.5 322.540008545
574799.4375 4177127.5 322.279998779
574800.5 4177127.25 323.420013428
574800.625 4177127.25 323.940002441
574800.6875 4177127.75 323.619995117
574799.25 4177128 322.209991455
574802.125 4177128 321.820007324
574802.375 4177128 321.170013428
574802.125 4177128.75 322.660003662
574802.375 4177128.5 321.459991455
574802.4375 4177129 321.190002441
574800.8125 4177129.25 322.100006104
574801 4177129.25 322.130004883
574802.25 4177129 321.619995117
574802.5 4177129.5 321.359985352
