# .PCD v.7 - Point Cloud Data file format
VERSION .7
FIELDS x y z
SIZE 4 4 4
TYPE F F F
COUNT 1 1 1
WIDTH 1380
HEIGHT 1
VIEWPOINT 0 0 0 1 0 0 0
POINTS 1380
DATA ascii
574656.875 4177204.75 317.850006104
574657.75 4177204.75 317.820007324
574658 4177204.25 317.690002441
574658.9375 4177204.25 317.559997559
574659.25 4177204.25 317.670013428
574660.1875 4177204.25 317.339996338
574660.5 4177204.75 317.519989014
574661.375 4177204.5 317.420013428
574661.6875 4177204.75 317.410003662
574626.5625 4177205.25 317.739990234
574626.9375 4177205.25 317.679992676
574634.3125 4177205 318.600006104
574635.3125 4177205 318.239990234
574635.625 4177204.75 318.070007324
574636.625 4177205.25 318.299987793
574636.875 4177204.75 318.290008545
574637.875 4177205.25 318.549987793
574638.1875 4177205.25 318.519989014
574639.125 4177205.25 318.720001221
574639.4375 4177205.25 318.859985352
574640.375 4177205 318.790008545
574640.6875 4177205.25 319.119995117
574642 4177205.25 318.910003662
574642.9375 4177205 318.809997559
574643.25 4177205 318.660003662
574644.1875 4177205 318.880004883
574644.5 4177205.5 318.839996338
574645.4375 4177205.25 318.829986572
574645.8125 4177205.25 318.730010986
574646.6875 4177205.25 318.890014648
574647.0625 4177205.25 318.769989014
574648 4177205.25 318.640014648
574648.3125 4177205 318.700012207
574649.25 4177205.25 318.299987793
574649.5 4177205 318.589996338
574650.4375 4177204.75 318.489990234
574650.75 4177204.75 318.329986572
574651.6875 4177205 318.170013428
574652.0625 4177205.25 318.299987793
574652.9375 4177205 318.149993896
574653.25 4177205.25 318.130004883
574654.1875 4177205 318.079986572
574654.5 4177205.25 317.970001221
574655.375 4177205.25 318.019989014
574655.6875 4177205 317.820007324
574656.5625 4177205.25 318.079986572
574656.875 4177205.25 318
574657.8125 4177205.25 317.809997559
574658.0625 4177204.75 317.890014648
574658.125 4177205.5 317.820007324
574659 4177205 317.820007324
574659.3125 4177204.75 317.779998779
574660.1875 4177205 317.660003662
574660.5625 4177205.25 317.720001221
574661.375 4177205 317.619995117
574661.75 4177205.25 317.320007324
574662.625 4177205.25 317.579986572
574626.6875 4177205.75 317.149993896
574635.375 4177205.5 318.359985352
574635.625 4177205.5 318.540008545
574636.625 4177205.75 318.559997559
574636.9375 4177205.5 318.369995117
574637.875 4177205.75 318.679992676
574638.25 4177206 318.679992676
574639.1875 4177206 318.929992676
574639.5 4177206 318.850006104
574640.375 4177205.5 318.910003662
574640.75 4177205.75 318.950012207
574641.6875 4177205.5 318.950012207
574642 4177205.75 318.989990234
574642.9375 4177205.5 318.929992676
574643.3125 4177205.75 319.029998779
574644.25 4177205.5 318.839996338
574644.5625 4177206 318.970001221
574645.5 4177205.75 318.859985352
574645.8125 4177205.75 318.929992676
574646.75 4177205.75 318.839996338
574647.0625 4177205.75 318.959991455
574648 4177205.75 318.709991455
574648.3125 4177205.75 318.820007324
574649.25 4177206 318.570007324
574649.5625 4177205.5 318.470001221
574650.5 4177205.5 318.630004883
574650.8125 4177205.5 318.359985352
574651.75 4177205.5 318.230010986
574652.0625 4177206 318.369995117
574653 4177205.5 318.079986572
574653.25 4177205.75 318.420013428
574654.1875 4177205.5 318.209991455
574654.5 4177205.75 318.269989014
574655.4375 4177205.75 317.929992676
574655.75 4177205.5 317.850006104
574656.625 4177205.75 318.059997559
574656.9375 4177206 318.059997559
574657.875 4177205.75 317.890014648
574658.125 4177206 318.079986572
574659 4177205.5 317.720001221
574659.375 4177205.5 317.619995117
574659.375 4177206 317.709991455
574660.25 4177205.5 317.850006104
574660.625 4177205.75 317.570007324
574661.5 4177205.5 317.359985352
574661.75 4177205.75 317.529998779
574662.6875 4177205.75 317.429992676
574663 4177205.75 317.269989014
574625.5 4177206.25 317.380004883
574635.375 4177206.25 318.390014648
574635.6875 4177206 318.799987793
574636.6875 4177206.5 318.609985352
574637 4177206 318.529998779
574637.9375 4177206.5 318.690002441
574638.25 4177206.5 318.700012207
574639.1875 4177206.5 319.019989014
574639.5625 4177206.5 318.730010986
574640.4375 4177206 318.850006104
574640.8125 4177206.5 319.010009766
574641.6875 4177206 319.049987793
574642.0625 4177206.5 319.049987793
574643 4177206.25 319.040008545
574643.3125 4177206.25 319.049987793
574644.25 4177206.25 319.100006104
574645.5625 4177206.25 318.989990234
574645.875 4177206.5 318.820007324
574646.8125 4177206.25 318.950012207
574647.125 4177206.25 318.959991455
574648.0625 4177206.5 318.880004883
574648.375 4177206.25 318.910003662
574649.3125 4177206.5 318.690002441
574649.625 4177206 318.609985352
574650.5 4177206 318.540008545
574650.5625 4177206.5 318.579986572
574650.875 4177206 318.5
574651.75 4177206 318.420013428
574652.125 4177206.5 318.549987793
574653 4177206 318.440002441
574653.3125 4177206.25 318.320007324
574654.25 4177206 318.179992676
574654.5625 4177206.25 318.320007324
574655.4375 4177206.25 318.089996338
574655.75 4177206.25 318.070007324
574656.6875 4177206.25 318.010009766
574657 4177206.5 318.119995117
574657.875 4177206.5 317.950012207
574658.1875 4177206.5 317.899993896
574659.0625 4177206 317.75
574659.4375 4177206.5 317.690002441
574660.25 4177206.25 317.679992676
574660.625 4177206.5 317.470001221
574661.5 4177206.25 317.570007324
574661.8125 4177206.25 317.420013428
574662.6875 4177206.5 317.420013428
574663 4177206.25 317.25
574625.4375 4177207 318.209991455
574625.75 4177206.5 318.170013428
574625.875 4177207 317.079986572
574634.1875 4177206.75 318.130004883
574634.5 4177206.75 318.390014648
574635.4375 4177206.75 318.660003662
574635.75 4177206.75 318.709991455
574636.6875 4177207 318.829986572
574637 4177206.5 318.649993896
574638 4177207 318.700012207
574638.3125 4177207 318.790008545
574639.5625 4177207 319.160003662
574640.5 4177206.75 319.190002441
574641.6875 4177206.75 320.140014648
574642.9375 4177207 320.170013428
574643.3125 4177207 320.380004883
574644.1875 4177207 320.619995117
574644.5 4177206.75 320.179992676
574645.5 4177207.25 320.480010986
574647.1875 4177206.75 319.010009766
574648.0625 4177207 319.079986572
574648.4375 4177206.75 318.769989014
574649.3125 4177207 319.040008545
574649.625 4177206.75 318.739990234
574650.875 4177206.5 318.579986572
574651.8125 4177206.75 318.470001221
574652.1875 4177207 318.510009766
574653.0625 4177206.75 318.339996338
574653.375 4177207 318.190002441
574654.25 4177206.75 318.269989014
574654.5625 4177207 318.440002441
574655.5 4177207 318.309997559
574655.8125 4177206.75 318.200012207
574656.6875 4177207 318.070007324
574657 4177207 318.269989014
574657.9375 4177207 318.040008545
574658.25 4177207 317.820007324
574659.125 4177206.75 317.799987793
574659.4375 4177207.25 318.019989014
574660.3125 4177206.75 317.529998779
574660.6875 4177207 317.730010986
574661.5625 4177206.75 317.600006104
574661.875 4177207 317.559997559
574624.6875 4177207.75 317.179992676
574625.5625 4177207.5 317.350006104
574634.25 4177207.25 318.440002441
574634.5625 4177207.25 318.329986572
574635.5 4177207.5 318.660003662
574635.75 4177207.25 318.570007324
574636.75 4177207.5 318.839996338
574637.0625 4177207.25 318.649993896
574638 4177207.75 319.320007324
574639.1875 4177207.25 320.059997559
574640.4375 4177207.5 320.579986572
574640.75 4177207.25 320.410003662
574641.6875 4177207.5 320.529998779
574642 4177207.25 320.470001221
574643 4177207.5 320.549987793
574643.3125 4177207.75 320.570007324
574644.25 4177207.75 320.660003662
574644.5625 4177207.25 320.450012207
574645.5 4177207.75 320.440002441
574645.8125 4177207.25 320.660003662
574646.75 4177207.25 320.390014648
574647.125 4177207.75 320.489990234
574648.4375 4177207.5 318.890014648
574649.375 4177207.75 318.940002441
574649.6875 4177207.25 319.019989014
574650.5625 4177207.25 318.880004883
574650.9375 4177207.25 318.920013428
574651.8125 4177207.25 318.850006104
574652.25 4177207.5 318.549987793
574653.125 4177207.25 318.339996338
574653.4375 4177207.5 318.5
574654.3125 4177207.25 318.380004883
574654.625 4177207.5 318.220001221
574655.5625 4177207.5 318.369995117
574655.8125 4177207.25 318.309997559
574656.75 4177207.5 318.200012207
574657.0625 4177207.5 318.040008545
574658 4177207.5 318.029998779
574658.3125 4177207.75 318.040008545
574659.125 4177207.25 317.989990234
574659.5 4177207.75 317.790008545
574660.375 4177207.25 317.769989014
574660.75 4177207.5 317.660003662
574661.5625 4177207.5 317.839996338
574661.875 4177207.5 317.920013428
574624.375 4177208 316.940002441
574633 4177207.75 318.570007324
574633.3125 4177208 318.579986572
574634.25 4177208 318.480010986
574634.5625 4177208 318.75
574635.5 4177208 318.709991455
574635.8125 4177207.75 318.730010986
574635.875 4177208.25 318.850006104
574636.8125 4177208.25 318.910003662
574637.0625 4177207.75 318.880004883
574638.25 4177207.75 320.109985352
574639.1875 4177208 320.649993896
574639.5 4177208 320.630004883
574640.5 4177208 320.470001221
574640.75 4177207.75 320.589996338
574641.75 4177208 320.510009766
574642.0625 4177207.75 320.339996338
574643 4177208.25 320.670013428
574643.375 4177208.25 320.760009766
574644.3125 4177208.25 320.630004883
574644.5625 4177208 320.709991455
574645.5625 4177208.25 320.570007324
574645.8125 4177207.75 320.700012207
574646.75 4177207.75 320.600006104
574647.125 4177208.25 320.670013428
574648.0625 4177208 320.329986572
574648.375 4177208.25 320.420013428
574649.75 4177207.75 318.910003662
574650.625 4177207.75 319.100006104
574650.9375 4177207.75 318.980010986
574651.875 4177208 318.850006104
574652.25 4177208.25 318.589996338
574653.125 4177207.75 318.440002441
574653.4375 4177208 318.880004883
574654.375 4177207.75 318.660003662
574654.6875 4177208 318.459991455
574655.5625 4177208 318.260009766
574655.875 4177208 318.470001221
574656.75 4177208 318.309997559
574657.125 4177208.25 318.079986572
574658 4177208.25 318.160003662
574658.3125 4177208.25 318.100006104
574659.1875 4177207.75 318.119995117
574659.5625 4177208.25 317.890014648
574660.4375 4177208 317.869995117
574660.75 4177208.25 317.880004883
574661.625 4177208 317.850006104
574661.9375 4177208 318.119995117
574624.375 4177208.75 317.869995117
574624.6875 4177208.25 317.950012207
574624.75 4177208.75 317.25
574633 4177208.5 318.679992676
574633.375 4177208.5 318.459991455
574634.3125 4177208.5 318.720001221
574634.5625 4177208.5 318.970001221
574635.5625 4177208.5 319.029998779
574635.875 4177209 318.829986572
574637.0625 4177208.5 319.929992676
574637.9375 4177208.5 320.649993896
574638.3125 4177208.5 320.350006104
574639.25 4177208.5 320.589996338
574639.5625 4177208.5 320.559997559
574640.5 4177208.75 320.549987793
574640.8125 4177208.5 320.679992676
574641.75 4177208.5 320.660003662
574642.0625 4177208.5 320.739990234
574643.0625 4177208.75 320.640014648
574643.375 4177208.75 320.850006104
574644.3125 4177208.75 320.899993896
574644.625 4177208.5 320.690002441
574645.625 4177209 320.700012207
574645.875 4177208.5 320.739990234
574646.8125 4177208.25 320.5
574647.1875 4177208.75 320.540008545
574648.0625 4177208.5 320.529998779
574648.4375 4177208.75 320.390014648
574649.3125 4177208.5 320.390014648
574649.6875 4177208.75 320.480010986
574650.6875 4177208.25 318.899993896
574651 4177208.25 318.980010986
574651.9375 4177208.5 318.829986572
574652.3125 4177208.75 318.690002441
574653.1875 4177208.5 318.529998779
574653.5 4177208.75 318.600006104
574654.4375 4177208.25 318.470001221
574654.6875 4177208.75 318.799987793
574655.625 4177208.75 318.600006104
574655.9375 4177208.5 318.559997559
574656.8125 4177208.75 318.380004883
574657.125 4177208.75 318.399993896
574658.0625 4177208.75 318.070007324
574658.375 4177208.75 318.190002441
574659.25 4177208.5 318.339996338
574659.625 4177208.75 317.940002441
574660.4375 4177208.5 317.970001221
574660.8125 4177208.75 317.959991455
574661.6875 4177208.5 317.859985352
574624.5 4177209 317.130004883
574632.1875 4177209.25 318.619995117
574633.0625 4177209 318.760009766
574633.375 4177209.25 318.820007324
574634.3125 4177209.25 319.019989014
574634.625 4177209 319.079986572
574635.625 4177209.25 318.899993896
574636.75 4177209 320.489990234
574637.0625 4177209.25 320.359985352
574638 4177209 320.679992676
574638.3125 4177209 320.5
574639.25 4177209.25 320.720001221
574639.625 4177209 320.649993896
574640.5625 4177209.25 320.850006104
574640.875 4177209 320.75
574641.8125 4177209.25 320.670013428
574642.125 4177209 320.670013428
574643.125 4177209.25 320.720001221
574643.4375 4177209.5 320.850006104
574644.375 4177209.5 321.019989014
574644.6875 4177209.25 321
574645.625 4177209.5 320.769989014
574645.9375 4177209 320.880004883
574646.875 4177209 320.600006104
574647.25 4177209.5 320.519989014
574648.125 4177209 320.720001221
574648.5 4177209.25 320.589996338
574649.375 4177209 320.559997559
574649.6875 4177209.25 320.589996338
574650.625 4177209.25 320.390014648
574651.0625 4177209 319.140014648
574652 4177209 318.779998779
574652.3125 4177209.25 318.850006104
574653.25 4177209 318.529998779
574653.5 4177209.25 318.809997559
574654.4375 4177209 318.690002441
574654.75 4177209.25 318.589996338
574655.6875 4177209.25 318.549987793
574656 4177209 318.390014648
574656.875 4177209.25 318.549987793
574657.1875 4177209.25 318.440002441
574658.0625 4177209.5 318.350006104
574658.4375 4177209.25 318.320007324
574659.25 4177209 318.170013428
574659.625 4177209.5 318.25
574660.5 4177209 317.940002441
574660.8125 4177209.25 318.140014648
574623.625 4177210 316.989990234
574631.875 4177209.75 318.779998779
574632.25 4177210 318.619995117
574633.125 4177209.5 318.660003662
574633.4375 4177209.75 318.630004883
574634.375 4177209.75 319.049987793
574634.6875 4177209.5 319.019989014
574635.5625 4177210 320.279998779
574635.8125 4177209.75 320.290008545
574636.75 4177209.5 320.660003662
574637.125 4177209.75 320.660003662
574638.0625 4177209.75 320.700012207
574638.375 4177209.5 320.570007324
574639.3125 4177209.75 320.910003662
574639.625 4177209.5 320.760009766
574640.5625 4177209.75 320.940002441
574640.875 4177209.5 321.019989014
574641.875 4177209.75 320.839996338
574642.1875 4177209.5 320.790008545
574643.125 4177210 320.869995117
574643.5 4177210 321.040008545
574644.375 4177210 321.070007324
574644.6875 4177209.75 320.989990234
574645.6875 4177210 320.850006104
574645.9375 4177209.5 321
574646 4177210 320.739990234
574646.875 4177209.5 320.670013428
574647.25 4177210 320.859985352
574648.1875 4177209.75 320.799987793
574648.5 4177210 320.489990234
574649.4375 4177209.75 320.589996338
574649.75 4177209.75 320.670013428
574650.6875 4177209.75 320.450012207
574651 4177209.75 320.589996338
574652 4177209.75 319.239990234
574652.375 4177210 319.290008545
574653.25 4177209.5 318.809997559
574653.5625 4177209.75 318.859985352
574654.5 4177209.5 318.760009766
574654.8125 4177209.75 318.559997559
574655.75 4177210 318.480010986
574656 4177209.5 318.459991455
574656.875 4177209.75 318.630004883
574657.25 4177210 318.519989014
574658.125 4177210 318.480010986
574658.4375 4177210 318.470001221
574659.3125 4177209.5 318.279998779
574659.6875 4177210 318.420013428
574660.5 4177209.75 318.220001221
574623.6875 4177210.5 317.269989014
574631.0625 4177210.5 318.25
574631.9375 4177210.25 318.829986572
574632.25 4177210.5 318.850006104
574633.1875 4177210.25 318.709991455
574633.5 4177210.25 318.75
574634.4375 4177210.25 319
574634.75 4177210.25 319.109985352
574635.5625 4177210.5 320.5
574635.875 4177210.25 320.510009766
574636.8125 4177210.25 320.480010986
574637.1875 4177210.25 320.489990234
574638.0625 4177210.25 320.850006104
574638.375 4177210.25 320.859985352
574639.375 4177210.25 320.920013428
574639.6875 4177210.25 320.739990234
574640.625 4177210.5 320.760009766
574640.9375 4177210.25 321.119995117
574641.875 4177210.25 320.959991455
574642.1875 4177210.25 321.100006104
574643.1875 4177210.5 321.140014648
574643.5 4177210.5 321.140014648
574644.4375 4177210.5 320.880004883
574644.75 4177210.25 320.920013428
574646.9375 4177210 320.739990234
574647.3125 4177210.5 321.010009766
574648.1875 4177210.25 320.809997559
574648.5625 4177210.5 320.910003662
574649.5 4177210.25 320.450012207
574649.75 4177210.25 320.739990234
574650.75 4177210.25 320.440002441
574651.0625 4177210.25 320.399993896
574651.9375 4177210.5 320.559997559
574653.3125 4177210.25 318.940002441
574653.625 4177210.5 319.170013428
574654.5 4177210.25 318.820007324
574654.8125 4177210.25 318.880004883
574655.75 4177210.5 318.709991455
574656.0625 4177210.25 318.670013428
574656.9375 4177210.5 318.730010986
574657.25 4177210.5 318.540008545
574658.1875 4177210.5 318.640014648
574658.5 4177210.5 318.410003662
574659.375 4177210.25 318.329986572
574659.6875 4177210.5 318.459991455
574660.5625 4177210.25 318.130004883
574623.375 4177210.75 317.200012207
574623.6875 4177211.25 317.309997559
574630.75 4177211.25 318.5
574631.0625 4177211 318.970001221
574632 4177210.75 318.540008545
574632.3125 4177211 318.670013428
574633.1875 4177210.75 318.720001221
574633.5 4177210.75 318.950012207
574634.375 4177211 320.010009766
574634.6875 4177211 320.600006104
574635.625 4177211.25 320.410003662
574635.9375 4177211 320.640014648
574636.875 4177210.75 320.619995117
574637.1875 4177211 320.630004883
574638.125 4177210.75 320.869995117
574638.4375 4177210.75 320.899993896
574639.375 4177211 320.890014648
574639.75 4177210.75 320.950012207
574640.6875 4177211 320.950012207
574641 4177210.75 320.989990234
574641.9375 4177211 320.880004883
574642.25 4177210.75 321.119995117
574642.25 4177211.25 321.230010986
574643.1875 4177211.25 321.369995117
574643.5625 4177211.25 321.059997559
574644.5 4177211.25 320.820007324
574644.8125 4177210.75 320.929992676
574645.6875 4177210.75 321.149993896
574645.75 4177211.25 321.089996338
574646.0625 4177210.75 321
574646.125 4177211.25 320.890014648
574647 4177210.75 320.859985352
574647 4177211.25 320.839996338
574647.375 4177211 320.799987793
574648.25 4177210.75 320.859985352
574648.5625 4177211 321
574649.5 4177210.75 320.630004883
574649.8125 4177211 320.709991455
574650.75 4177211 320.609985352
574651.0625 4177210.75 320.519989014
574652 4177211 320.459991455
574652.3125 4177210.75 320.519989014
574653.25 4177211 320.529998779
574653.5625 4177211.25 320.059997559
574654.5625 4177210.75 319.029998779
574654.875 4177211 319.019989014
574655.75 4177211.25 319.100006104
574656.0625 4177210.75 318.670013428
574657 4177211 318.769989014
574657.3125 4177211 318.700012207
574658.25 4177211.25 318.609985352
574658.5625 4177211 318.309997559
574659.375 4177210.75 318.450012207
574659.75 4177211.25 318.540008545
574623.4375 4177211.25 317.230010986
574630.8125 4177211.75 318.470001221
574631.125 4177211.75 319.049987793
574632 4177211.25 318.630004883
574632.375 4177211.5 318.869995117
574633.25 4177211.25 318.829986572
574633.5625 4177211.5 318.989990234
574634.375 4177211.75 320.899993896
574634.6875 4177211.5 320.570007324
574635.6875 4177211.75 320.589996338
574635.9375 4177211.5 320.709991455
574636.875 4177211.5 320.970001221
574637.25 4177211.5 320.730010986
574638.125 4177211.5 321.089996338
574638.5 4177211.25 320.769989014
574638.5625 4177211.75 320.799987793
574639.4375 4177211.5 321.279998779
574639.75 4177211.25 321.059997559
574640.6875 4177211.5 321.200012207
574641 4177211.25 321.029998779
574641.0625 4177211.75 320.970001221
574642 4177211.5 321.130004883
574642.3125 4177211.75 321.279998779
574643.25 4177211.75 321.130004883
574643.625 4177211.75 321.119995117
574644.5 4177211.75 321.209991455
574644.875 4177211.25 320.920013428
574645.8125 4177211.75 321.239990234
574646.125 4177211.75 321.089996338
574647.375 4177211.75 320.850006104
574648.3125 4177211.5 320.940002441
574648.625 4177211.75 321.079986572
574649.5625 4177211.5 320.769989014
574649.875 4177211.5 320.570007324
574650.8125 4177211.5 320.679992676
574651.125 4177211.5 320.760009766
574652.0625 4177211.5 320.529998779
574652.3125 4177211.25 320.829986572
574653.25 4177211.5 320.440002441
574653.625 4177211.75 320.420013428
574654.5625 4177211.5 319.470001221
574654.9375 4177211.5 318.850006104
574655.8125 4177211.75 318.809997559
574656.125 4177211.25 318.769989014
574656.1875 4177211.75 318.730010986
574657 4177211.5 318.779998779
574657.375 4177211.75 318.619995117
574658.25 4177211.75 318.489990234
574658.5625 4177211.75 318.690002441
574659.4375 4177211.5 318.510009766
574623.4375 4177212 317.309997559
574629.9375 4177212.25 318.609985352
574630.875 4177212.25 318.579986572
574631.125 4177212.25 319.070007324
574632.0625 4177212 318.899993896
574632.375 4177212.25 318.779998779
574633.25 4177212 319.149993896
574633.5625 4177212.25 320.109985352
574634.4375 4177212.25 320.75
574634.75 4177212 320.429992676
574635.6875 4177212.25 320.829986572
574636 4177212 320.850006104
574636.9375 4177212 320.890014648
574637.3125 4177212 320.649993896
574638.1875 4177212 321.140014648
574639.4375 4177212.25 321.410003662
574639.8125 4177212 321.25
574640.75 4177212.25 321.299987793
574641.125 4177212.5 321.029998779
574642 4177212 321.179992676
574642.375 4177212.5 321.329986572
574643.3125 4177212.25 321.290008545
574643.6875 4177212.25 321.109985352
574644.5625 4177212.25 321.359985352
574644.875 4177212 321.119995117
574645.875 4177212.5 321.109985352
574646.1875 4177212.5 321.329986572
574647.0625 4177211.75 321.070007324
574647.125 4177212.5 321.049987793
574647.4375 4177212.25 321.220001221
574648.3125 4177212 321.070007324
574648.6875 4177212.25 320.929992676
574649.5625 4177212 321.010009766
574649.9375 4177212 320.75
574650.8125 4177212.25 320.799987793
574651.125 4177212 320.869995117
574652.0625 4177212.25 320.670013428
574652.375 4177212 320.739990234
574653.3125 4177212.25 320.450012207
574653.625 4177212.25 320.489990234
574654.5625 4177212.25 320.600006104
574654.8125 4177212.25 320.600006104
574657.0625 4177212.25 318.850006104
574657.4375 4177212.25 318.709991455
574658.3125 4177212.25 318.790008545
574658.625 4177212.25 318.950012207
574622.625 4177213 317.230010986
574629.6875 4177212.75 318.220001221
574630 4177213 318.609985352
574630.875 4177213 318.570007324
574631.25 4177212.75 318.820007324
574632.125 4177212.5 318.739990234
574632.4375 4177212.75 319.119995117
574633.25 4177212.75 320.309997559
574633.5625 4177212.75 320.559997559
574634.4375 4177213 320.950012207
574634.8125 4177212.75 320.529998779
574635.75 4177213 320.720001221
574636.0625 4177212.5 320.709991455
574637 4177212.5 320.890014648
574637.3125 4177212.75 320.899993896
574638.25 4177212.5 321.140014648
574638.5625 4177212.5 321.160003662
574638.625 4177213 321.230010986
574639.5 4177212.75 321.190002441
574639.8125 4177212.5 321.359985352
574639.875 4177213 321.299987793
574640.8125 4177212.75 321.149993896
574641.125 4177213 321.239990234
574642.0625 4177212.75 321.160003662
574642.375 4177213 321.540008545
574643.3125 4177213 321.549987793
574643.6875 4177212.75 321.220001221
574644.625 4177213 321.540008545
574644.9375 4177212.5 321.450012207
574645.875 4177213 321.359985352
574646.1875 4177213 321.390014648
574647.5 4177212.75 321.059997559
574648.375 4177212.5 321.149993896
574648.75 4177212.75 321.029998779
574649.625 4177212.5 320.809997559
574649.9375 4177212.75 320.899993896
574650.875 4177212.75 320.890014648
574651.1875 4177212.5 320.890014648
574652.125 4177212.75 320.690002441
574652.4375 4177212.5 320.850006104
574653.375 4177212.75 320.640014648
574653.6875 4177213 320.540008545
574654.5625 4177212.75 320.619995117
574654.875 4177212.75 320.429992676
574655.75 4177212.5 320.309997559
574656.1875 4177212.5 319.019989014
574657.125 4177212.75 319
574657.4375 4177212.75 318.760009766
574658.3125 4177213 318.959991455
574658.625 4177212.75 318.940002441
574622.6875 4177213.5 316.869995117
574629.6875 4177213.5 318.739990234
574630 4177213.5 318.760009766
574630.9375 4177213.5 318.839996338
574631.25 4177213.25 318.609985352
574632.125 4177213 318.890014648
574632.5 4177213.25 319.230010986
574633.25 4177213.25 320.609985352
574633.625 4177213.25 320.420013428
574634.5 4177213.5 320.549987793
574634.875 4177213.25 320.579986572
574635.75 4177213.5 320.989990234
574636.0625 4177213.25 320.910003662
574637 4177213.25 321.149993896
574637.375 4177213.25 320.970001221
574638.3125 4177213 321.059997559
574638.6875 4177213.5 321.209991455
574639.5625 4177213.25 321.130004883
574639.9375 4177213.5 321.359985352
574640.8125 4177213.25 321.260009766
574641.1875 4177213.5 321.179992676
574642.0625 4177213.25 321.359985352
574642.4375 4177213.5 321.679992676
574643.375 4177213.5 321.529998779
574643.75 4177213.5 321.299987793
574644.625 4177213.5 321.410003662
574644.9375 4177213.25 321.510009766
574645.9375 4177213.5 321.489990234
574646.25 4177213.5 321.579986572
574647.125 4177213 321.200012207
574647.5 4177213.5 321.290008545
574648.4375 4177213.25 321.260009766
574648.75 4177213.5 321.140014648
574649.6875 4177213.25 320.779998779
574650 4177213.25 320.75
574650.9375 4177213.25 321.059997559
574651.25 4177213.25 320.940002441
574652.1875 4177213.5 320.799987793
574652.5 4177213 320.899993896
574653.375 4177213.25 320.75
574653.75 4177213.5 320.540008545
574654.625 4177213.25 320.529998779
574654.9375 4177213.5 320.799987793
574655.8125 4177213 320.559997559
574656.125 4177213.25 320.450012207
574657.0625 4177213.5 320.359985352
574657.375 4177213.5 320.179992676
574658.375 4177213.5 318.809997559
574622.6875 4177214.25 317.459991455
574629.75 4177214 318.279998779
574630.0625 4177214 318.820007324
574631 4177214 318.799987793
574631.3125 4177213.75 318.709991455
574632.1875 4177213.75 318.890014648
574632.5625 4177213.75 318.829986572
574633.3125 4177214 320.679992676
574633.6875 4177214 320.429992676
574634.5625 4177214 320.799987793
574634.875 4177213.75 320.570007324
574635.8125 4177214 321.010009766
574636.125 4177213.75 321.100006104
574637.0625 4177213.75 321.029998779
574637.375 4177213.75 321.179992676
574638.3125 4177213.75 321.25
574638.6875 4177214.25 321.440002441
574639.625 4177213.75 321.350006104
574639.9375 4177214.25 321.630004883
574640.875 4177214 321.410003662
574641.1875 4177214.25 321.589996338
574642.125 4177213.75 321.540008545
574642.5 4177214.25 321.690002441
574643.4375 4177214 321.480010986
574643.75 4177214 321.670013428
574644.6875 4177214.25 321.649993896
574645 4177213.75 321.399993896
574645.9375 4177214.25 321.649993896
574646.25 4177214.25 321.690002441
574647.1875 4177213.75 321.429992676
574647.5625 4177214 321.369995117
574648.5 4177213.75 321.029998779
574648.8125 4177214 321.279998779
574649.75 4177213.75 320.799987793
574650.0625 4177213.75 320.910003662
574650.9375 4177214 321.220001221
574651.3125 4177213.75 320.890014648
574652.1875 4177214 321.019989014
574652.5 4177213.75 321.029998779
574652.5625 4177214.25 320.910003662
574653.4375 4177214 321
574653.75 4177214 320.660003662
574654.6875 4177214 320.589996338
574655 4177214 320.679992676
574655.875 4177213.75 320.429992676
574656.1875 4177213.75 320.390014648
574657.125 4177214.25 320.450012207
574622.375 4177214.25 317.119995117
574622.75 4177214.75 317.609985352
574623.625 4177214.25 317.609985352
574624 4177214.5 317.529998779
574624.875 4177214.5 317.929992676
574629.75 4177214.75 318.570007324
574630.125 4177214.5 318.730010986
574631 4177214.75 318.989990234
574631.375 4177214.5 318.929992676
574632.1875 4177214.25 319.230010986
574632.5 4177214.75 320.179992676
574633.375 4177214.5 320.640014648
574633.6875 4177214.5 320.559997559
574634.625 4177214.5 320.739990234
574634.9375 4177214.5 320.779998779
574635.875 4177214.75 320.910003662
574636.1875 4177214.25 320.920013428
574637.125 4177214.25 320.910003662
574637.4375 4177214.25 321.079986572
574638.375 4177214.25 321.549987793
574638.75 4177214.75 321.239990234
574639.625 4177214.5 321.679992676
574640 4177214.75 321.549987793
574640.875 4177214.5 321.730010986
574641.25 4177214.75 321.779998779
574642.1875 4177214.5 321.619995117
574642.5 4177214.75 321.600006104
574643.4375 4177214.75 321.720001221
574643.8125 4177214.5 321.730010986
574644.75 4177214.75 321.670013428
574645.0625 4177214.25 321.609985352
574646 4177214.75 321.700012207
574646.3125 4177214.75 321.570007324
574647.1875 4177214.25 321.529998779
574647.25 4177214.75 321.510009766
574647.5625 4177214.5 321.480010986
574648.5 4177214.25 321.239990234
574648.8125 4177214.5 321.470001221
574649.75 4177214.25 321.049987793
574650.0625 4177214.5 321.329986572
574651 4177214.5 321.170013428
574651.3125 4177214.25 321.029998779
574652.25 4177214.5 321
574652.625 4177214.75 320.890014648
574653.5 4177214.5 320.859985352
574653.8125 4177214.5 320.790008545
574654.6875 4177214.5 320.769989014
574655 4177214.5 320.769989014
574655.875 4177214.25 320.559997559
574656.25 4177214.5 320.720001221
574657.125 4177214.75 320.429992676
574657.4375 4177214.25 320.579986572
574657.4375 4177214.75 320.660003662
574658.3125 4177214.25 320.279998779
574658.6875 4177214.75 320.420013428
574622.4375 4177214.75 317.220001221
574622.75 4177215.25 317.600006104
574623.6875 4177214.75 317.519989014
574624 4177215 317.709991455
574624.875 4177215 317.950012207
574625.25 4177215 317.700012207
574626.125 4177215 318.089996338
574626.4375 4177215 318.230010986
574627.3125 4177215 318.269989014
574627.75 4177215.25 318.029998779
574628.5625 4177215.25 318.679992676
574628.9375 4177215.25 318.230010986
574629.8125 4177215.25 318.739990234
574630.1875 4177215 318.450012207
574631.0625 4177215.25 318.950012207
574631.375 4177215 318.829986572
574632.25 4177215 319.339996338
574632.5625 4177215.25 320.109985352
574633.4375 4177215 320.549987793
574633.75 4177215 320.540008545
574634.6875 4177215.25 320.690002441
574635 4177215 320.75
574635.875 4177215.25 321.149993896
574636.25 4177214.75 320.880004883
574637.1875 4177214.75 321.070007324
574637.5 4177215 321.190002441
574638.375 4177215 321.470001221
574638.8125 4177215.25 321.220001221
574639.6875 4177215 321.350006104
574640.0625 4177215.25 321.540008545
574640.9375 4177215.25 321.850006104
574641.3125 4177215.25 321.760009766
574642.1875 4177215 321.880004883
574642.5625 4177215.25 321.769989014
574643.4375 4177215.25 322.089996338
574643.8125 4177215.25 321.75
574644.75 4177215.25 321.799987793
574645.0625 4177215 321.869995117
574646 4177215.25 321.829986572
574646.375 4177215.25 321.459991455
574647.3125 4177215.25 321.470001221
574647.625 4177215.25 321.470001221
574648.5 4177215 321.769989014
574648.875 4177215 321.429992676
574649.75 4177215 321.25
574650.125 4177215 321.179992676
574651.0625 4177215 321.089996338
574651.375 4177214.75 321.019989014
574651.4375 4177215.5 321.049987793
574652.3125 4177215.25 321.029998779
574652.625 4177215.25 321.239990234
574653.5 4177215 320.850006104
574653.8125 4177215.25 321.010009766
574654.75 4177215 321
574655.0625 4177215.25 320.929992676
574655.9375 4177215 320.920013428
574656.25 4177215 320.739990234
574657.1875 4177215.25 320.489990234
574657.5 4177215.25 320.640014648
574658.375 4177214.75 320.299987793
574658.75 4177215.25 320.450012207
574659.5625 4177215.25 320.519989014
574622.5 4177215.5 317.179992676
574622.8125 4177216 317.450012207
574623.6875 4177215.5 317.489990234
574624.0625 4177215.75 317.679992676
574624.9375 4177215.5 318.049987793
574625.3125 4177215.5 317.700012207
574626.1875 4177215.5 317.880004883
574626.5 4177215.5 318.359985352
574627.375 4177215.75 318.269989014
574627.75 4177216 318.119995117
574628.625 4177215.75 318.329986572
574629 4177215.75 318.390014648
574629.875 4177215.75 318.820007324
574630.25 4177215.75 318.5
574631.125 4177215.75 318.640014648
574631.4375 4177215.5 318.850006104
574632.1875 4177215.75 320.440002441
574632.5625 4177215.75 320.279998779
574633.4375 4177215.5 320.510009766
574633.75 4177215.5 320.730010986
574634.6875 4177215.75 320.690002441
574635.0625 4177215.5 320.619995117
574635.9375 4177215.75 321.079986572
574636.25 4177215.5 320.989990234
574637.1875 4177215.5 321.190002441
574637.5 4177215.5 321.390014648
574638.4375 4177215.5 321.429992676
574638.8125 4177215.75 321.399993896
574639.75 4177215.5 321.619995117
574640.0625 4177216 321.739990234
574641 4177215.75 321.640014648
574641.3125 4177216 321.760009766
574642.25 4177215.75 322
574642.625 4177216 321.910003662
574643.5 4177215.75 322.089996338
574643.875 4177215.75 321.980010986
574644.8125 4177216 321.940002441
574645.125 4177215.5 321.670013428
574646.0625 4177216 321.880004883
574646.4375 4177216 321.790008545
574647.3125 4177216 321.600006104
574647.6875 4177215.75 321.429992676
574648.5625 4177215.5 321.660003662
574648.9375 4177215.75 321.410003662
574649.8125 4177215.5 321.540008545
574650.1875 4177215.5 321.040008545
574651.0625 4177215.5 321.059997559
574652.375 4177215.75 320.880004883
574652.6875 4177216 321.279998779
574653.5625 4177215.75 320.950012207
574653.875 4177215.75 320.899993896
574654.8125 4177215.75 320.929992676
574655.125 4177215.75 320.829986572
574656 4177215.5 320.880004883
574656.3125 4177215.5 320.769989014
574657.5625 4177216 320.589996338
574658.4375 4177215.5 320.519989014
574658.75 4177216 320.380004883
574659.625 4177215.75 320.660003662
574659.9375 4177215.5 320.269989014
574660 4177216 320.25
574660.875 4177215.75 320.089996338
574622.5 4177216 317.399993896
574622.875 4177216.5 317.309997559
574623.75 4177216 317.510009766
574623.8125 4177216.5 317.429992676
574624.125 4177216.25 317.529998779
574625 4177216 317.730010986
574625.3125 4177216.25 317.950012207
574626.25 4177216.25 317.859985352
574626.5625 4177216 317.929992676
574627.4375 4177216.25 318.089996338
574627.8125 4177216.5 318.410003662
574628.6875 4177216.25 318.549987793
574629 4177216.5 318.459991455
574629.9375 4177216.25 318.779998779
574630.25 4177216.25 318.709991455
574631.125 4177216.5 318.890014648
574631.5 4177216 318.880004883
574632.25 4177216.25 320.5
574632.625 4177216.25 320.320007324
574633.5 4177216.25 320.470001221
574633.8125 4177216.25 320.459991455
574634.75 4177216.25 320.679992676
574635.0625 4177216 320.899993896
574636 4177216.5 321.140014648
574636.3125 4177216 321.269989014
574636.375 4177216.5 320.940002441
574637.25 4177216 321.200012207
574637.5625 4177216 321.519989014
574638.5 4177216 321.260009766
574638.875 4177216.5 321.579986572
574639.75 4177216.25 321.730010986
574640.125 4177216.5 321.709991455
574641 4177216.25 322.170013428
574641.375 4177216.5 321.880004883
574642.25 4177216.25 321.920013428
574642.625 4177216.5 322.049987793
574643.5625 4177216.5 322.25
574643.9375 4177216.25 321.940002441
574644.875 4177216.5 321.739990234
574645.125 4177216 321.980010986
574646.125 4177216.5 321.690002441
574646.5 4177216.5 321.690002441
574647.375 4177216.5 321.709991455
574647.75 4177216.25 321.570007324
574648.625 4177216 321.579986572
574649 4177216.25 321.440002441
574649.875 4177216 321.470001221
574650.25 4177216 321.200012207
574651.125 4177216.25 321.200012207
574651.4375 4177216 321.260009766
574651.5 4177216.5 321.25
574652.375 4177216.25 321.029998779
574652.75 4177216.5 321.290008545
574653.625 4177216.25 321.239990234
574653.9375 4177216.25 320.980010986
574654.8125 4177216.25 321.010009766
574655.1875 4177216.25 320.700012207
574656 4177216 320.980010986
574656.375 4177216 320.679992676
574657.1875 4177216 320.940002441
574657.625 4177216.5 320.579986572
574658.4375 4177216 320.720001221
574658.8125 4177216.5 320.589996338
574659.6875 4177216.25 320.640014648
574660 4177216.5 320.559997559
574660.875 4177216.25 320.450012207
574661.25 4177216.5 320.320007324
574622.5625 4177216.5 317.470001221
574622.9375 4177217 317.489990234
574623.875 4177217.25 317.589996338
574624.1875 4177216.75 317.600006104
574625 4177216.75 317.920013428
574625.375 4177216.75 317.880004883
574626.25 4177216.75 317.859985352
574626.5625 4177216.75 318.040008545
574627.5 4177216.75 318.160003662
574627.875 4177217 318.269989014
574628.6875 4177217 318.730010986
574629.0625 4177217 318.429992676
574629.9375 4177217 318.869995117
574630.3125 4177216.75 318.470001221
574631.1875 4177217 318.839996338
574631.5 4177216.75 318.980010986
574632.3125 4177216.75 320.5
574632.6875 4177217 320.309997559
574633.5625 4177216.75 320.410003662
574633.875 4177216.75 320.609985352
574634.8125 4177217 320.839996338
574635.125 4177216.75 320.890014648
574636.0625 4177217 321.140014648
574636.375 4177217 320.970001221
574637.25 4177216.5 321.25
574637.625 4177216.75 321.480010986
574638.5 4177216.75 321.570007324
574638.9375 4177217 321.5
574639.8125 4177216.75 321.940002441
574640.1875 4177217 321.690002441
574641.0625 4177216.75 321.679992676
574641.4375 4177217 322.059997559
574642.3125 4177216.75 321.929992676
574642.6875 4177217 322.260009766
574643.5625 4177217 322.290008545
574643.9375 4177217 322.109985352
574644.875 4177217 322.320007324
574645.1875 4177216.5 321.989990234
574645.25 4177217.25 321.980010986
574646.1875 4177217 321.799987793
574646.5 4177217 321.779998779
574647.4375 4177217 321.769989014
574647.75 4177216.75 321.75
574648.6875 4177216.75 321.600006104
574649 4177216.75 321.420013428
574649.9375 4177216.75 321.350006104
574650.25 4177216.5 321.260009766
574651.1875 4177216.75 321.320007324
574651.5 4177217.25 321.450012207
574652.4375 4177216.75 321.160003662
574652.75 4177217 321.190002441
574653.625 4177217 321.339996338
574653.9375 4177217 321.309997559
574654.875 4177216.75 321.109985352
574655.1875 4177216.75 320.910003662
574656.0625 4177216.5 320.970001221
574656.4375 4177216.75 320.790008545
574657.25 4177216.5 321.049987793
574657.3125 4177217.25 320.950012207
574657.625 4177217 320.989990234
574658.5 4177216.75 320.670013428
574658.875 4177217 320.559997559
574659.6875 4177216.75 320.640014648
574660.0625 4177217.25 320.649993896
574660.875 4177217 320.869995117
574661.3125 4177217 320.329986572
574662.125 4177217 320.399993896
574662.5 4177217 320.269989014
574622.5625 4177217.25 317.559997559
574623 4177217.5 317.399993896
574623.875 4177217.75 317.700012207
574624.1875 4177217.25 317.540008545
574625.0625 4177217.25 317.929992676
574625.4375 4177217.25 317.959991455
574626.3125 4177217.25 317.970001221
574626.625 4177217.25 318.059997559
574627.5 4177217.5 318.329986572
574627.9375 4177217.5 318.239990234
574628.75 4177217.5 318.880004883
574629.125 4177217.5 318.399993896
574630 4177217.5 318.730010986
574630.375 4177217.25 318.470001221
574631.25 4177217.5 318.760009766
574631.5625 4177217.25 318.970001221
574632.3125 4177217.5 320.559997559
574632.6875 4177217.5 320.429992676
574633.5625 4177217.25 320.700012207
574633.9375 4177217.25 320.600006104
574634.8125 4177217.5 320.799987793
574635.125 4177217.25 320.970001221
574636.125 4177217.5 320.940002441
574636.4375 4177217.75 320.959991455
574637.3125 4177217.25 321.299987793
574637.375 4177217.75 321.320007324
574637.625 4177217.25 321.5
574637.6875 4177217.75 321.399993896
574638.5625 4177217.25 321.559997559
574639 4177217.5 321.390014648
574639.875 4177217.25 321.559997559
574640.25 4177217.5 321.760009766
574641.125 4177217.5 321.959991455
574641.4375 4177217.5 322.019989014
574642.375 4177217.5 322.279998779
574642.75 4177217.5 322.149993896
574643.625 4177217.5 322.309997559
574644 4177217.5 322.190002441
574644.9375 4177217.75 322.179992676
574645.3125 4177217.75 321.799987793
574646.25 4177217.75 321.779998779
574646.5625 4177217.5 322.040008545
574647.5 4177217.75 321.769989014
574647.8125 4177217.5 321.709991455
574648.6875 4177217.25 321.910003662
574649.0625 4177217.5 321.75
574649.9375 4177217.25 321.670013428
574650.3125 4177217.25 321.350006104
574651.1875 4177217.25 321.410003662
574652.4375 4177217.5 321.339996338
574652.8125 4177217.5 321.299987793
574653.6875 4177217.5 321.320007324
574654 4177217.5 321.339996338
574654.9375 4177217.5 321.179992676
574655.1875 4177217.5 321.290008545
574656.0625 4177217.25 321.239990234
574656.4375 4177217.25 320.859985352
574657.3125 4177217.75 321.109985352
574657.6875 4177217.75 320.839996338
574658.5 4177217.25 320.709991455
574658.875 4177217.75 320.640014648
574659.75 4177217.5 320.600006104
574660.125 4177217.75 320.730010986
574660.9375 4177217.5 320.760009766
574661.3125 4177217.5 320.350006104
574662.1875 4177217.5 320.600006104
574662.5 4177217.5 320.570007324
574622.625 4177217.75 317.489990234
574622.6875 4177218.25 317.470001221
574623.0625 4177218 317.260009766
574623.9375 4177218.25 317.589996338
574624.25 4177218 317.619995117
574625.125 4177217.75 317.809997559
574625.4375 4177218 318.059997559
574626.375 4177218 318.089996338
574626.6875 4177217.75 318.220001221
574627.5625 4177218 318.230010986
574627.9375 4177218.25 318.339996338
574628.8125 4177218 318.309997559
574629.1875 4177218 318.230010986
574630.0625 4177218 318.779998779
574630.375 4177218 318.720001221
574631.3125 4177218 318.869995117
574631.625 4177217.75 318.970001221
574632.375 4177218 320.600006104
574632.75 4177218 320.230010986
574633.625 4177218 320.649993896
574634 4177217.75 320.660003662
574634.875 4177218 321.040008545
574635.1875 4177217.75 320.820007324
574636.125 4177218 320.890014648
574636.5 4177218.25 321.350006104
574637.4375 4177218.25 321.130004883
574637.75 4177218.25 321.309997559
574638.625 4177217.75 321.660003662
574638.6875 4177218.25 321.339996338
574639 4177218 321.369995117
574639.9375 4177217.75 321.529998779
574640.25 4177218.25 321.910003662
574641.1875 4177218 321.929992676
574641.5 4177218.25 321.929992676
574642.375 4177218 322.290008545
574642.75 4177218.25 322.369995117
574643.6875 4177218.25 322.390014648
574644.0625 4177218 322.170013428
574645 4177218.25 322.040008545
574645.3125 4177218.25 322.209991455
574646.25 4177218.25 321.890014648
574646.5625 4177218.25 322.010009766
574647.5 4177218.25 321.940002441
574647.8125 4177218 322.010009766
574648.75 4177217.75 321.809997559
574649.0625 4177218 321.820007324
574650 4177218 321.730010986
574650.3125 4177217.75 321.450012207
574651.25 4177218 321.630004883
574651.5625 4177217.75 321.799987793
574651.625 4177218.25 321.739990234
574652.5 4177218 321.390014648
574652.8125 4177218.25 321.529998779
574653.75 4177218 321.380004883
574654.0625 4177218 321.470001221
574655 4177218 321.070007324
574655.25 4177218 321.109985352
574656.125 4177217.75 321.5
574656.5 4177217.75 320.869995117
574657.375 4177218.25 321.190002441
574657.75 4177218.25 321.029998779
574658.5625 4177217.75 320.600006104
574658.9375 4177218.25 320.910003662
574659.75 4177218 320.910003662
574660.125 4177218.25 320.989990234
574661 4177218.25 320.859985352
574661.375 4177218.25 320.570007324
574622.75 4177219 317.589996338
574623.0625 4177218.75 317.309997559
574624 4177219 317.679992676
574624.3125 4177218.5 317.619995117
574625.1875 4177218.5 317.850006104
574625.5 4177218.5 318.070007324
574626.375 4177218.5 318.279998779
574626.75 4177218.25 318.029998779
574626.75 4177219 318.019989014
574627.625 4177218.5 318.329986572
574628 4177218.75 318.190002441
574628.875 4177218.5 318.420013428
574629.25 4177218.5 318.329986572
574630.125 4177218.5 318.5
574630.4375 4177218.5 318.859985352
574631.375 4177218.75 318.809997559
574631.6875 4177218.5 318.869995117
574632.4375 4177218.5 320.510009766
574632.8125 4177218.5 320.399993896
574633.6875 4177218.5 320.720001221
574634 4177218.5 320.529998779
574634.9375 4177218.75 321.019989014
574635.25 4177218.25 320.880004883
574636.1875 4177218.75 321.119995117
574636.5 4177218.75 321.299987793
574637.5 4177218.75 321.140014648
574637.8125 4177218.75 321.459991455
574638.75 4177219 321.390014648
574639.0625 4177218.75 321.420013428
574639.9375 4177218.5 321.739990234
574640.3125 4177218.75 321.940002441
574641.1875 4177218.5 321.799987793
574641.5625 4177218.75 321.799987793
574642.4375 4177218.5 322.049987793
574642.8125 4177218.75 322.339996338
574643.75 4177218.75 322.299987793
574644.0625 4177218.75 322.299987793
574645 4177218.75 322.209991455
574645.375 4177218.75 322.010009766
574646.3125 4177218.75 321.989990234
574646.625 4177218.75 322.059997559
574647.5625 4177218.75 321.760009766
574647.875 4177218.5 322
574648.75 4177218.5 321.890014648
574649.125 4177218.5 321.989990234
574650.0625 4177218.5 321.510009766
574650.375 4177218.25 321.700012207
574651.25 4177218.5 321.779998779
574651.625 4177219 321.739990234
574652.5625 4177218.5 321.329986572
574652.875 4177218.75 321.529998779
574653.75 4177218.75 321.480010986
574654.125 4177218.75 321.410003662
574655 4177218.5 321.230010986
574655.3125 4177218.75 321.480010986
574656.1875 4177218.25 321.170013428
574656.5 4177218.5 321.119995117
574657.4375 4177218.75 320.880004883
574657.75 4177218.75 320.920013428
574658.625 4177218.5 321.010009766
574658.9375 4177218.75 321.059997559
574659.8125 4177218.5 320.829986572
574660.1875 4177219 321.070007324
574661.0625 4177218.75 320.940002441
574661.4375 4177218.75 320.660003662
574621.9375 4177219.25 316.790008545
574622.8125 4177219.5 317.309997559
574623.125 4177219.25 317.630004883
574624 4177219.5 317.609985352
574624.375 4177219 317.540008545
574625.25 4177219 317.890014648
574625.5625 4177219 317.839996338
574626.4375 4177219 317.880004883
574626.8125 4177219.5 318.269989014
574627.6875 4177219 318.239990234
574628.0625 4177219.25 318.269989014
574628.875 4177219.25 318.720001221
574629.25 4177219.25 318.339996338
574630.125 4177219.25 318.589996338
574630.5 4177219.25 318.910003662
574631.375 4177219.25 318.739990234
574631.75 4177219 318.980010986
574632.5 4177219 320.559997559
574632.875 4177219.25 320.299987793
574633.75 4177219 320.739990234
574634.0625 4177219 320.769989014
574635 4177219.25 320.809997559
574635.3125 4177219 320.920013428
574635.3125 4177219.5 320.899993896
574636.25 4177219.25 321.040008545
574636.5625 4177219.25 321.070007324
574637.5 4177219.5 321.399993896
574637.8125 4177219.5 321.440002441
574638.75 4177219.5 321.440002441
574639.0625 4177219.25 321.609985352
574640 4177219 321.859985352
574640.375 4177219.25 321.739990234
574641.25 4177219.25 321.920013428
574641.625 4177219.25 322.049987793
574642.5 4177219 322.070007324
574642.875 4177219.25 321.940002441
574643.75 4177219.25 322.329986572
574644.125 4177219.25 322.320007324
574645.0625 4177219.25 322.279998779
574645.4375 4177219.5 322.089996338
574646.3125 4177219.5 322.309997559
574646.625 4177219.25 322.339996338
574647.5625 4177219.5 321.989990234
574647.9375 4177219.25 322.140014648
574648.8125 4177219 321.760009766
574649.1875 4177219 321.989990234
574650.0625 4177219 321.559997559
574650.375 4177219 321.980010986
574651.3125 4177219.25 321.980010986
574651.6875 4177219.5 321.869995117
574652.5625 4177219.25 321.579986572
574652.9375 4177219.25 321.470001221
574653.8125 4177219.25 321.579986572
574654.125 4177219.25 321.359985352
574655.0625 4177219 321.290008545
574655.3125 4177219.25 321.779998779
574656.25 4177219 321.179992676
574656.5625 4177219 321.350006104
574657.5 4177219.5 321.089996338
574657.8125 4177219.25 321.109985352
574658.6875 4177219 320.940002441
574659 4177219.5 321.260009766
574659.875 4177219.25 321.269989014
574660.25 4177219.5 321.049987793
574661.0625 4177219.25 320.929992676
574621.9375 4177220 317.179992676
574622.8125 4177220 317.350006104
574623.1875 4177219.75 317.600006104
574624.0625 4177220 317.679992676
574624.375 4177219.75 317.779998779
574625.25 4177219.5 318.070007324
574625.625 4177219.5 317.670013428
574626.5 4177219.75 318.059997559
574626.875 4177220 318.220001221
574627.6875 4177219.75 318.209991455
574628.0625 4177220 318.529998779
574628.9375 4177219.75 318.739990234
574629.3125 4177219.75 318.420013428
574630.1875 4177219.75 318.579986572
574630.5 4177219.75 318.950012207
574631.4375 4177219.75 318.820007324
574631.75 4177219.5 318.970001221
574631.8125 4177220 318.859985352
574632.5 4177219.75 320.609985352
574632.875 4177219.75 320.470001221
574633.75 4177219.5 320.649993896
574634.0625 4177219.5 321.040008545
574635 4177219.75 320.850006104
574635.375 4177220 320.970001221
574636.25 4177219.75 321.019989014
574636.625 4177220 321.010009766
574637.5625 4177220 321.309997559
574637.875 4177220 321.420013428
