# .PCD v.7 - Point Cloud Data file format
VERSION .7
FIELDS x y z
SIZE 4 4 4
TYPE F F F
COUNT 1 1 1
WIDTH 127
HEIGHT 1
VIEWPOINT 0 0 0 1 0 0 0
POINTS 127
DATA ascii
574724.25 4177235.75 317.190002441
574724.625 4177235.5 316.440002441
574724.3125 4177236.25 316.369995117
574724.6875 4177236 316.559997559
574724.375 4177237 316.859985352
574724.6875 4177236.75 317.010009766
574725.625 4177237 317.320007324
574718.125 4177237.5 316.510009766
574718.5625 4177237.25 316.170013428
574723.0625 4177237.5 317.410003662
574723.5 4177237.25 317.190002441
574724.375 4177237.5 317.160003662
574724.75 4177237.25 317.179992676
574725.625 4177237.75 317.529998779
574726.0625 4177237.75 317.529998779
574718.1875 4177238 316.5
574718.5 4177238 317.260009766
574723.5625 4177237.75 316.630004883
574724.4375 4177238.25 317.440002441
574724.8125 4177237.75 317.059997559
574725.6875 4177238.25 317.649993896
574726.0625 4177238.25 317.660003662
574726.9375 4177238.25 317.649993896
574718.25 4177238.5 316.869995117
574718.625 4177238.5 316.470001221
574719.5 4177238.75 316.619995117
574723.25 4177238.5 317.010009766
574723.625 4177238.5 316.829986572
574724.5 4177238.75 317.269989014
574724.875 4177238.5 317.209991455
574725.75 4177238.75 317.5
574726.125 4177239 317.779998779
574727 4177238.75 317.890014648
574727.375 4177238.25 317.540008545
574727.4375 4177238.75 317.309997559
574718.6875 4177239 316.549987793
574719.5625 4177239.25 316.790008545
574719.9375 4177239 316.589996338
574722.125 4177239.5 316.399993896
574722.375 4177239 317.230010986
574722.5 4177239.5 316.480010986
574723.25 4177239.25 317.220001221
574723.625 4177239 317.209991455
574724.5 4177239.25 317.359985352
574724.875 4177239 317.5
574725.8125 4177239.25 317.609985352
574726.1875 4177239.5 317.630004883
574727.0625 4177239.5 317.850006104
574727.5 4177239.5 317.200012207
574728.375 4177239 317.369995117
574728.8125 4177239.25 317.149993896
574720.75 4177239.5 317.760009766
574720.875 4177239.75 316.309997559
574721.25 4177240 316.670013428
574722.125 4177240 316.890014648
574722.5 4177240 317.119995117
574723.3125 4177239.75 317.260009766
574723.6875 4177239.5 317.049987793
574724.5625 4177240 317.529998779
574724.9375 4177239.5 317.640014648
574725.8125 4177240 317.640014648
574726.25 4177240 317.390014648
574727.125 4177240 317.369995117
574727.5625 4177240 317.390014648
574728.4375 4177239.5 317.369995117
574728.875 4177239.75 317.059997559
574720.9375 4177240.5 316.720001221
574721.3125 4177240.75 316.829986572
574722.5625 4177240.5 317.010009766
574723.375 4177240.25 317.429992676
574723.75 4177240.25 317.279998779
574724.625 4177240.5 317.529998779
574725 4177240.25 317.619995117
574725.875 4177240.5 317.709991455
574726.3125 4177240.5 317.399993896
574727.1875 4177240.5 317.220001221
574727.625 4177240.5 317.239990234
574728.5 4177240 317.179992676
574722.125 4177240.75 317.320007324
574722.1875 4177241.25 317.010009766
574722.5625 4177241.25 317.299987793
574723.4375 4177241 317.380004883
574723.75 4177240.75 317.559997559
574724.625 4177241 317.809997559
574725.0625 4177240.75 317.470001221
574725.9375 4177241 317.869995117
574726.375 4177241 317.309997559
574727.25 4177241 317.279998779
574727.6875 4177241 317.160003662
574721.4375 4177241.75 316.929992676
574722.25 4177241.75 317.100006104
574722.625 4177241.75 317.309997559
574723.4375 4177241.5 317.529998779
574723.8125 4177241.25 317.600006104
574724.6875 4177241.75 317.700012207
574725.125 4177241.25 317.380004883
574725.125 4177241.75 317.519989014
574726 4177241.75 317.700012207
574726.4375 4177241.5 317.369995117
574727.3125 4177241.5 317.130004883
574727.75 4177241.5 316.989990234
574722.3125 4177242.25 317.290008545
574722.6875 4177242.25 317.390014648
574723.5 4177242 317.720001221
574723.875 4177242 317.679992676
574724.75 4177242.25 317.739990234
574725.1875 4177242.5 317.390014648
574726.0625 4177242.25 317.290008545
574726.5 4177242.25 317.399993896
574727.375 4177242.25 317.109985352
574723.5625 4177242.75 317.739990234
574723.9375 4177242.5 317.799987793
574724 4177243 317.510009766
574724.8125 4177242.75 317.459991455
574725.25 4177243 317.359985352
574726.125 4177242.75 317.220001221
574726.5 4177242.75 317.390014648
574723.5625 4177243.25 318.049987793
574724 4177243.5 317.790008545
574724.875 4177243.25 317.410003662
574725.3125 4177243.5 317.329986572
574726.1875 4177243.25 317.390014648
574726.625 4177243.25 317.160003662
574724.9375 4177243.75 317.440002441
574725.375 4177244 317.170013428
574726.25 4177243.75 317
574725.4375 4177244.5 317.260009766
