# .PCD v.7 - Point Cloud Data file format
VERSION .7
FIELDS x y z
SIZE 4 4 4
TYPE F F F
COUNT 1 1 1
WIDTH 86
HEIGHT 1
VIEWPOINT 0 0 0 1 0 0 0
POINTS 86
DATA ascii
574600.1875 4177207.25 312.600006104
574600.5625 4177207.25 312.679992676
574600.25 4177207.75 312.660003662
574600.625 4177208.5 312.640014648
574602 4177209 312.660003662
574600.375 4177209.5 312.619995117
574598.1875 4177210.5 312.619995117
574599.5 4177210.25 312.660003662
574601.75 4177210.25 312.679992676
574599.25 4177211.25 312.679992676
574600.875 4177211.25 312.660003662
574596.75 4177212.25 312.549987793
574599.3125 4177212 312.540008545
574599.625 4177212 312.589996338
574601.875 4177212 312.619995117
574599.375 4177212.5 312.660003662
574599.6875 4177212.5 312.540008545
574596.8125 4177213.5 312.660003662
574597.1875 4177213.5 312.600006104
574599.75 4177213 312.670013428
574601.0625 4177213.5 312.640014648
574598.1875 4177214 312.489990234
574599.5 4177214.25 312.529998779
574599.75 4177213.75 312.609985352
574598.25 4177214.5 312.440002441
574599.5625 4177214.75 312.559997559
574599.8125 4177214.25 312.670013428
574601.1875 4177214.75 312.619995117
574598.25 4177215.25 312.579986572
574598.5625 4177215 312.549987793
574600.875 4177215.25 312.609985352
574598.625 4177215.5 312.510009766
574599.625 4177216 312.649993896
574599.9375 4177216 312.570007324
574600.875 4177216 312.660003662
574597.375 4177216.25 312.690002441
574598.375 4177216.5 312.609985352
574599.6875 4177216.5 312.600006104
574600 4177216.5 312.519989014
574598.375 4177217 312.609985352
574600.0625 4177217 312.559997559
574598.75 4177217.25 312.670013428
574600.125 4177217.5 312.609985352
574598.8125 4177217.75 312.690002441
574600.1875 4177218.75 312.660003662
574601.5 4177218.75 312.630004883
574600.25 4177219.25 312.579986572
574601.1875 4177219.25 312.660003662
574600.25 4177220 312.640014648
574601.5625 4177219.75 312.670013428
574599.0625 4177221.25 312.649993896
574600.375 4177221 312.609985352
574601.6875 4177221 312.630004883
574600.4375 4177221.5 312.660003662
574599.1875 4177222.25 312.649993896
574599.25 4177222.75 312.660003662
574601.8125 4177222.5 312.640014648
574600.25 4177223.5 312.670013428
574600.5625 4177223.25 312.600006104
574603.1875 4177223.25 312.660003662
574601.9375 4177223.75 312.660003662
574599.375 4177224.5 312.579986572
574601.625 4177224.5 312.660003662
574599.4375 4177225 312.600006104
574600.375 4177225.25 312.649993896
574600.6875 4177225 312.549987793
574599.0625 4177225.5 312.649993896
574599.5 4177225.75 312.589996338
574600.75 4177225.5 312.609985352
574599.5 4177226.25 312.640014648
574600.4375 4177226.25 312.690002441
574601.75 4177226.25 312.660003662
574602.125 4177226 312.679992676
574603.0625 4177227 312.649993896
574600.5625 4177227.5 312.619995117
574602.25 4177227.75 312.630004883
574597.9375 4177227.75 312.660003662
574598.375 4177228 312.660003662
574599.25 4177228 312.660003662
574599.625 4177228 312.640014648
574600.9375 4177227.75 312.660003662
574601.875 4177228 312.670013428
574598.4375 4177228.75 312.690002441
574599.3125 4177228.5 312.619995117
574599.6875 4177228.5 312.690002441
574601.9375 4177228.5 312.529998779
