# .PCD v.7 - Point Cloud Data file format
VERSION .7
FIELDS x y z
SIZE 4 4 4
TYPE F F F
COUNT 1 1 1
WIDTH 169
HEIGHT 1
VIEWPOINT 0 0 0 1 0 0 0
POINTS 169
DATA ascii
574728.5 4177117.75 317.470001221
574728.5625 4177118.5 317.489990234
574728.6875 4177118.25 317.380004883
574730.9375 4177117.75 318.290008545
574731.0625 4177118 318.410003662
574732.125 4177118 318.660003662
574732.25 4177118.25 317.429992676
574732.3125 4177118 318.549987793
574732.4375 4177118.25 317.510009766
574734.8125 4177118 318.079986572
574735.5625 4177118 322.619995117
574735.8125 4177118.25 320
574735.8125 4177118.25 321.660003662
574736 4177118.25 319.670013428
574736.8125 4177118 321.950012207
574736.9375 4177118.25 322.600006104
574738 4177118.25 323.619995117
574738.125 4177118.25 323.679992676
574739.3125 4177118.25 322.820007324
574728.625 4177118.75 316.709991455
574728.6875 4177118.75 317.790008545
574728.875 4177118.75 316.119995117
574729.75 4177118.75 318.5
574729.9375 4177118.75 318.190002441
574731.125 4177118.5 318.190002441
574731.1875 4177118.75 317.980010986
574732.25 4177119 318.25
574732.375 4177118.75 318.410003662
574733.875 4177119 315.790008545
574734.6875 4177118.5 318.720001221
574734.75 4177119 318.630004883
574734.875 4177118.5 318.399993896
574735.625 4177118.5 322.510009766
574735.875 4177118.75 319.799987793
574736.0625 4177118.5 319.269989014
574736.875 4177118.5 322.380004883
574737 4177118.5 322.369995117
574737.1875 4177118.5 320.390014648
574738.0625 4177118.75 323.529998779
574738.1875 4177118.75 323.679992676
574738.1875 4177119 321.829986572
574738.3125 4177118.75 322.420013428
574739.375 4177118.75 322.450012207
574739.5 4177118.5 322.589996338
574739.5625 4177119 322.369995117
574728.625 4177119.5 317.549987793
574729.75 4177119.5 318.640014648
574729.9375 4177119.25 318.630004883
574732.3125 4177119.5 318.299987793
574732.5 4177119.25 318.059997559
574733.625 4177119.25 317.260009766
574734.875 4177119 318.779998779
574734.9375 4177119.5 318.839996338
574736 4177119.5 321.109985352
574736.875 4177119.25 322.779998779
574737.125 4177119 320.059997559
574737.125 4177119.25 321.760009766
574737.3125 4177119 319.399993896
574738.3125 4177119.25 322.25
574739.5 4177119.25 321.75
574739.625 4177119.25 322.140014648
574728.6875 4177120 317.700012207
574728.8125 4177119.75 317.859985352
574728.8125 4177120.25 315.959991455
574729.9375 4177119.5 317.399993896
574730 4177119.75 318.25
574730.0625 4177120 317.869995117
574732.5 4177119.5 317.739990234
574732.5625 4177120 315.869995117
574732.75 4177120 315.899993896
574733.75 4177119.5 316.459991455
574733.875 4177119.75 316.809997559
574734.6875 4177120 320.220001221
574734.875 4177120 318.489990234
574735 4177119.75 318.230010986
574735.8125 4177119.75 321.660003662
574735.9375 4177120.25 320.890014648
574736 4177120 321.5
574736.125 4177120 318.130004883
574737.125 4177119.75 320.670013428
574738.1875 4177119.75 322.910003662
574738.375 4177119.75 322.829986572
574738.4375 4177120.25 322.290008545
574739.5 4177120 322.630004883
574739.625 4177119.75 322.529998779
574728.8125 4177120.25 318.059997559
574728.9375 4177120.5 317.130004883
574729.0625 4177120.5 315.980010986
574729.875 4177120.5 318.390014648
574730.125 4177120.5 317.5
574732.625 4177120.5 315.670013428
574732.75 4177120.5 315.929992676
574733.75 4177120.5 317.589996338
574733.8125 4177120.75 318.809997559
574733.8125 4177120.75 316.470001221
574735 4177120.5 319.260009766
574735.25 4177120.75 316.579986572
574736.0625 4177120.5 320.809997559
574737.0625 4177120.75 322.290008545
574737.1875 4177120.25 322.269989014
574737.25 4177120.75 322.100006104
574738.25 4177120.25 322.609985352
574739.6875 4177120.25 322.720001221
574739.75 4177120.5 321.910003662
574730 4177120.75 317.950012207
574730.125 4177121 317.970001221
574734.875 4177120.75 319.480010986
574735.0625 4177120.75 317.109985352
574735.1875 4177121 315.890014648
574736.0625 4177121 320.079986572
574736.125 4177120.75 320.959991455
574736.1875 4177121.25 318.619995117
574736.25 4177121 320.079986572
574736.375 4177121.25 316.619995117
574736.5 4177121.25 317.119995117
574737.1875 4177121 321.690002441
574737.3125 4177121 321.320007324
574737.4375 4177121 320.079986572
574738.3125 4177120.75 322.829986572
574738.375 4177121.25 322.540008545
574738.4375 4177120.75 322.809997559
574738.5 4177121 322.040008545
574739.5625 4177121 322.660003662
574739.75 4177121.25 322.470001221
574732.875 4177121.5 316.170013428
574733.9375 4177121.5 317.850006104
574733.9375 4177121.75 316.459991455
574735.1875 4177121.5 317.690002441
574736.25 4177121.5 319.959991455
574736.5 4177121.75 317.359985352
574737.25 4177121.5 320.929992676
574737.375 4177121.5 319.609985352
574737.5 4177121.75 320.529998779
574737.5625 4177122 319.619995117
574738.4375 4177121.75 321.970001221
574738.5625 4177121.5 322.440002441
574739.625 4177121.5 322.549987793
574734.125 4177122 316.649993896
574736.3125 4177122.25 318.299987793
574736.6875 4177122.25 316.290008545
574738.625 4177122 322.179992676
574735.1875 4177122.5 317.769989014
574735.25 4177123 317.320007324
574735.25 4177122.5 318.220001221
574735.3125 4177123 318.329986572
574736.375 4177122.75 318.359985352
574736.4375 4177122.75 319.200012207
574736.6875 4177123 316.940002441
574737.5 4177122.5 319.089996338
574737.75 4177122.5 318.839996338
574734 4177123.25 317.540008545
574734.125 4177123.25 317.829986572
574735.3125 4177123.5 317.269989014
574735.375 4177123.5 317.899993896
574735.5 4177123.75 317.109985352
574736.4375 4177123.25 318.529998779
574736.5625 4177123.5 317.040008545
574734.0625 4177123.75 317.450012207
574734.1875 4177123.75 317.839996338
574734.1875 4177124.25 317.899993896
574735.3125 4177124.25 317.779998779
574736.6875 4177123.75 316.200012207
574736.8125 4177123.75 316.190002441
574734.0625 4177124.5 318.109985352
574734.1875 4177124.75 317.230010986
574734.25 4177124.75 317.970001221
574734.375 4177124.75 316.709991455
574735.375 4177124.75 317.670013428
574734.25 4177125.25 316.609985352
