# .PCD v.7 - Point Cloud Data file format
VERSION .7
FIELDS x y z
SIZE 4 4 4
TYPE F F F
COUNT 1 1 1
WIDTH 1012
HEIGHT 1
VIEWPOINT 0 0 0 1 0 0 0
POINTS 1012
DATA ascii
574816.625 4177324 315.540008545
574815.25 4177324.5 315.480010986
574816 4177324.5 315.720001221
574816.5 4177324.5 317.279998779
574815.25 4177325 316.190002441
574816 4177325 316.829986572
574814.625 4177325.5 317.019989014
574815.25 4177325.75 317.339996338
574816 4177325.75 316.730010986
574816.625 4177325.75 317.149993896
574803.25 4177326.25 318.049987793
574803.9375 4177326.25 317.869995117
574805.25 4177326.25 318.209991455
574813.9375 4177326.25 317.119995117
574814.75 4177326 316.579986572
574815.25 4177326.25 317.799987793
574803.3125 4177326.75 317.709991455
574803.9375 4177326.75 318.619995117
574805.25 4177326.75 318.450012207
574806.0625 4177326.5 316.119995117
574806.75 4177327 316.970001221
574813.3125 4177326.5 317.380004883
574813.9375 4177327 318.179992676
574814.25 4177326.75 322.549987793
574815.25 4177326.75 318.209991455
574816 4177326.75 318.160003662
574816.625 4177326.75 318.459991455
574802.0625 4177327.5 317.660003662
574803.3125 4177327.25 318.320007324
574804.5 4177327.25 319.799987793
574805.125 4177327.5 320.619995117
574806.0625 4177327.25 316.209991455
574806.6875 4177327.75 318
574809.75 4177327.75 319.790008545
574810.5 4177327.5 319.940002441
574812.6875 4177327.5 317.510009766
574813.375 4177327 317.799987793
574813.375 4177327.75 318.059997559
574813.5625 4177327.75 322.619995117
574814.3125 4177327.5 322.529998779
574814.9375 4177327.5 322.649993896
574816.0625 4177327.5 318.450012207
574799.0625 4177328.25 316.519989014
574799.75 4177328 315.5
574800.375 4177327.75 315.739990234
574800.9375 4177328 316.260009766
574802.125 4177328 318.029998779
574803.375 4177327.75 317.890014648
574804.0625 4177327.75 318.320007324
574804.5625 4177327.75 319.760009766
574805.125 4177328 321.510009766
574805.6875 4177328 321.619995117
574806.75 4177328.25 317.769989014
574807.25 4177327.75 318.320007324
574809.8125 4177328.25 319.880004883
574810.5625 4177328.25 319.880004883
574812.5625 4177328 319.070007324
574813.625 4177328.25 322.779998779
574814.6875 4177327.75 319.079986572
574815.0625 4177328.25 322.100006104
574816.125 4177328 318.369995117
574799.1875 4177328.75 315.809997559
574800.4375 4177328.25 316.040008545
574800.875 4177328.5 317.769989014
574801.625 4177328.5 317.320007324
574802.1875 4177328.5 317.799987793
574802.875 4177328.25 318.040008545
574803.4375 4177328.5 317.720001221
574803.9375 4177328.5 320.440002441
574804.5625 4177328.5 320.190002441
574805.1875 4177328.5 321.25
574805.6875 4177328.5 322.170013428
574807.3125 4177328.25 318.100006104
574809.25 4177328.5 319.660003662
574809.875 4177328.75 319.850006104
574810.5625 4177328.75 320.25
574811.1875 4177328.25 319.480010986
574811.25 4177328.75 319.579986572
574811.9375 4177328.75 319.859985352
574812.625 4177328.75 318.880004883
574813.3125 4177328.25 319.079986572
574813.625 4177328.75 323.070007324
574814.4375 4177328.5 322.130004883
574815.0625 4177328.75 322.200012207
574816.125 4177328.5 318.600006104
574816.8125 4177328.5 318.059997559
574793.5625 4177329 322.220001221
574798.5625 4177329.25 315.390014648
574799.3125 4177329.25 315.260009766
574800.875 4177329.25 318.730010986
574801.5625 4177329 318.559997559
574802 4177329.25 320.779998779
574802.625 4177329 321.369995117
574803.4375 4177329 318.309997559
574803.75 4177329.25 323.040008545
574804.6875 4177329 319.029998779
574805.125 4177329.25 322.200012207
574805.875 4177329 320.829986572
574806.5 4177329 321.649993896
574806.8125 4177329.25 318.589996338
574809.25 4177329 320.369995117
574809.875 4177329.25 320.149993896
574810.5625 4177329.25 320.929992676
574811.9375 4177329.25 320.359985352
574812.5 4177329.25 321.320007324
574813.125 4177329 322.109985352
574813.8125 4177329.25 321.970001221
574814.5 4177329 321.929992676
574815.0625 4177329.25 322.760009766
574816.6875 4177329.25 320.119995117
574790.875 4177330 324.089996338
574791.5 4177329.75 324.070007324
574792.125 4177329.5 324.160003662
574792.25 4177330 323.950012207
574792.875 4177329.75 323.019989014
574793.5625 4177329.5 322.489990234
574794.1875 4177329.75 322.25
574799.9375 4177329.75 315.290008545
574800.375 4177329.5 318.269989014
574801 4177329.75 318
574801.5 4177329.5 320.079986572
574802.25 4177329.75 318.160003662
574802.75 4177329.5 320.579986572
574803.125 4177329.75 322.890014648
574803.875 4177329.75 322.600006104
574804.4375 4177329.75 322.820007324
574805.125 4177329.75 323.079986572
574805.9375 4177329.5 320.209991455
574806.8125 4177330 318.950012207
574808.1875 4177330 318.380004883
574808.8125 4177329.75 317.989990234
574809.8125 4177330 321.820007324
574810.5625 4177330 321.910003662
574811.0625 4177329.5 322.429992676
574812.375 4177330 323.329986572
574813.25 4177329.5 321.320007324
574813.9375 4177329.75 321.010009766
574814.5625 4177329.5 321.760009766
574815.125 4177329.75 323.160003662
574816.0625 4177329.75 320.630004883
574816.6875 4177329.75 320.839996338
574790.375 4177330.5 323.269989014
574790.9375 4177330.5 324.170013428
574791.5 4177330.5 324.549987793
574792.25 4177330.5 324.160003662
574792.875 4177330.25 323.190002441
574793.625 4177330.25 322.529998779
574794.25 4177330.25 322.010009766
574795 4177330.25 321.850006104
574801.0625 4177330.25 317.619995117
574802.1875 4177330.25 319.380004883
574802.8125 4177330 320.320007324
574803 4177330.5 318.359985352
574803.25 4177330.25 321.739990234
574804 4177330.25 321.230010986
574804.4375 4177330.25 323.200012207
574805.125 4177330.5 323.880004883
574805.875 4177330.25 321.980010986
574806.8125 4177330.5 319.690002441
574807.4375 4177330 318.959991455
574807.5 4177330.5 318.850006104
574808.1875 4177330.5 318.709991455
574809.875 4177330.5 321.859985352
574810.625 4177330.5 321.390014648
574811.0625 4177330 322.799987793
574811.25 4177330.5 321.359985352
574811.75 4177330 323.239990234
574811.8125 4177330.5 323.309997559
574812.5 4177330.5 322.839996338
574813.125 4177330 323.339996338
574813.3125 4177330.5 321.459991455
574814 4177330.25 321.010009766
574814.75 4177330 320.450012207
574815.4375 4177330.25 320.010009766
574816.125 4177330.25 320.170013428
574816.75 4177330.25 320.339996338
574789.75 4177330.75 323.589996338
574790.3125 4177331 324.510009766
574791 4177331 323.950012207
574791.5625 4177331 324.350006104
574792.25 4177331.25 324.989990234
574792.9375 4177331 323.429992676
574793.75 4177330.75 322.029998779
574794.25 4177330.75 322.350006104
574795.1875 4177330.75 319.980010986
574801.8125 4177330.5 317.209991455
574803.0625 4177331.25 318.290008545
574803.5625 4177330.75 318.959991455
574803.9375 4177330.75 322.899993896
574804.5 4177330.75 323.660003662
574805.1875 4177331 323.720001221
574806.0625 4177330.75 320.230010986
574806.8125 4177331 319.839996338
574807.5625 4177331.25 318.739990234
574808.1875 4177331 319.589996338
574808.8125 4177331 319.109985352
574809.625 4177330.75 317.779998779
574810.0625 4177331 319.730010986
574810.75 4177331 320.799987793
574811.25 4177331 321.839996338
574811.9375 4177331 322.429992676
574812.5625 4177331 321.989990234
574813.375 4177331.25 321.329986572
574814 4177331 321.529998779
574814.8125 4177330.75 320.010009766
574815.4375 4177330.75 320.290008545
574816.25 4177330.75 319.869995117
574789.125 4177331.5 323.700012207
574789.8125 4177331.5 323.529998779
574790.3125 4177331.75 324.929992676
574791.0625 4177331.5 324.149993896
574791.625 4177331.5 324.470001221
574792.3125 4177331.75 324.799987793
574792.9375 4177331.5 323.75
574793.8125 4177331.25 321.549987793
574794.3125 4177331.25 322.839996338
574795.25 4177331.25 319.829986572
574802.4375 4177331.25 317.850006104
574803.75 4177331.75 318.079986572
574804.125 4177331.25 321.170013428
574804.6875 4177331.25 321.769989014
574805.25 4177331.5 323.140014648
574806 4177331.25 322.019989014
574807.5 4177331.75 319.700012207
574808.3125 4177331.75 318.299987793
574808.8125 4177331.5 320.019989014
574809.5 4177331.25 319.589996338
574809.9375 4177331.75 315.329986572
574810.125 4177331.5 319.779998779
574810.8125 4177331.5 320.149993896
574811.4375 4177331.75 320.649993896
574811.9375 4177331.75 322.739990234
574812.5625 4177331.5 322.609985352
574813.4375 4177331.75 321.290008545
574814.0625 4177331.5 320.899993896
574814.875 4177331.25 320.160003662
574814.9375 4177331.75 319.980010986
574815.5 4177331.5 320.149993896
574789.8125 4177332 324.399993896
574790.4375 4177332.25 324.350006104
574791.125 4177332.25 324.109985352
574791.625 4177332 324.579986572
574792.75 4177332 320.380004883
574793.0625 4177332 322.779998779
574793.75 4177331.75 323.339996338
574793.875 4177332.25 322.369995117
574794.5 4177331.75 321.25
574794.75 4177332.25 318.809997559
574795.25 4177331.75 320.339996338
574804.1875 4177332 321.010009766
574804.8125 4177331.75 320.549987793
574805 4177332.25 319.339996338
574805.4375 4177332 321.959991455
574806.0625 4177331.75 321.359985352
574807.5 4177332.25 320.589996338
574808.25 4177332.25 320.130004883
574808.75 4177332.25 320.970001221
574809.75 4177332.25 318.109985352
574810.5 4177332 316.299987793
574810.9375 4177332 319.809997559
574811.4375 4177332.25 320.619995117
574812.25 4177332 320.160003662
574812.75 4177332 321.660003662
574813.625 4177332.25 319.690002441
574814.125 4177332 321.260009766
574815.5625 4177332 320.269989014
574788.75 4177333 322.940002441
574789.25 4177332.75 323.5
574789.9375 4177332.5 323.679992676
574790.5 4177332.75 324.290008545
574791.1875 4177332.75 323.739990234
574791.9375 4177332.5 322.130004883
574792.5 4177332.75 323.869995117
574793.375 4177332.5 319.690002441
574794.0625 4177332.75 320.390014648
574794.75 4177332.75 319.410003662
574798.25 4177332.75 323.160003662
574798.875 4177333 323.859985352
574804.1875 4177332.5 321.529998779
574807.6875 4177332.75 318.940002441
574808.25 4177332.75 320.230010986
574808.875 4177332.75 320.089996338
574809.9375 4177332.75 316.700012207
574810.25 4177332.5 319.320007324
574811 4177332.5 319.390014648
574811.5 4177332.75 320.809997559
574812.3125 4177332.75 319.779998779
574813 4177332.5 318.720001221
574788.8125 4177333.5 322.989990234
574789.3125 4177333.25 323.670013428
574790 4177333 323.109985352
574790.625 4177333.25 323.269989014
574791.3125 4177333.25 322.75
574791.8125 4177333.25 323.779998779
574792.5625 4177333.25 323.519989014
574793.25 4177333 321.670013428
574794.0625 4177333.5 321.320007324
574798.3125 4177333.25 322.839996338
574798.9375 4177333.5 324
574799.5 4177333.25 324.470001221
574806.125 4177333 322.309997559
574806.8125 4177333.25 322.179992676
574807.625 4177333.5 320.369995117
574808.1875 4177333.5 321.779998779
574808.5625 4177333.5 324.630004883
574810.5 4177333 316.940002441
574811.8125 4177333.25 317.609985352
574812.4375 4177333.25 318.649993896
574812.9375 4177333.25 320.049987793
574788.75 4177334 323.75
574789.4375 4177333.75 322.75
574790 4177333.5 323.630004883
574791.3125 4177333.75 323.679992676
574791.9375 4177333.75 323.070007324
574793.25 4177333.75 322.410003662
574794.75 4177334 320.489990234
574797.8125 4177334 322.670013428
574798.3125 4177334 323.309997559
574798.9375 4177334 324.529998779
574799.6875 4177333.75 322.690002441
574800.4375 4177334 321.970001221
574801.0625 4177333.75 321.5
574804.5625 4177334 319.190002441
574805 4177334 321.299987793
574805.6875 4177333.5 320.799987793
574805.875 4177334 318.950012207
574806.1875 4177333.5 322.160003662
574806.75 4177334 324.029998779
574807.4375 4177334 323.170013428
574808.0625 4177334 324.040008545
574808.5 4177334 325.720001221
574809.4375 4177333.75 323.390014648
574811.875 4177333.75 317.480010986
574813.0625 4177333.75 319.690002441
574788.875 4177334.5 323.339996338
574789.4375 4177334.25 323.390014648
574790 4177334.25 324.549987793
574790.25 4177334.75 321.829986572
574790.625 4177334.5 324.410003662
574791.9375 4177334.25 323.410003662
574792.625 4177334.5 323.959991455
574793.3125 4177334.25 322.410003662
574794.1875 4177334.5 320.720001221
574794.8125 4177334.5 320.670013428
574797.875 4177334.5 322.519989014
574798.1875 4177334.5 325.779998779
574799.4375 4177334.5 326.010009766
574800.625 4177334.5 327.109985352
574804.5625 4177334.5 320.049987793
574804.9375 4177334.5 322.109985352
574806.1875 4177334.25 322.609985352
574806.5625 4177334.5 318.769989014
574806.75 4177334.5 324.410003662
574807.5 4177334.5 322.869995117
574807.9375 4177334.75 326.029998779
574808.5625 4177334.5 326.149993896
574809.5 4177334.25 323.070007324
574813.1875 4177334.25 318.290008545
574814.4375 4177334.25 328.640014648
574815.875 4177334.25 327.230010986
574816.5625 4177334.5 327.190002441
574789 4177335 322.660003662
574789.625 4177334.75 322.010009766
574790.3125 4177335.25 321.950012207
574790.75 4177335 323.880004883
574792 4177334.75 323.230010986
574792.5625 4177335 325.179992676
574793.25 4177334.75 324.279998779
574794.25 4177335 320.869995117
574794.8125 4177335.25 321.200012207
574795.5 4177335.25 320.859985352
574797.25 4177335 321.899993896
574797.5 4177335.25 327.260009766
574798.125 4177335.25 326.959991455
574798.75 4177334.75 327.390014648
574799.5625 4177335 325.239990234
574800.0625 4177334.75 327.390014648
574800.625 4177335 327.570007324
574801.625 4177334.75 324.339996338
574802.1875 4177335 324.700012207
574803.375 4177335 318.970001221
574803.9375 4177335.25 319.799987793
574804.4375 4177335.25 321.660003662
574805 4177335.25 321.929992676
574805.5 4177334.75 323.850006104
574806.75 4177335 324.950012207
574808.0625 4177335.25 325.260009766
574808.75 4177335 324.440002441
574809.5 4177334.75 323.730010986
574813.1875 4177335.25 327.829986572
574813.8125 4177335 327.989990234
574814.5 4177334.75 328.279998779
574816 4177335 326.769989014
574816.5 4177335 327.940002441
574789.125 4177335.5 321.600006104
574790.75 4177335.5 324.470001221
574791.375 4177335.5 324.609985352
574791.8125 4177335.5 326.100006104
574792.6875 4177335.5 324.75
574793.1875 4177335.5 325.290008545
574794.25 4177335.75 320.929992676
574794.8125 4177335.75 321.279998779
574795.625 4177335.75 320.029998779
574796.875 4177335.5 320.190002441
574797.3125 4177335.75 321.929992676
574797.625 4177335.75 326.720001221
574798.3125 4177335.75 325.309997559
574798.75 4177335.25 327.829986572
574799.375 4177335.75 327.899993896
574800.125 4177335.25 327.220001221
574800.875 4177335.5 325.339996338
574801.6875 4177335.25 324.209991455
574801.6875 4177336 324.510009766
574802.25 4177335.5 324.489990234
574803.75 4177335.75 322.100006104
574805.5 4177335.5 324.390014648
574806.0625 4177335.25 325.410003662
574806.8125 4177335.75 325.239990234
574807.4375 4177335.75 325
574808.1875 4177335.75 324.279998779
574809.5 4177335.25 324.549987793
574813.1875 4177335.75 328.380004883
574813.75 4177335.75 329.089996338
574814.625 4177335.25 327.089996338
574814.8125 4177335.75 325.75
574815.375 4177335.5 326.220001221
574816 4177335.5 326.910003662
574816.5625 4177335.5 328.350006104
574789.25 4177336.25 320.850006104
574789.8125 4177336 320.899993896
574790.3125 4177336.25 323.079986572
574790.9375 4177336 322.489990234
574791.375 4177336 324.890014648
574791.9375 4177336 325.760009766
574792.625 4177336.25 325.690002441
574793.5625 4177336.5 322.339996338
574794.3125 4177336.25 321.100006104
574795 4177336.25 320.260009766
574795.375 4177336.25 323.519989014
574796.9375 4177336 320.350006104
574797.5625 4177336.25 320
574797.75 4177336.25 325.899993896
574798.125 4177336.25 328.390014648
574798.6875 4177336 329.130004883
574798.875 4177336.5 327.809997559
574799.5 4177336.25 327.279998779
574800.125 4177336 327.829986572
574800.25 4177336.5 327.089996338
574800.8125 4177336.25 326.869995117
574801.8125 4177336.5 323.570007324
574802.1875 4177336 325.910003662
574803.1875 4177336.25 322.369995117
574803.8125 4177336.25 322.190002441
574804.1875 4177336 325.670013428
574805.1875 4177336.25 321.399993896
574805.4375 4177336 325.869995117
574806.125 4177336 325.350006104
574806.8125 4177336.25 325.880004883
574808.0625 4177336.25 326.779998779
574808.625 4177336.25 327.230010986
574810.25 4177336 323.799987793
574812.5 4177336.25 328.299987793
574813.25 4177336.25 328.570007324
574813.875 4177336.25 328.420013428
574814.8125 4177336.5 326.350006104
574815.5625 4177336 324.570007324
574815.9375 4177336 328.459991455
574816.75 4177336 326.440002441
574789.8125 4177337 321.920013428
574790.375 4177337 322.700012207
574790.75 4177336.75 325.459991455
574791.4375 4177336.5 325.089996338
574791.9375 4177336.5 326.309997559
574792.875 4177336.5 323.119995117
574793.5 4177337 323.25
574794.4375 4177336.75 320.459991455
574795.4375 4177337 323.619995117
574796.9375 4177336.5 321.049987793
574797.4375 4177336.75 321.790008545
574798.125 4177336.75 321.489990234
574798.3125 4177336.75 326.470001221
574798.875 4177337 328.450012207
574799.4375 4177336.75 328.910003662
574800.5 4177337 324.369995117
574800.875 4177336.75 327.089996338
574801.625 4177337 326.25
574802.1875 4177336.5 326.269989014
574803.25 4177336.75 322.019989014
574803.9375 4177337 321.359985352
574804.1875 4177336.5 326.239990234
574804.5625 4177337 321.880004883
574804.75 4177337 327.070007324
574805.4375 4177336.5 326.670013428
574806.0625 4177336.5 326.489990234
574806.0625 4177337 326.739990234
574806.75 4177336.75 326.890014648
574807.375 4177337 326.899993896
574808.0625 4177337 326.760009766
574808.625 4177336.75 327.739990234
574810.25 4177336.75 323.890014648
574811.375 4177336.75 326.410003662
574812.125 4177336.75 325.920013428
574812.9375 4177336.75 324.140014648
574813.375 4177337 327.489990234
574813.9375 4177336.75 328.260009766
574814.6875 4177337 328.420013428
574815.3125 4177336.75 328.279998779
574816 4177336.5 328.25
574789.875 4177337.5 322
574790.5 4177337.5 322.25
574790.9375 4177337.25 323.739990234
574791.5 4177337.25 324.859985352
574792 4177337 326.359985352
574792.0625 4177337.75 326.079986572
574793.125 4177337 321.269989014
574793.625 4177337.5 322.359985352
574794.3125 4177337.25 322.049987793
574794.8125 4177337.5 323.769989014
574795.375 4177337.5 325.279998779
574796 4177337.25 324.660003662
574796.5625 4177337.25 325.429992676
574797.25 4177337.5 325.200012207
574798.25 4177337.5 328.260009766
574799.125 4177337.5 325.890014648
574799.5 4177337.5 328.429992676
574800.625 4177337.5 323.839996338
574801.0625 4177337.25 325.429992676
574802.25 4177337.25 326.200012207
574803.6875 4177337.5 324.859985352
574804.25 4177337.5 326.480010986
574804.8125 4177337.5 326.679992676
574805.5625 4177337 325.910003662
574806.125 4177337.5 326.859985352
574806.9375 4177337.25 325.019989014
574807.375 4177337.5 327.720001221
574808.125 4177337.5 326.779998779
574810.75 4177337.25 326.839996338
574811.4375 4177337.25 326.260009766
574812.125 4177337.25 326.730010986
574812.75 4177337.25 327.109985352
574813.625 4177337.25 324.899993896
574813.9375 4177337.25 328.869995117
574814.75 4177337.5 328.540008545
574815.3125 4177337.25 328.579986572
574816 4177337.25 328.720001221
574816.8125 4177337.25 326.880004883
574789.3125 4177337.75 321.609985352
574789.9375 4177338.25 321.660003662
574790.5625 4177338 321.959991455
574791 4177337.75 323.600006104
574791.5625 4177337.75 324.790008545
574792.375 4177338 322.660003662
574793.125 4177337.75 321.920013428
574793.1875 4177338.25 321.899993896
574793.75 4177338 321.829986572
574794.25 4177338 323.679992676
574794.6875 4177338 325.510009766
574795.5 4177338 323.859985352
574796.1875 4177337.75 322.690002441
574796.6875 4177337.75 324.959991455
574797.0625 4177338 327.959991455
574797.8125 4177338 326.869995117
574798.375 4177338 327.309997559
574799.125 4177338 326.790008545
574799.625 4177338 327.790008545
574800.6875 4177338 323.5
574801.0625 4177337.75 325.589996338
574801.875 4177338 325.010009766
574803.1875 4177338 324.489990234
574803.75 4177338 324.959991455
574804.3125 4177338.25 326.679992676
574804.9375 4177338 326.029998779
574805.5 4177337.75 327.200012207
574805.75 4177338.25 324.420013428
574806.375 4177338 324.209991455
574807.625 4177338 325.489990234
574808.125 4177338 327.549987793
574809.5625 4177338.25 326.309997559
574810.0625 4177338 327.170013428
574811.125 4177337.75 323.260009766
574812.0625 4177338 328.130004883
574812.6875 4177337.75 328.299987793
574813.625 4177338 326.059997559
574814.3125 4177337.75 324.609985352
574814.875 4177338 327.049987793
574815.375 4177337.75 328.519989014
574816.1875 4177337.75 327.339996338
574816.3125 4177338.25 326.769989014
574816.75 4177337.75 328.029998779
574789.4375 4177338.25 321.200012207
574790 4177338.75 321.720001221
574790.5625 4177338.5 322.359985352
574791.0625 4177338.25 323.640014648
574791.375 4177338.75 320.440002441
574791.625 4177338.25 324.829986572
574791.75 4177338.75 324
574792.375 4177338.75 323.519989014
574793.5625 4177338.75 324.859985352
574794 4177338.5 327.010009766
574794.75 4177338.5 325.570007324
574795.5625 4177338.5 324
574796.75 4177338.25 324.850006104
574797.875 4177338.5 326.75
574798.4375 4177338.5 326.779998779
574799 4177338.5 328.339996338
574799.8125 4177338.5 325.769989014
574800.4375 4177338.75 326.829986572
574801.25 4177338.25 324.510009766
574801.875 4177338.75 325.459991455
574803.1875 4177338.5 325.109985352
574803.8125 4177338.75 324.559997559
574804.6875 4177338.5 322.359985352
574805.1875 4177338.5 323.489990234
574807.375 4177338.75 328.529998779
574808.125 4177338.75 328.25
574809.5625 4177338.75 326.769989014
574810 4177338.5 328.5
574810.6875 4177338.5 328.850006104
574811.625 4177338.5 325.700012207
574812.0625 4177338.5 328.510009766
574812.8125 4177338.5 327.290008545
574813.625 4177338.5 326.640014648
574814.1875 4177338.25 327.329986572
574814.5625 4177338.75 323.109985352
574814.875 4177338.75 327.619995117
574815.5 4177338.25 327.910003662
574816.8125 4177338.25 327.910003662
574789.5 4177339 320.920013428
574790.625 4177339 322.220001221
574791.5625 4177339.25 319.109985352
574791.75 4177339.25 324.649993896
574792.3125 4177339.25 324.970001221
574792.8125 4177339 326.429992676
574793.5 4177339.25 326.070007324
574794.1875 4177339 325.450012207
574794.75 4177339.25 326.510009766
574795.5625 4177339.25 324.5
574796.125 4177339 324.559997559
574800.5 4177339.25 326.75
574801.1875 4177338.75 325.320007324
574803.5 4177339 322.179992676
574804.75 4177339.25 322.540008545
574805.25 4177339 323.320007324
574805.5 4177339.5 328.730010986
574806.1875 4177339.25 328.230010986
574807.4375 4177339.25 328.980010986
574808.4375 4177339 325.149993896
574810.0625 4177339 328.75
574811 4177339 325.970001221
574811.5625 4177339 326.820007324
574813.9375 4177339 323.420013428
574814.625 4177339.25 323.160003662
574814.9375 4177339.25 327.980010986
574815.5 4177339 328.170013428
574816.3125 4177339.5 327.959991455
574790.75 4177339.75 321.290008545
574791.4375 4177339.75 320.929992676
574791.8125 4177340 324.130004883
574792.375 4177339.75 324.579986572
574792.875 4177339.5 326.619995117
574793.0625 4177340 324.760009766
574793.5 4177340 326.739990234
574794.125 4177339.75 327.359985352
574795.5625 4177339.75 325.339996338
574796.25 4177339.5 323.899993896
574797 4177340 323.540008545
574798.5625 4177339.5 327.070007324
574799.3125 4177339.75 325.950012207
574799.875 4177339.5 326.519989014
574804 4177339.75 323.570007324
574806.25 4177339.75 328.100006104
574806.9375 4177339.5 327.399993896
574807.5 4177339.75 328.190002441
574808.5625 4177339.5 323.910003662
574809.1875 4177339.5 323.660003662
574809.5625 4177340 328.040008545
574811.5 4177339.75 328.420013428
574813.25 4177340 323.980010986
574814 4177339.5 323.519989014
574814.6875 4177340 322.940002441
574815.5 4177339.5 328.450012207
574815.5625 4177340 328.290008545
574790.8125 4177340.25 321.630004883
574791.5 4177340.5 320.470001221
574791.875 4177340.5 324.130004883
574792.4375 4177340.25 324.5
574793.125 4177340.5 324.690002441
574793.5625 4177340.5 326.630004883
574794.1875 4177340.25 327.200012207
574794.8125 4177340.25 326.540008545
574797.0625 4177340.5 323.420013428
574797.25 4177340.25 327.579986572
574797.9375 4177340.25 327.809997559
574798.5625 4177340.25 327.410003662
574799.25 4177340.25 327.700012207
574800.5625 4177340.25 327.130004883
574806.25 4177340.5 328.170013428
574807.0625 4177340.25 326.660003662
574807.75 4177340.25 325.880004883
574809.5625 4177340.5 328.600006104
574810.875 4177340 328.470001221
574811.375 4177340.5 322.950012207
574811.5 4177340.25 329.089996338
574812.25 4177340.25 328.519989014
574812.75 4177340.5 322.809997559
574813.375 4177340.5 323.019989014
574814.625 4177340.5 323.940002441
574815.3125 4177340.25 324.480010986
574816 4177340.5 324.320007324
574816.5625 4177340.5 325.5
574790.8125 4177340.75 322.179992676
574791.5 4177341 321.700012207
574792 4177341 323.239990234
574792.5 4177341 324.559997559
574793.25 4177341 323.940002441
574793.5625 4177341 326.959991455
574794.3125 4177340.75 325.760009766
574794.8125 4177341 327.350006104
574796.875 4177341.25 326.399993896
574797.3125 4177340.75 327.540008545
574797.9375 4177340.75 328.029998779
574798.5625 4177340.75 327.850006104
574799.375 4177340.75 326.769989014
574799.9375 4177340.75 326.809997559
574800.625 4177341 327.010009766
574807 4177340.75 328.410003662
574807.6875 4177340.75 327.839996338
574808.625 4177340.75 324.720001221
574809.0625 4177340.75 326.869995117
574809.625 4177341 328.790008545
574810.6875 4177341 323.809997559
574811.4375 4177341 322.859985352
574812 4177341.25 323.630004883
574812.0625 4177340.5 322.640014648
574812.8125 4177341 323.049987793
574813.5 4177341 322.380004883
574814.125 4177341.25 323.149993896
574814.1875 4177340.5 322.179992676
574814.75 4177341 323.470001221
574815.25 4177340.75 325.630004883
574816.125 4177341 323.100006104
574816.5 4177341 326.910003662
574790.9375 4177341.25 321.299987793
574791.75 4177341.5 319.010009766
574792.125 4177341.5 322.130004883
574792.5 4177341.5 325.489990234
574793.125 4177341.75 326.010009766
574793.8125 4177341.5 325.049987793
574794.3125 4177341.25 326.529998779
574795 4177341.5 325.910003662
574796.875 4177341.75 327.170013428
574797.375 4177341.25 327.429992676
574798.0625 4177341.25 327.709991455
574798.75 4177341.25 326.779998779
574799.4375 4177341.25 326.309997559
574799.9375 4177341.25 327.510009766
574807.125 4177341.25 327.470001221
574807.75 4177341.5 327.149993896
574808.625 4177341.25 324.929992676
574809 4177341.25 328.209991455
574809.625 4177341.5 328.920013428
574811.5 4177341.5 323.320007324
574812.875 4177341.5 322.549987793
574813.5 4177341.5 322.350006104
574814.25 4177341.75 322.670013428
574814.75 4177341.5 324.029998779
574815.5 4177341.25 323.029998779
574816.125 4177341.5 323.690002441
574816.5 4177341.5 327.350006104
574791.3125 4177342.25 318.200012207
574791.625 4177342 321.089996338
574792.25 4177342 321.630004883
574792.5 4177342 326.079986572
574793.3125 4177342.25 324.690002441
574793.875 4177342 324.670013428
574794.3125 4177342 327.220001221
574795 4177342 326.410003662
574795.8125 4177342 324.260009766
574796.875 4177342.25 327.25
574797.75 4177341.75 323.589996338
574798.1875 4177341.75 326.440002441
574798.25 4177342.25 326.339996338
574798.8125 4177342.25 326.709991455
574798.8125 4177341.75 325.890014648
574799.4375 4177342 327.170013428
574800 4177342.25 328.049987793
574801.4375 4177342.25 326.149993896
574804.5 4177342 328.019989014
574805.875 4177342 327.299987793
574806.4375 4177342 328.010009766
574808.125 4177341.75 323.359985352
574808.875 4177341.75 323.130004883
574809 4177341.75 328.670013428
574809.1875 4177342.25 326.809997559
574810 4177342 325.459991455
574810.3125 4177341.75 329.070007324
574810.75 4177342.25 323.859985352
574811.125 4177342.25 327.989990234
574812.1875 4177342.25 323.089996338
574812.875 4177342.25 322.950012207
574813.5625 4177342.25 322.589996338
574814.25 4177342.25 322.980010986
574814.9375 4177342 322.130004883
574815.6875 4177341.75 321.619995117
574791.25 4177343 319.170013428
574791.75 4177342.5 320.130004883
574792.1875 4177342.75 322.720001221
574792.8125 4177342.5 322.839996338
574793.25 4177342.75 325.660003662
574794 4177342.5 323.899993896
574794.4375 4177342.5 326.429992676
574795.1875 4177342.5 324.670013428
574796.9375 4177342.75 327.160003662
574797.5625 4177342.5 326.75
574798.25 4177343 327.190002441
574798.8125 4177343 327.130004883
574799.5 4177342.5 326.869995117
574800.3125 4177342.75 324.929992676
574800.9375 4177342.5 325.299987793
574801.5 4177342.75 326.350006104
574802.125 4177342.5 326.290008545
574803.875 4177342.75 328.369995117
574804.625 4177342.5 327.529998779
574806 4177342.75 326.940002441
574808.25 4177342.5 323.019989014
574808.25 4177343 323.149993896
574808.8125 4177342.5 324.190002441
574809.9375 4177342.5 326.540008545
574810.5625 4177342.75 327
574811.125 4177342.75 328.489990234
574812.1875 4177342.75 323.880004883
574812.9375 4177342.75 322.829986572
574813.625 4177342.75 322.450012207
574814.4375 4177342.75 321.809997559
574815 4177342.75 322.440002441
574815.5 4177342.5 324.329986572
574816.1875 4177342.75 324.029998779
574816.9375 4177342.5 323.820007324
574791.75 4177343.25 320.779998779
574792.25 4177343.25 322.619995117
574792.6875 4177343 324.570007324
574793.5 4177343.25 323.609985352
574794.125 4177343 323.109985352
574794.5625 4177343 325.299987793
574795.125 4177343 325.829986572
574795.75 4177343 326.529998779
574796.5 4177343.5 324.970001221
574797.25 4177343.25 323.989990234
574797.5625 4177343 327.380004883
574798.25 4177343.5 327.470001221
574798.8125 4177343.5 328.109985352
574799.6875 4177343 325.470001221
574799.75 4177343.5 325.359985352
574800.375 4177343.25 324.769989014
574800.9375 4177343 326.25
574801.4375 4177343.25 327.600006104
574802.25 4177343 326.010009766
574802.8125 4177343.25 326.140014648
574803.3125 4177343 327.980010986
574804.625 4177343.25 327.790008545
574805.125 4177343.25 329.369995117
574805.75 4177343.25 330.489990234
574806.5 4177343.25 328.359985352
574807.125 4177343 329.089996338
574807.3125 4177343.5 327.359985352
574808.625 4177343 327.100006104
574809.125 4177343 328.679992676
574809.25 4177343.5 327.559997559
574810.1875 4177343 324.079986572
574810.625 4177343.5 327.040008545
574812.1875 4177343.5 324.059997559
574812.875 4177343.25 324.059997559
574813.75 4177343.25 321.920013428
574814.375 4177343.5 322.619995117
574815.0625 4177343.25 322.209991455
574815.6875 4177343 322.989990234
574816.25 4177343.25 324.350006104
574791.9375 4177343.75 319.279998779
574792.625 4177343.75 319.119995117
574792.875 4177343.75 323.459991455
574793.5 4177343.75 323.869995117
574794.125 4177343.75 323.309997559
574794.5 4177343.5 327.140014648
574795.1875 4177343.5 326.200012207
574795.75 4177343.75 326.929992676
574796.5625 4177344 325.320007324
574797.6875 4177343.5 326.790008545
574797.875 4177344 325
574798.6875 4177344 322.829986572
574799.375 4177344 322
574799.75 4177344 325.309997559
574800.9375 4177343.5 326.200012207
574802.3125 4177343.75 325.480010986
574803 4177343.75 324.959991455
574803.375 4177343.75 327.959991455
574804.0625 4177343.75 327.510009766
574804.75 4177343.75 327.390014648
574805.125 4177343.75 329.970001221
574806.125 4177343.75 326.070007324
574806.625 4177343.75 327.709991455
574807.1875 4177344 329.679992676
574808.1875 4177343.5 324.529998779
574808.25 4177344 324.200012207
574812.9375 4177344 323.920013428
574815 4177343.75 323.350006104
574815.625 4177344 324.519989014
574815.6875 4177343.5 323.899993896
574816.25 4177343.75 324.839996338
574792 4177344.25 319.200012207
574792.6875 4177344.25 318.549987793
574793 4177344.25 322.709991455
574793.5625 4177344.5 323.609985352
574793.9375 4177344.25 326.269989014
574794.5625 4177344.25 327.079986572
574794.5625 4177344.75 327.070007324
574795.125 4177344.25 327.089996338
574795.9375 4177344.25 325.730010986
574796.625 4177344.5 325.049987793
574797.375 4177344.5 324.100006104
574798 4177344.5 324.260009766
574798.5625 4177344.5 325.029998779
574799.4375 4177344.5 322.019989014
574800.125 4177344.5 321.730010986
574800.625 4177344.5 322.980010986
574801 4177344.25 326.109985352
574801.375 4177344.75 322.709991455
574801.9375 4177344.25 322.910003662
574802.5625 4177344.25 322.809997559
574802.6875 4177344.75 322.619995117
574803.4375 4177344.25 328.109985352
574803.8125 4177344.75 324.429992676
574804.125 4177344.25 327.200012207
574804.625 4177344.25 329.600006104
574805.1875 4177344.25 329.559997559
574805.625 4177344.75 325.049987793
574806 4177344.25 328.420013428
574806.75 4177344.25 326.730010986
574807.1875 4177344.75 329.989990234
574808.3125 4177344.75 324.450012207
574808.5625 4177344.25 328.739990234
574809.25 4177344.5 328.640014648
574810 4177344.25 327.820007324
574810.6875 4177344.5 327.529998779
574812.9375 4177344.5 324.619995117
574815.125 4177344.25 322.880004883
574815.6875 4177344.75 324.820007324
574816.25 4177344.25 325.630004883
574792.625 4177344.75 320.200012207
574793 4177344.75 322.929992676
574793.375 4177345.25 318.929992676
574793.6875 4177345 322.980010986
574794.0625 4177344.75 325.579986572
574794.875 4177345.25 324.140014648
574795.25 4177344.75 326.799987793
574795.3125 4177345.25 326.450012207
574795.875 4177344.75 326.820007324
574796.625 4177345 325.420013428
574797.5 4177345 322.769989014
574798.0625 4177345 323.459991455
574798.8125 4177345 322.559997559
574799.5 4177345 321.730010986
574800.25 4177345 321.299987793
574800.5625 4177345 324.600006104
574801.375 4177345.25 323.089996338
574802 4177345 322.700012207
574802.6875 4177345.25 323.059997559
574803.25 4177344.75 323.320007324
574803.8125 4177345.25 324.899993896
574803.9375 4177344.75 329.760009766
574804.5 4177345.25 323.929992676
574804.75 4177344.75 328.299987793
574805.6875 4177345.25 325.410003662
574806.0625 4177345 328.279998779
574806.75 4177344.75 327.670013428
574807.3125 4177345.25 329.380004883
574808.25 4177345.25 325.720001221
574814.4375 4177345 324.019989014
574815.0625 4177345 324.040008545
574815.75 4177345.25 324.290008545
574816.375 4177344.75 324.660003662
574791.75 4177345.75 316.700012207
574792.25 4177345.25 317.359985352
574792.3125 4177345.75 317.359985352
574792.8125 4177345.25 318.579986572
574793.5 4177345.75 318.390014648
574793.8125 4177345.5 322.079986572
574794.1875 4177345.5 324.739990234
574794.9375 4177345.75 324.279998779
574795.375 4177345.75 326.010009766
574795.9375 4177345.25 326.760009766
574796.0625 4177345.75 326.25
574796.75 4177345.75 325.019989014
574797.375 4177345.5 325.100006104
574799.3125 4177345.5 324.679992676
574799.9375 4177345.75 325.529998779
574800.625 4177345.5 324.649993896
574801.4375 4177345.75 323.339996338
574802.6875 4177345.75 323.730010986
574803.25 4177345.5 323.170013428
574803.8125 4177345.75 325.609985352
574804.5625 4177345.75 323.609985352
574805 4177345.25 326.350006104
574805.125 4177345.75 325.410003662
574805.625 4177345.75 326.619995117
574806.125 4177345.5 328.010009766
574806.625 4177345.5 329.350006104
574806.9375 4177345.75 326.570007324
574807.3125 4177345.75 329.720001221
574814.4375 4177345.75 324.809997559
574815.0625 4177345.5 324.390014648
574815.75 4177345.75 324.890014648
574816.375 4177345.5 324.700012207
