# .PCD v.7 - Point Cloud Data file format
VERSION .7
FIELDS x y z
SIZE 4 4 4
TYPE F F F
COUNT 1 1 1
WIDTH 56
HEIGHT 1
VIEWPOINT 0 0 0 1 0 0 0
POINTS 56
DATA ascii
574749.5625 4177118 321.299987793
574750.8125 4177118 320.779998779
574751 4177118 319.5
574751.0625 4177118 320.079986572
574751.125 4177118.25 319.940002441
574749.75 4177119.5 320.559997559
574751 4177119.25 320.209991455
574749.75 4177120 320.799987793
574749.875 4177119.75 320.910003662
574751.0625 4177120 320.570007324
574751.25 4177119.75 320.119995117
574752.25 4177120 321.790008545
574752.375 4177119.75 321.929992676
574749.875 4177120.5 320.429992676
574749.875 4177120.25 321.679992676
574749.9375 4177120.75 321.209991455
574751.0625 4177120.75 321.269989014
574751.25 4177120.5 320.970001221
574752.3125 4177120.5 321.619995117
574752.4375 4177120.25 321.660003662
574752.4375 4177120.5 321.579986572
574749.875 4177121 320.600006104
574750 4177121 320.910003662
574750.0625 4177121.25 319.109985352
574750.125 4177121 319.440002441
574751.1875 4177121 319.899993896
574751.25 4177121 321.529998779
574752.375 4177120.75 321.079986572
574752.5 4177121 319.980010986
574752.5 4177121 321.260009766
574752.625 4177121.25 320.339996338
574751.25 4177121.5 319.950012207
574751.3125 4177121.25 320.929992676
574751.375 4177121.75 318.989990234
574751.4375 4177121.5 320.089996338
574751.5 4177121.75 319.070007324
574752.625 4177121.5 319.010009766
574752.6875 4177121.75 320.429992676
574752.6875 4177122 318.890014648
574750.1875 4177122 318.230010986
574750.375 4177122.25 318.450012207
574751.4375 4177122.25 318.850006104
574751.5625 4177122.25 318.890014648
574752.6875 4177122.25 320.399993896
574752.75 4177122.5 318.579986572
574752.875 4177122 318.130004883
574752.9375 4177122.5 318.269989014
574750.25 4177122.75 318.329986572
574750.375 4177123 317.440002441
574750.375 4177122.75 318.470001221
574750.4375 4177123 318.25
574751.5 4177122.75 318.279998779
574751.625 4177123 317.75
574751.625 4177122.5 318.450012207
574751.6875 4177123 318.160003662
574751.75 4177123.25 317.720001221
