# .PCD v.7 - Point Cloud Data file format
VERSION .7
FIELDS x y z
SIZE 4 4 4
TYPE F F F
COUNT 1 1 1
WIDTH 117
HEIGHT 1
VIEWPOINT 0 0 0 1 0 0 0
POINTS 117
DATA ascii
574792.375 4177161 324.100006104
574792.6875 4177161 323.410003662
574794.25 4177161 321.079986572
574795.25 4177161.25 323.130004883
574791.375 4177161.75 323.950012207
574792.4375 4177161.75 324.149993896
574792.75 4177161.5 323.230010986
574793.9375 4177161.5 322.549987793
574794 4177161.75 321.480010986
574794.1875 4177161.75 322.350006104
574795.3125 4177161.75 322.450012207
574795.5 4177161.75 320.200012207
574791.125 4177162 324.140014648
574792.5 4177162.25 323.720001221
574792.625 4177162.5 322.709991455
574792.75 4177162 323.480010986
574792.875 4177162.5 323.059997559
574794.0625 4177162.25 321.369995117
574794.375 4177162 320.690002441
574794.4375 4177162.5 320.440002441
574795.5 4177162.25 324.010009766
574795.75 4177162 320.450012207
574796.5 4177162.25 325
574796.8125 4177162.25 324.179992676
574790.0625 4177163 321.670013428
574790.3125 4177162.75 321.320007324
574791.1875 4177162.5 323.609985352
574791.375 4177162.75 322.019989014
574791.5 4177162.75 323.5
574792.9375 4177163 322.959991455
574796.625 4177162.75 324.410003662
574796.875 4177162.75 324.510009766
574791.375 4177163.5 322.649993896
574791.5 4177163.25 324.019989014
574791.6875 4177163.5 322.109985352
574792.6875 4177163 322.839996338
574792.8125 4177163.25 321.140014648
574793 4177163.5 322.529998779
574793.9375 4177163.5 324.230010986
574794.25 4177163.25 320.290008545
574795.1875 4177163.5 325.799987793
574795.5 4177163.5 325.089996338
574798.3125 4177163.25 321.640014648
574790.3125 4177163.75 322.959991455
574791.5 4177164 321.910003662
574791.6875 4177164 322.609985352
574792.875 4177163.75 321.029998779
574793.0625 4177163.75 322.209991455
574794.25 4177163.75 323.75
574794.3125 4177163.75 320.529998779
574794.3125 4177164.25 323.600006104
574794.5625 4177164 320.679992676
574795.3125 4177163.75 324.570007324
574795.5625 4177164 325.309997559
574796.5625 4177163.75 326.130004883
574796.8125 4177163.75 326.519989014
574797 4177163.75 324.079986572
574798.5625 4177163.75 321.989990234
574799.75 4177164.25 322.329986572
574790.0625 4177164.5 323.070007324
574790.3125 4177164.25 322.950012207
574790.375 4177164.75 322.899993896
574791.5625 4177164.25 321.040008545
574791.75 4177164.5 322.019989014
574791.875 4177164.75 320.929992676
574792.9375 4177164.5 321.609985352
574793.125 4177164.25 321.859985352
574793.3125 4177164.25 319.399993896
574794.5 4177164.75 319.170013428
574794.75 4177164.75 319.040008545
574795.375 4177164.5 324.600006104
574795.625 4177164.5 324.549987793
574795.75 4177164.75 323.429992676
574796.5625 4177164.5 326.890014648
574796.8125 4177164.5 324.010009766
574796.9375 4177164.5 322.5
574797 4177164.5 324.779998779
574798.375 4177164.75 322.350006104
574798.5625 4177164.5 322.579986572
574799.75 4177164.75 322.529998779
574790.125 4177165 322.869995117
574790.5 4177165.25 322.359985352
574791.625 4177165 321.359985352
574792 4177165 320.149993896
574793.25 4177165.25 321.429992676
574794.25 4177165 322.670013428
574794.5 4177165 322.130004883
574794.5625 4177165.25 318.649993896
574794.9375 4177165 317.820007324
574795.5 4177165 324.019989014
574795.6875 4177165 321.380004883
574795.8125 4177165.25 320.779998779
574795.875 4177165 322.769989014
574796.125 4177165 319.380004883
574797 4177165 325.329986572
574797.25 4177164.75 322.109985352
574798.4375 4177165.25 322.179992676
574798.625 4177165 322.609985352
574798.6875 4177165.5 322.279998779
574790.25 4177165.5 322.559997559
574790.5 4177165.75 322.630004883
574794.8125 4177166 319.779998779
574795.8125 4177166 320.769989014
574796 4177166 321.820007324
574796.125 4177165.75 317.570007324
574796.8125 4177165.75 324.989990234
574797.125 4177165.5 321.790008545
574797.3125 4177165.75 319.510009766
574797.5 4177165.5 320.570007324
574799.75 4177165.5 322.950012207
574790.3125 4177166 322.299987793
574794.5625 4177166 320.010009766
574794.875 4177166.5 319.929992676
574797.125 4177166 325.149993896
574797.3125 4177166.5 320.5
574797.5625 4177166 320.079986572
574797.5625 4177166.75 320.399993896
