# .PCD v.7 - Point Cloud Data file format
VERSION .7
FIELDS x y z
SIZE 4 4 4
TYPE F F F
COUNT 1 1 1
WIDTH 139
HEIGHT 1
VIEWPOINT 0 0 0 1 0 0 0
POINTS 139
DATA ascii
574590.25 4177307.25 317.029998779
574588.5625 4177308.25 316.809997559
574589.0625 4177308 316.700012207
574589.75 4177307.75 316.760009766
574589.8125 4177308.25 316.910003662
574590.25 4177308 317.040008545
574591 4177308 317.299987793
574586.0625 4177308.5 316.859985352
574586.625 4177308.75 316.899993896
574587.3125 4177308.75 316.809997559
574587.875 4177308.75 316.790008545
574588.5625 4177308.75 316.890014648
574589.0625 4177308.5 317.010009766
574589.8125 4177308.75 316.799987793
574590.3125 4177308.5 316.880004883
574591.0625 4177308.5 316.799987793
574586.125 4177309.25 316.910003662
574586.6875 4177309.25 316.769989014
574587.375 4177309.25 316.970001221
574587.875 4177309.25 316.700012207
574588.625 4177309.25 316.760009766
574589.125 4177309 316.899993896
574589.875 4177309.5 316.929992676
574590.375 4177309 316.720001221
574591.125 4177309 317.140014648
574591.625 4177309 317.059997559
574586.1875 4177309.75 316.799987793
574586.6875 4177309.75 316.880004883
574587.4375 4177309.75 316.899993896
574587.9375 4177309.75 316.820007324
574588.6875 4177309.75 316.929992676
574589.1875 4177309.75 316.730010986
574589.9375 4177310 316.929992676
574591.1875 4177309.75 317
574591.6875 4177309.5 317.109985352
574591.75 4177310 317.029998779
574586.1875 4177310.25 316.700012207
574586.75 4177310.5 316.950012207
574587.5 4177310.25 316.739990234
574588 4177310.25 317
574588.75 4177310.5 316.799987793
574589.25 4177310.25 316.75
574590 4177310.5 316.899993896
574590.5 4177310 316.709991455
574591.1875 4177310.25 317.079986572
574591.75 4177310.5 316.910003662
574586.25 4177310.75 316.700012207
574586.8125 4177311 316.799987793
574587.5 4177311 316.709991455
574588 4177311 316.839996338
574588.75 4177311 316.950012207
574589.25 4177310.75 316.760009766
574590 4177311 316.880004883
574590.5 4177310.75 316.920013428
574591.25 4177310.75 316.769989014
574591.8125 4177311.25 316.779998779
574586.8125 4177311.5 316.869995117
574588.8125 4177311.5 316.940002441
574589.3125 4177311.25 316.75
574590.0625 4177311.75 316.959991455
574590.5 4177311.25 317.160003662
574591.3125 4177311.25 316.940002441
574591.875 4177311.75 316.790008545
574592.625 4177311.75 316.869995117
574587.625 4177312 316.790008545
574588.125 4177312 316.75
574588.875 4177312 316.769989014
574589.375 4177312 316.739990234
574590.0625 4177312.25 316.989990234
574590.5625 4177311.75 317.059997559
574590.6875 4177312.25 316.700012207
574591.3125 4177312 317
574591.875 4177312.25 317.059997559
574592.6875 4177312.25 316.809997559
574587.625 4177312.5 316.940002441
574588.1875 4177312.5 316.790008545
574588.875 4177312.75 316.829986572
574589.4375 4177312.5 316.779998779
574590.125 4177312.75 316.989990234
574590.6875 4177313 316.760009766
574591.375 4177312.5 316.779998779
574591.9375 4177312.75 317
574592.6875 4177312.75 316.820007324
574587 4177313.25 316.790008545
574587.6875 4177313.25 316.839996338
574588.1875 4177313.25 316.850006104
574588.9375 4177313.25 316.929992676
574589.5 4177313 316.760009766
574590.1875 4177313.25 316.929992676
574590.75 4177313.5 316.75
574591.4375 4177313 316.779998779
574592 4177313.5 316.910003662
574592.75 4177313.25 316.959991455
574593.3125 4177313.25 316.850006104
574587.75 4177313.75 316.869995117
574588.25 4177313.75 316.970001221
574589 4177313.75 316.779998779
574589.5 4177313.5 316.910003662
574590.25 4177313.75 317
574590.75 4177314 316.899993896
574591.5 4177313.5 316.829986572
574592.0625 4177314 316.899993896
574592.75 4177314 316.950012207
574593.3125 4177314 316.820007324
574587.75 4177314.25 316.899993896
574588.3125 4177314.25 316.899993896
574589 4177314.25 316.899993896
574589.5625 4177314.25 316.910003662
574589.5625 4177314.75 316.980010986
574590.25 4177314.5 317.010009766
574590.8125 4177314.5 317.029998779
574591.5 4177314.25 317.019989014
574591.5625 4177314.75 317.040008545
574592.125 4177314.5 316.799987793
574592.8125 4177314.5 316.989990234
574593.375 4177314.5 317.089996338
574588.3125 4177314.75 316.940002441
574589.0625 4177315 316.839996338
574589.625 4177315.25 317.070007324
574590.3125 4177315 316.880004883
574590.875 4177315.25 316.709991455
574591.625 4177315.25 316.929992676
574592.125 4177315 316.799987793
574592.875 4177315 316.950012207
574593.4375 4177315 316.940002441
574588.375 4177315.5 316.829986572
574589.125 4177315.5 316.700012207
574589.6875 4177315.75 316.869995117
574590.375 4177315.5 316.690002441
574590.9375 4177315.75 316.739990234
574591.6875 4177315.75 316.880004883
574592.1875 4177315.75 317.019989014
574592.9375 4177315.5 317.010009766
574588.4375 4177316 316.880004883
574589.75 4177316.5 316.929992676
574590.4375 4177316 316.809997559
574590.9375 4177316.25 317.040008545
574588.5 4177316.5 316.790008545
574589.1875 4177316.5 316.880004883
