# .PCD v.7 - Point Cloud Data file format
VERSION .7
FIELDS x y z
SIZE 4 4 4
TYPE F F F
COUNT 1 1 1
WIDTH 143
HEIGHT 1
VIEWPOINT 0 0 0 1 0 0 0
POINTS 143
DATA ascii
574739.375 4177118.25 307.679992676
574739.5625 4177118.25 307.480010986
574741.8125 4177118.25 308.480010986
574742.9375 4177118.25 310.170013428
574743.0625 4177118 309.950012207
574743.3125 4177118.25 307.869995117
574748 4177118 311.929992676
574740.625 4177118.5 309.519989014
574741.8125 4177118.75 310.559997559
574742.9375 4177119 310.709991455
574743.125 4177118.5 310.079986572
574743.125 4177118.75 308.220001221
574743.3125 4177118.75 308.049987793
574744.3125 4177118.5 309.200012207
574744.4375 4177118.5 309.549987793
574747.875 4177118.75 312.369995117
574748.0625 4177119 312.100006104
574739.5625 4177119 308.149993896
574740.5 4177119.25 310.260009766
574740.625 4177119.25 308.529998779
574740.6875 4177119 309.529998779
574740.75 4177119.25 309.149993896
574740.875 4177119.5 307.910003662
574741.75 4177119.25 310.079986572
574741.9375 4177119 309.980010986
574742.125 4177119.5 307.739990234
574744.375 4177119.25 309.390014648
574748.125 4177119.5 312.25
574739.3125 4177120 310.200012207
574739.4375 4177120 310.329986572
574740.75 4177119.75 308.160003662
574740.875 4177120 308.220001221
574741.75 4177120 310.869995117
574741.9375 4177119.75 310.769989014
574742 4177119.75 307.579986572
574742.1875 4177119.75 307.570007324
574744.5 4177119.75 310.079986572
574746.875 4177120 310.850006104
574747 4177120 310.809997559
574748.125 4177120 312.239990234
574739.5 4177120.75 310.920013428
574740.75 4177120.25 308.070007324
574742.0625 4177120.25 307.839996338
574742.25 4177120.25 307.739990234
574744.5 4177120.5 311.279998779
574745.5625 4177120.25 311.320007324
574745.625 4177120.75 311.019989014
574746.875 4177120.5 311.140014648
574747.0625 4177120.5 310.899993896
574748.0625 4177120.5 312.309997559
574748.1875 4177120.25 312.049987793
574748.3125 4177120.5 311.279998779
574749.3125 4177120.5 312.279998779
574739.3125 4177121 311.279998779
574739.5 4177121.25 311.070007324
574740.8125 4177121 310.209991455
574740.9375 4177121.25 309.209991455
574742.125 4177121 307.989990234
574742.25 4177120.75 307.839996338
574743.5625 4177121.25 308.220001221
574745.8125 4177120.75 310.970001221
574747 4177121 310.730010986
574747.125 4177121 310.579986572
574748.125 4177121 311.700012207
574748.3125 4177121.25 311.880004883
574749.375 4177121 312.339996338
574738.375 4177121.75 308.109985352
574739.5 4177121.75 311.480010986
574740.75 4177121.5 310.019989014
574741.0625 4177121.5 308.190002441
574741.125 4177121.75 307.869995117
574742.1875 4177121.5 308
574742.3125 4177121.25 308
574742.375 4177121.75 308.010009766
574743.4375 4177121.5 307.890014648
574745.6875 4177121.5 311.600006104
574747.0625 4177121.5 310.440002441
574747.1875 4177121.5 310.649993896
574748.1875 4177121.5 311.559997559
574748.3125 4177121.75 312.190002441
574736.0625 4177122.25 308.359985352
574737.25 4177122.25 307.950012207
574737.3125 4177122 308.25
574738.4375 4177122.25 308
574738.625 4177122 308
574738.625 4177122.5 307.970001221
574739.375 4177122.25 312.320007324
574739.5625 4177122.5 311.980010986
574739.75 4177122.25 308.029998779
574739.875 4177122.25 307.850006104
574740.9375 4177122 308.220001221
574742.1875 4177122 308.220001221
574742.375 4177122.5 308.269989014
574747.125 4177122 310.119995117
574747.1875 4177122 311.109985352
574737.4375 4177123 308.239990234
574738.5 4177123 308.119995117
574738.6875 4177123 308.079986572
574739.4375 4177122.75 311.920013428
574740.625 4177122.5 312.119995117
574741 4177122.5 308.059997559
574741.125 4177122.5 308.700012207
574741.1875 4177123 308.209991455
574742.25 4177122.75 308.359985352
574742.4375 4177122.75 308.130004883
574743.5625 4177122.75 308.040008545
574747.125 4177123 311.339996338
574747.25 4177123 311.239990234
574752.3125 4177123 311.480010986
574738.75 4177123.5 308.230010986
574741.0625 4177123.25 308.079986572
574741.25 4177123.5 308.309997559
574742.3125 4177123.25 308.200012207
574742.5 4177123.25 308.190002441
574747.3125 4177123.5 311.600006104
574748.4375 4177123.5 311.220001221
574748.5625 4177123.75 311.950012207
574752.125 4177123.25 311.75
574752.3125 4177123.5 311.940002441
574753.375 4177123.5 312.070007324
574739.875 4177124.25 308.510009766
574742.375 4177123.75 308.040008545
574742.5625 4177123.75 307.989990234
574748.5 4177124.25 311.450012207
574748.625 4177124 311.200012207
574749.6875 4177123.75 311.829986572
574749.75 4177124.25 311.260009766
574749.875 4177123.75 311.399993896
574751.125 4177124.25 312.089996338
574742.375 4177124.5 308.540008545
574742.5625 4177124.5 308.899993896
574748.6875 4177124.5 311.559997559
574750.9375 4177124.25 312.019989014
574752.25 4177125 312.130004883
574752.3125 4177125.5 312.239990234
574752.5 4177125.5 311.829986572
574749.875 4177126.25 312.220001221
574750.125 4177126.25 311.359985352
574751.125 4177126 312.290008545
574750.125 4177126.75 311.429992676
574750.125 4177127.5 310.700012207
574750.1875 4177127.25 311.799987793
574750.3125 4177127.5 310.760009766
