# .PCD v.7 - Point Cloud Data file format
VERSION .7
FIELDS x y z
SIZE 4 4 4
TYPE F F F
COUNT 1 1 1
WIDTH 473
HEIGHT 1
VIEWPOINT 0 0 0 1 0 0 0
POINTS 473
DATA ascii
574765.375 4177118.25 317.559997559
574766.5 4177118 317.529998779
574766.6875 4177118.25 317.579986572
574767.875 4177118 316.790008545
574768 4177118.25 317.230010986
574769 4177118 318.489990234
574769.1875 4177118.25 318.589996338
574770.375 4177118.25 318.290008545
574771.75 4177118 317.540008545
574771.9375 4177118.25 317.950012207
574774.375 4177118.25 317.989990234
574778 4177118 321.679992676
574778.125 4177117.75 321.579986572
574778.1875 4177118.25 321.320007324
574779.3125 4177118.25 321.600006104
574779.4375 4177118 322.329986572
574779.4375 4177118.25 320.450012207
574779.5 4177118.25 321.799987793
574763.6875 4177118.75 320.880004883
574763.875 4177118.75 320.850006104
574765 4177118.75 320.429992676
574765.1875 4177118.75 318.420013428
574766.5 4177118.75 318.480010986
574767.9375 4177118.5 316.730010986
574768.0625 4177118.75 317.100006104
574770.5 4177118.75 319.010009766
574771.75 4177118.5 317.820007324
574771.9375 4177119 318.239990234
574772.9375 4177118.5 319.899993896
574773.0625 4177118.75 319.970001221
574774.5625 4177118.5 317.970001221
574778 4177118.75 322.290008545
574779.5625 4177118.5 320.760009766
574760.1875 4177119.25 319.440002441
574760.25 4177119.5 318.529998779
574761.25 4177119 319.540008545
574761.4375 4177119.5 319.859985352
574762.5625 4177119 319.119995117
574762.75 4177119.25 319.299987793
574763.75 4177119.25 320.700012207
574763.9375 4177119.25 320.519989014
574765.1875 4177119.5 319.350006104
574765.3125 4177119.25 319.290008545
574766.6875 4177119.25 318.809997559
574768 4177119.5 318.75
574768.25 4177119.25 315.510009766
574769 4177119 320.029998779
574769.0625 4177119.5 319.369995117
574769.125 4177119.25 320.489990234
574769.1875 4177119.5 320.029998779
574770.3125 4177119.25 320.399993896
574770.5625 4177119.25 319.470001221
574771.8125 4177119 317.880004883
574772 4177119.25 318.140014648
574773.0625 4177119.5 319.190002441
574773.125 4177119 319.910003662
574773.25 4177119.25 318.630004883
574774.4375 4177119.5 318.220001221
574774.625 4177119 317.929992676
574775.6875 4177119 318.760009766
574775.75 4177119.5 318.519989014
574775.875 4177119.25 318.609985352
574776 4177119.25 317.029998779
574778.125 4177119 322.779998779
574778.3125 4177119.5 321.079986572
574779.4375 4177119.25 321.440002441
574779.5625 4177119 321.480010986
574760.125 4177119.75 319.029998779
574760.25 4177120 319.140014648
574761.3125 4177119.5 319.429992676
574761.4375 4177120 318.899993896
574761.5 4177119.75 319.529998779
574761.5625 4177120 318.739990234
574762.625 4177119.5 319.010009766
574762.75 4177119.75 317.809997559
574762.8125 4177119.5 319.119995117
574763.75 4177120 321.350006104
574763.9375 4177119.75 320.899993896
574766.375 4177120.25 321.109985352
574766.5625 4177120.25 320.850006104
574766.625 4177120 318.519989014
574766.8125 4177120 318.329986572
574767.8125 4177119.75 319.239990234
574769.1875 4177120 320.679992676
574770.3125 4177119.75 320.440002441
574770.5625 4177119.75 319.529998779
574771.875 4177119.5 317.929992676
574772.0625 4177119.5 317.570007324
574772.125 4177120 317.450012207
574773.25 4177120 319.489990234
574776.0625 4177119.75 317.279998779
574776.75 4177119.75 322.010009766
574776.9375 4177119.75 322.029998779
574777.25 4177119.75 318.339996338
574778 4177119.75 323.489990234
574778.125 4177119.75 321.980010986
574778.125 4177119.75 323.489990234
574778.3125 4177119.75 319.829986572
574778.4375 4177119.75 320.019989014
574778.5625 4177119.75 318.730010986
574779.5 4177119.75 321.420013428
574779.5625 4177120.25 320.959991455
574779.5625 4177119.75 322.570007324
574779.625 4177120.25 321.929992676
574760.125 4177120.5 319.059997559
574760.3125 4177120.5 319.109985352
574761.5 4177120.5 318.329986572
574761.6875 4177120.25 318.070007324
574761.75 4177120.75 317.600006104
574762.8125 4177120.5 317.910003662
574762.9375 4177120.25 317.890014648
574763.125 4177120.75 316.179992676
574763.8125 4177120.5 321.369995117
574763.9375 4177120.25 321.200012207
574764.125 4177120.75 317.890014648
574765.125 4177120.75 321.600006104
574765.25 4177120.25 321.279998779
574766.6875 4177120.25 317.820007324
574766.875 4177120.25 317.910003662
574768.0625 4177120.25 317.470001221
574768.125 4177120.5 318.279998779
574768.1875 4177120.75 317.679992676
574769 4177120.5 321.380004883
574770.4375 4177120.25 320
574770.625 4177120.5 320
574771.8125 4177120.5 319.149993896
574773.0625 4177120.25 320.160003662
574773.25 4177120.5 320.190002441
574776.8125 4177120.25 322.170013428
574777 4177120.25 322.209991455
574778.25 4177120.5 321
574779.625 4177120.75 320.839996338
574779.75 4177120.25 320.859985352
574761.5625 4177120.75 317.850006104
574761.8125 4177121.25 317.700012207
574763.875 4177121 320.820007324
574764 4177121 321.570007324
574764.0625 4177121 320.720001221
574764.3125 4177120.75 318.100006104
574764.3125 4177121.25 316.309997559
574765.1875 4177121 320.929992676
574765.25 4177121 322.019989014
574765.3125 4177121.25 321.75
574765.375 4177121 318.630004883
574766.875 4177120.75 318.170013428
574768.0625 4177121 317.690002441
574768.25 4177121.25 317.839996338
574769.0625 4177121 321.519989014
574769.1875 4177120.75 321.480010986
574769.25 4177121.25 321.540008545
574770.4375 4177121 320.570007324
574771.9375 4177121 318.679992676
574772.0625 4177121 319.140014648
574773.0625 4177121 320.540008545
574773.1875 4177121.25 319.529998779
574774.25 4177121.25 322.519989014
574774.375 4177120.75 322.380004883
574775.5625 4177121.25 322.700012207
574775.75 4177121.25 320.769989014
574775.9375 4177121 320.089996338
574776.875 4177120.75 322.130004883
574776.9375 4177121.25 321.739990234
574777.125 4177121 321.670013428
574777.1875 4177121 318.519989014
574777.3125 4177120.75 319.119995117
574777.375 4177121 318.079986572
574778.4375 4177121 321.609985352
574779.75 4177120.75 319.420013428
574782.625 4177121 319.239990234
574761.625 4177121.25 317.679992676
574761.75 4177121.75 317.329986572
574761.875 4177121.5 317.359985352
574764.375 4177121.75 316.049987793
574765.4375 4177121.25 320.209991455
574765.4375 4177121.5 318.519989014
574765.5625 4177121.5 318.75
574766.75 4177121.75 318.959991455
574766.875 4177121.5 318.929992676
574768.125 4177121.5 318.010009766
574768.25 4177121.75 318.559997559
574769.125 4177121.5 321.279998779
574769.3125 4177121.75 321.320007324
574770.5 4177121.5 320.690002441
574770.6875 4177121.5 320.529998779
574770.6875 4177122 320.359985352
574772 4177121.75 320.429992676
574773.1875 4177121.5 321.940002441
574773.3125 4177121.5 320.260009766
574774.25 4177121.75 323.019989014
574774.375 4177121.5 323.149993896
574774.5 4177121.5 322.100006104
574775.875 4177121.5 319.320007324
574775.9375 4177121.5 320.369995117
574776.0625 4177121.75 319.220001221
574778.25 4177121.5 321.959991455
574778.375 4177121.75 321.290008545
574778.5 4177121.5 321.570007324
574778.5 4177122 321.420013428
574779.8125 4177121.25 319.420013428
574779.9375 4177121.5 320.049987793
574779.9375 4177121.5 318.239990234
574780 4177121.75 319.670013428
574780.125 4177121.75 318.179992676
574781.4375 4177121.75 318.130004883
574782.6875 4177121.5 319.029998779
574761.8125 4177122.25 316.989990234
574761.875 4177122 317.790008545
574763.25 4177122.25 316.700012207
574766.9375 4177122 319.049987793
574767 4177122.25 318.410003662
574768.125 4177122.5 318.769989014
574769.1875 4177122 321.049987793
574769.375 4177122 321.010009766
574769.4375 4177122.5 318.510009766
574770.5 4177122.25 321.179992676
574770.625 4177122.25 319.609985352
574770.8125 4177122.25 319.579986572
574770.875 4177122.25 318.660003662
574773.0625 4177122.5 321.950012207
574773.25 4177122.5 322.230010986
574774.3125 4177122.5 323.130004883
574774.5 4177122.25 323.109985352
574774.5 4177122.5 321.100006104
574774.625 4177122.25 321.230010986
574776.0625 4177122.25 319.929992676
574777.1875 4177122.5 320.179992676
574777.375 4177122.5 319.709991455
574778.5 4177122 320.089996338
574778.5625 4177122.25 321.339996338
574781.625 4177122.25 316.769989014
574782.5625 4177122 319.260009766
574782.6875 4177122.25 320.010009766
574761.8125 4177123 317.559997559
574761.9375 4177122.5 317.739990234
574763.125 4177123 316.920013428
574768.125 4177123 319.010009766
574768.25 4177122.5 319.549987793
574768.3125 4177123 318.980010986
574769.25 4177122.5 320.970001221
574769.375 4177122.5 321.350006104
574769.4375 4177123 320.910003662
574769.625 4177123 319.079986572
574773.1875 4177122.75 321.5
574773.3125 4177122.75 321.390014648
574773.375 4177123 320.929992676
574774.6875 4177122.75 321.369995117
574774.9375 4177122.75 316.029998779
574775.125 4177122.75 315.850006104
574775.9375 4177122.75 320.179992676
574776.1875 4177123 318.970001221
574777.3125 4177122.75 319.589996338
574777.4375 4177122.75 319.440002441
574777.5625 4177123 318.149993896
574778.5 4177122.5 320.079986572
574778.625 4177122.75 318.989990234
574778.625 4177122.5 320.690002441
574778.75 4177122.75 319.970001221
574779.875 4177122.75 320.239990234
574780.0625 4177122.75 320.190002441
574781.375 4177122.75 318.429992676
574781.625 4177122.5 315.429992676
574781.625 4177123 317.410003662
574781.75 4177123 316.029998779
574782.6875 4177122.75 320.160003662
574782.6875 4177122.75 318.290008545
574782.8125 4177123 319.140014648
574783.0625 4177123 316.320007324
574761.875 4177123.5 317.239990234
574762 4177123.5 315.619995117
574762.1875 4177123.5 315.809997559
574768.1875 4177123.5 318.940002441
574768.375 4177123.25 318.720001221
574769.375 4177123.5 320.519989014
574769.5625 4177123.5 317.850006104
574773.25 4177123.25 320.809997559
574773.375 4177123.5 320.029998779
574773.4375 4177123.5 321.149993896
574773.5625 4177123.75 319.739990234
574774.5 4177123.25 322.049987793
574774.6875 4177123.5 321.809997559
574774.9375 4177123.5 317.540008545
574775.1875 4177123.25 316.079986572
574776 4177123.25 319.459991455
574776.0625 4177123.5 319.209991455
574776.25 4177123.5 318.799987793
574777.5625 4177123.25 317.149993896
574777.625 4177123.5 318.309997559
574777.6875 4177123.75 317.399993896
574778.6875 4177123.5 319.640014648
574778.8125 4177123.25 319.339996338
574779.9375 4177123.25 320.040008545
574780.125 4177123.25 319.920013428
574782.75 4177123.5 319
574783 4177123.25 315.559997559
574762.0625 4177124.25 315.739990234
574762.1875 4177124 316.010009766
574768.4375 4177123.75 318.929992676
574768.5 4177124.25 318.339996338
574769.5625 4177123.75 320.380004883
574769.6875 4177123.75 317.450012207
574772.25 4177124 319.869995117
574773.5 4177123.75 319.109985352
574773.625 4177124 319.109985352
574775.1875 4177124 316.859985352
574776.1875 4177124 318.230010986
574776.3125 4177123.75 318.369995117
574776.375 4177124.25 318.25
574777.5625 4177124 317.290008545
574777.75 4177124.25 317.679992676
574778.6875 4177124.25 319.980010986
574778.8125 4177123.75 319.709991455
574781.625 4177124 316.940002441
574781.75 4177124 317.440002441
574762.25 4177124.5 315.989990234
574769.9375 4177124.75 317.029998779
574772.25 4177124.75 320.820007324
574772.375 4177124.75 319.440002441
574773.5 4177124.5 319.609985352
574773.625 4177124.75 320.059997559
574775 4177124.75 317.839996338
574775.125 4177124.5 317.700012207
574776.1875 4177124.5 318.75
574776.4375 4177124.75 318.269989014
574778.875 4177124.25 320.070007324
574760.875 4177125 315.579986572
574773.5 4177125.25 320.119995117
574773.6875 4177125.25 320.059997559
574773.75 4177125 317.179992676
574773.875 4177125 317.350006104
574773.9375 4177125.25 317.220001221
574775.1875 4177125 317.670013428
574776.5 4177125.25 318.350006104
574759.875 4177125.75 315.529998779
574773.8125 4177125.5 317.089996338
574774 4177126 317.470001221
574774.875 4177126 320.239990234
574777.5 4177126 320.850006104
574777.6875 4177126 320.510009766
574778.875 4177125.75 319.660003662
574779.125 4177126 318.989990234
574773.8125 4177126.25 317.450012207
574774 4177126.5 317.529998779
574775.125 4177126 319.730010986
574776.125 4177126.5 321.429992676
574776.375 4177126.5 320.980010986
574777.625 4177126.5 321.329986572
574778.9375 4177126.25 319.140014648
574779.0625 4177126.5 318.160003662
574779.1875 4177126.25 318.859985352
574775.125 4177126.75 320.149993896
574776.25 4177126.75 320.390014648
574776.375 4177127 321.309997559
574777.5 4177126.75 321.549987793
574777.625 4177127 320.160003662
574777.75 4177126.75 320.390014648
574777.8125 4177127.25 320.010009766
574776.3125 4177127.25 320.369995117
574776.375 4177127.5 321.769989014
574776.4375 4177127.5 319.239990234
574777.9375 4177127.5 319.059997559
574776.375 4177128.25 322.470001221
574777.5625 4177128 322
574778.9375 4177128 321.489990234
574779 4177128.25 320.5
574779.125 4177128 321.200012207
574779.1875 4177128.25 320.619995117
574779.25 4177128.25 318.200012207
574776.4375 4177128.75 322.410003662
574776.5625 4177129 321.5
574777.5625 4177128.75 322.339996338
574777.8125 4177128.5 319.299987793
574777.8125 4177128.5 321.179992676
574777.9375 4177128.75 320.070007324
574779.25 4177128.75 320.390014648
574779.3125 4177128.75 317.700012207
574780.5 4177128.5 319.359985352
574780.5625 4177129 318.489990234
574776.375 4177129.5 321.730010986
574776.625 4177129.5 321.429992676
574776.625 4177129 318.529998779
574777.875 4177129 319.470001221
574778 4177129.25 318.5
574778 4177129 319.549987793
574778.125 4177129.25 319.149993896
574778.125 4177129.5 316.690002441
574778.3125 4177129.25 316.820007324
574779.3125 4177129 320.029998779
574779.375 4177129.5 319.880004883
574780.625 4177129.5 318.559997559
574780.8125 4177129 318.470001221
574776.6875 4177129.75 320.579986572
574776.9375 4177130 315.910003662
574778.1875 4177130 316.959991455
574778.3125 4177129.75 317.070007324
574779.1875 4177129.75 319.940002441
574780.8125 4177129.75 318.809997559
574780.875 4177130 318.429992676
574776.6875 4177130.5 319.440002441
574778.25 4177130.5 316.75
574778.375 4177130.25 317.410003662
574778.4375 4177130.75 316.630004883
574779.25 4177130.5 319.929992676
574779.375 4177130.25 320.579986572
574779.5 4177130.5 319.709991455
574780.6875 4177130.25 318.989990234
574780.9375 4177130.5 318.309997559
574777 4177130.75 316.529998779
574777.0625 4177131.25 316.140014648
574777.25 4177130.75 315.899993896
574779.3125 4177131 320.489990234
574779.5 4177131 320.329986572
574780.6875 4177130.75 319.209991455
574780.75 4177131.25 318.720001221
574781.0625 4177131.25 317.799987793
574777.125 4177131.75 316.160003662
574777.1875 4177131.5 316.929992676
574778.1875 4177131.75 318.640014648
574778.375 4177131.5 318.200012207
574779.375 4177131.5 319.869995117
574779.5625 4177131.5 319.890014648
574777.25 4177132 316.600006104
574778.25 4177132 318.230010986
574778.375 4177132.5 317.459991455
574778.375 4177132.25 318.720001221
574778.5 4177132.5 317.929992676
574779.4375 4177132 320.049987793
574779.5625 4177132.25 318.450012207
574779.625 4177132 319.869995117
574779.75 4177132 318.709991455
574779.8125 4177132.25 317.839996338
574779.6875 4177132.75 317.630004883
574779.9375 4177132.75 316.959991455
574781 4177132.75 317.339996338
574781.1875 4177132.75 318.019989014
574779.6875 4177133.25 317.920013428
574779.875 4177133.5 318.429992676
574781 4177133.5 318.459991455
574781.25 4177133.5 318.190002441
574782.375 4177133.5 318.160003662
574782.625 4177133.5 317.200012207
574779.6875 4177134.25 319.059997559
574779.9375 4177134 318.510009766
574781 4177134.25 319
574781.25 4177134 318.679992676
574782.4375 4177134 317.660003662
574782.625 4177134.25 318
574779.75 4177134.75 319.119995117
574779.9375 4177134.75 319.220001221
574781.125 4177134.75 318.720001221
574781.25 4177134.75 319.309997559
574779.8125 4177135.25 318.619995117
574780 4177135 318.149993896
574781.3125 4177135.25 319.269989014
574779.9375 4177135.5 317.880004883
574780 4177136 317.209991455
574780.0625 4177135.5 318.660003662
574780.1875 4177135.75 317.440002441
574781.1875 4177135.75 318.609985352
574781.5 4177135.75 317.859985352
574781.625 4177136 316.299987793
574778.8125 4177136.25 316.029998779
574778.9375 4177136.25 317.339996338
574780.0625 4177136.5 317.190002441
574780.25 4177136.25 317.320007324
574781.3125 4177136.25 317.440002441
574781.4375 4177136.5 316.489990234
574781.625 4177136.5 316.75
574780.25 4177136.75 315.739990234
574780.3125 4177136.75 317.089996338
574780.4375 4177136.75 315.779998779
574778.75 4177137.25 318.190002441
574780.25 4177137.5 316.010009766
574780.4375 4177137.25 315.859985352
