# .PCD v.7 - Point Cloud Data file format
VERSION .7
FIELDS x y z
SIZE 4 4 4
TYPE F F F
COUNT 1 1 1
WIDTH 983
HEIGHT 1
VIEWPOINT 0 0 0 1 0 0 0
POINTS 983
DATA ascii
574755.125 4177222.25 318.739990234
574753.9375 4177223 318.730010986
574754.8125 4177222.5 318.640014648
574755.1875 4177222.75 318.850006104
574753.5625 4177223.25 318.700012207
574753.9375 4177223.5 318.980010986
574754.875 4177223.25 318.760009766
574755.25 4177223.25 318.75
574752.375 4177223.75 318.779998779
574752.6875 4177223.75 319.179992676
574753.625 4177223.75 318.959991455
574754 4177224 318.910003662
574754.875 4177223.75 318.880004883
574755.25 4177224 319.179992676
574749.9375 4177224.75 318.690002441
574751.125 4177224.25 318.869995117
574751.5 4177224.5 319.019989014
574752.375 4177224.25 318.890014648
574752.75 4177224.25 318.730010986
574753.6875 4177224.5 319.119995117
574754.0625 4177224.75 319.010009766
574754.9375 4177224.25 318.940002441
574755.3125 4177224.5 318.929992676
574756.1875 4177224.25 319.019989014
574756.25 4177224.75 318.980010986
574749.9375 4177225.25 318.679992676
574750.3125 4177225 318.809997559
574751.1875 4177224.75 318.790008545
574751.5625 4177225 318.880004883
574752.4375 4177225 319.019989014
574752.8125 4177224.75 318.799987793
574753.6875 4177225 319.220001221
574754.125 4177225.25 319.140014648
574755 4177225 318.989990234
574755.375 4177225 319.109985352
574756.625 4177225.5 319.25
574747.8125 4177225.75 318.609985352
574748.75 4177225.75 318.940002441
574749.0625 4177225.5 318.660003662
574750 4177226 318.950012207
574750.375 4177225.5 318.859985352
574751.25 4177225.5 318.869995117
574751.25 4177226 318.970001221
574751.625 4177225.5 318.809997559
574752.5 4177225.5 318.910003662
574752.8125 4177225.5 319.239990234
574753.75 4177225.5 319.049987793
574754.1875 4177225.75 319.140014648
574755 4177225.5 319.369995117
574755.4375 4177225.5 319.269989014
574756.25 4177225.5 319.359985352
574746.625 4177226.25 318.739990234
574747.5 4177226.25 318.790008545
574747.875 4177226.25 318.899993896
574748.75 4177226.25 319.160003662
574749.125 4177226 318.730010986
574750.0625 4177226.5 319.100006104
574750.375 4177226.25 318.890014648
574751.6875 4177226 318.869995117
574752.5 4177226.25 319.470001221
574752.875 4177226 319.540008545
574752.9375 4177226.5 319.130004883
574753.8125 4177226.25 319.179992676
574754.1875 4177226.5 319.390014648
574755.0625 4177226 319.200012207
574755.4375 4177226.25 319.410003662
574756.3125 4177226 319.640014648
574756.6875 4177226 319.570007324
574745.4375 4177227 318.690002441
574746.25 4177226.75 319.019989014
574746.6875 4177226.75 318.700012207
574747.5625 4177226.75 318.970001221
574747.9375 4177227 319.149993896
574748.8125 4177226.75 318.820007324
574749.1875 4177226.75 318.929992676
574750.125 4177227 319.079986572
574750.4375 4177226.75 318.970001221
574751.3125 4177226.5 319.100006104
574751.6875 4177226.75 319.029998779
574752.625 4177226.75 319.040008545
574753 4177227.25 319.290008545
574753.875 4177226.75 319.519989014
574754.25 4177227 319.359985352
574755.125 4177226.75 319.220001221
574755.5 4177226.75 319.440002441
574756.375 4177226.5 319.529998779
574756.75 4177226.5 319.579986572
574756.8125 4177227 319.579986572
574744.25 4177227.25 318.410003662
574745.125 4177227.25 318.799987793
574745.5 4177227.5 318.760009766
574746.3125 4177227.25 319.019989014
574746.75 4177227.5 318.880004883
574747.625 4177227.25 318.869995117
574748 4177227.5 318.940002441
574748.875 4177227.5 319.140014648
574749.25 4177227.25 318.929992676
574750.125 4177227.75 319.290008545
574750.5 4177227.25 319.049987793
574751.375 4177227.25 319.390014648
574751.375 4177227.75 319.350006104
574751.75 4177227.25 319.170013428
574752.625 4177227.25 319.480010986
574753.0625 4177227.75 319.369995117
574753.9375 4177227.25 319.589996338
574754.3125 4177227.5 319.579986572
574755.1875 4177227.25 319.660003662
574755.5625 4177227.25 319.519989014
574756.4375 4177227.25 319.589996338
574756.8125 4177227.75 319.799987793
574757.6875 4177227.5 319.899993896
574743 4177228 318.510009766
574743.875 4177228 318.929992676
574744.25 4177228 318.709991455
574745.125 4177227.75 318.950012207
574745.5 4177228.25 318.859985352
574746.375 4177227.75 319.049987793
574746.75 4177228 318.890014648
574747.6875 4177228 319
574748.0625 4177228 318.929992676
574748.9375 4177228 319.230010986
574749.25 4177227.75 319.220001221
574750.1875 4177228.25 319.170013428
574750.5625 4177228 319.200012207
574751.4375 4177228.25 319.290008545
574751.8125 4177227.75 319.359985352
574752.6875 4177228 319.619995117
574753.0625 4177228.25 319.600006104
574754 4177228 319.420013428
574754.375 4177228 319.649993896
574755.25 4177227.75 319.779998779
574755.625 4177227.75 319.649993896
574756.5 4177227.75 319.630004883
574756.875 4177228.25 319.940002441
574757.75 4177228 319.899993896
574758.125 4177228.25 319.899993896
574741.5 4177229 318.720001221
574741.8125 4177228.5 318.679992676
574742.6875 4177228.5 319.010009766
574743.0625 4177228.5 318.899993896
574743.9375 4177228.5 318.920013428
574744.3125 4177228.5 318.709991455
574745.1875 4177228.25 318.850006104
574745.5625 4177228.75 319.130004883
574746.4375 4177228.25 318.920013428
574746.8125 4177228.75 319.290008545
574747.75 4177228.5 318.890014648
574748.0625 4177228.75 319.290008545
574749 4177228.5 319.209991455
574749.3125 4177228.5 319.299987793
574750.25 4177228.75 319.279998779
574750.5625 4177228.5 319.549987793
574751.5 4177228.75 319.390014648
574751.8125 4177228.5 319.390014648
574752.75 4177228.5 319.640014648
574753.125 4177228.75 319.510009766
574754 4177228.5 319.609985352
574754.375 4177228.75 319.660003662
574755.3125 4177228.5 319.579986572
574755.625 4177228.5 319.820007324
574756.5 4177228.25 319.859985352
574756.5625 4177229 319.880004883
574756.9375 4177228.75 319.709991455
574757.8125 4177228.5 320.010009766
574758.1875 4177229 319.970001221
574740.25 4177229.25 318.549987793
574740.625 4177229 318.5
574741.5 4177229.5 318.890014648
574741.875 4177229 318.989990234
574742.75 4177229 318.910003662
574743.125 4177229.25 318.720001221
574744 4177229 318.959991455
574744.3125 4177229 319.239990234
574745.25 4177229 319.260009766
574745.625 4177229.25 319.260009766
574746.5 4177229 319.230010986
574746.875 4177229.25 319.329986572
574747.75 4177229 319.25
574748.125 4177229.25 319.089996338
574749 4177229 319.320007324
574749.375 4177229 319.380004883
574750.25 4177229.25 319.510009766
574750.625 4177229 319.630004883
574751.875 4177229 319.470001221
574752.75 4177229 319.709991455
574753.1875 4177229.5 319.510009766
574754.0625 4177229 319.739990234
574754.4375 4177229.25 319.899993896
574755.3125 4177229 319.630004883
574755.75 4177229 319.649993896
574757 4177229.5 319.890014648
574757.8125 4177229 320.059997559
574758.25 4177229.5 320.130004883
574739.0625 4177229.75 318.450012207
574739.375 4177229.75 318.820007324
574740.3125 4177230 318.690002441
574740.6875 4177229.75 318.670013428
574741.5625 4177230 318.820007324
574741.9375 4177229.75 318.720001221
574742.8125 4177229.5 318.769989014
574743.1875 4177229.75 318.850006104
574744.0625 4177229.75 319
574744.375 4177229.75 319.190002441
574745.25 4177229.5 319.279998779
574745.6875 4177230 319.149993896
574746.5625 4177229.5 319.160003662
574746.9375 4177229.75 319.399993896
574747.8125 4177229.75 319.119995117
574748.1875 4177229.75 319.269989014
574749.0625 4177229.75 319.359985352
574749.375 4177229.5 319.540008545
574750.3125 4177230 319.630004883
574750.6875 4177229.75 319.519989014
574751.5625 4177229.5 319.760009766
574751.625 4177230 319.529998779
574751.9375 4177229.5 319.609985352
574752.8125 4177229.75 319.799987793
574753.25 4177230 319.809997559
574754.125 4177229.75 319.730010986
574754.5 4177229.75 319.649993896
574755.375 4177229.5 319.790008545
574755.75 4177229.5 319.649993896
574756.625 4177229.5 320.049987793
574756.6875 4177230 320.019989014
574757.0625 4177230 320.019989014
574757.9375 4177229.75 319.980010986
574758.25 4177230 320.25
574739.0625 4177230.5 319
574739.4375 4177230.25 318.739990234
574740.375 4177230.5 318.850006104
574740.6875 4177230.25 318.910003662
574741.625 4177230.75 319.149993896
574741.9375 4177230.25 319.119995117
574742.8125 4177230 318.869995117
574743.1875 4177230.25 319.209991455
574744.125 4177230.25 318.980010986
574744.4375 4177230.25 319.299987793
574745.3125 4177230 319.299987793
574745.6875 4177230.5 319.399993896
574746.5625 4177230 319.200012207
574746.9375 4177230.25 319.459991455
574747.875 4177230.25 319.399993896
574748.25 4177230.25 319.130004883
574749.125 4177230.25 319.600006104
574749.4375 4177230.25 319.660003662
574750.375 4177230.5 319.739990234
574750.75 4177230.25 319.549987793
574751.625 4177230.75 319.679992676
574752 4177230 319.579986572
574752.875 4177230.25 319.829986572
574753.25 4177230.5 320.010009766
574754.1875 4177230.25 319.720001221
574754.5625 4177230.5 319.890014648
574755.4375 4177230 319.760009766
574755.8125 4177230.25 320.109985352
574756.75 4177230.75 320.160003662
574757.0625 4177230.5 320.049987793
574757.9375 4177230.25 320.079986572
574758.3125 4177230.5 320.170013428
574759.1875 4177230.25 320.220001221
574739.125 4177231 318.640014648
574739.5 4177231 318.779998779
574740.375 4177231 318.910003662
574740.75 4177230.75 318.829986572
574741.625 4177231.25 319.279998779
574742 4177230.75 319.029998779
574742.875 4177230.75 318.940002441
574743.25 4177230.75 319.119995117
574744.125 4177230.75 319.290008545
574744.5 4177230.75 319.079986572
574745.375 4177230.75 319.459991455
574745.75 4177231 319.510009766
574746.625 4177230.75 319.429992676
574746.6875 4177231.25 319.399993896
574747 4177231 319.510009766
574747.875 4177230.75 319.570007324
574748.25 4177231 319.540008545
574749.1875 4177230.75 319.579986572
574749.5 4177230.75 319.799987793
574750.4375 4177231 319.820007324
574750.75 4177230.75 319.730010986
574751.6875 4177231.25 319.920013428
574752.0625 4177230.75 319.570007324
574752.9375 4177230.75 319.929992676
574753.375 4177231.25 319.920013428
574754.25 4177230.75 319.880004883
574754.5625 4177231 320.059997559
574755.5 4177230.75 319.959991455
574755.875 4177230.75 320.109985352
574756.75 4177231.25 320.160003662
574757.125 4177231.25 320.329986572
574758 4177230.75 320.200012207
574758.375 4177231.25 320.429992676
574759.25 4177230.75 320.339996338
574739.5625 4177231.5 318.929992676
574740.4375 4177231.75 319.170013428
574740.8125 4177231.5 318.950012207
574742.0625 4177231.5 319.420013428
574742.9375 4177231.25 319.399993896
574743.3125 4177231.5 319.220001221
574744.1875 4177231.5 319.339996338
574744.5625 4177231.25 319.290008545
574745.4375 4177231.25 319.480010986
574745.8125 4177231.75 319.609985352
574747.0625 4177231.5 319.859985352
574747.9375 4177231.5 319.709991455
574748.3125 4177231.5 319.329986572
574749.1875 4177231.5 319.640014648
574749.5625 4177231.25 319.739990234
574750.5 4177231.75 319.690002441
574750.8125 4177231.25 319.690002441
574751.75 4177231.75 319.790008545
574752.0625 4177231.25 319.779998779
574752.9375 4177231.5 320.089996338
574753.375 4177231.75 319.899993896
574754.25 4177231.5 320.190002441
574754.6875 4177231.5 319.929992676
574755.5625 4177231.25 319.859985352
574755.9375 4177231.25 319.899993896
574756.8125 4177231.75 320.25
574757.1875 4177231.75 320.179992676
574758.0625 4177231.5 320.260009766
574758.4375 4177231.75 320.269989014
574759.3125 4177231.5 320.290008545
574759.6875 4177231.5 320.369995117
574739.5625 4177232.25 319.320007324
574740.5 4177232.25 319.299987793
574740.875 4177232 318.950012207
574741.6875 4177231.75 319.450012207
574741.75 4177232.5 319.399993896
574742.125 4177232 319.239990234
574742.9375 4177232 319.420013428
574743.375 4177232 319.260009766
574744.25 4177232 319.559997559
574744.625 4177232 319.410003662
574745.5 4177231.75 319.720001221
574745.5 4177232.5 319.600006104
574745.875 4177232.25 319.529998779
574746.75 4177232 319.709991455
574747.125 4177232 319.890014648
574748 4177232 319.670013428
574748.375 4177232 319.649993896
574749.25 4177232 319.690002441
574749.5625 4177232 319.929992676
574750.5 4177232.25 319.829986572
574750.875 4177232 319.910003662
574751.75 4177232.5 320.299987793
574752.125 4177232 320.079986572
574753 4177232 320.179992676
574753.4375 4177232.25 319.929992676
574754.3125 4177232 320.290008545
574754.6875 4177232 320.040008545
574755.5625 4177232 320.190002441
574755.9375 4177231.75 320.100006104
574756.875 4177232.25 320.170013428
574757.25 4177232.25 320.25
574758.0625 4177232 320.369995117
574758.5 4177232.25 320.179992676
574759.375 4177232 320.119995117
574759.75 4177232 319.799987793
574740.5625 4177232.75 319.119995117
574740.9375 4177232.5 319.070007324
574741.8125 4177233 319.470001221
574742.125 4177232.5 319.549987793
574743 4177232.5 319.670013428
574743.375 4177232.5 319.489990234
574744.25 4177232.5 319.470001221
574744.6875 4177232.5 319.410003662
574745.9375 4177232.75 319.739990234
574746.75 4177232.5 319.859985352
574747.125 4177232.75 320.100006104
574748.0625 4177232.5 319.739990234
574748.4375 4177232.5 319.730010986
574749.3125 4177232.5 319.739990234
574749.625 4177232.5 319.880004883
574750.5625 4177232.75 320.029998779
574750.9375 4177232.5 319.75
574751.8125 4177233 320.119995117
574752.1875 4177232.5 320.260009766
574752.25 4177233 320.089996338
574753.0625 4177232.5 320.260009766
574753.5 4177232.75 320.119995117
574754.3125 4177232.5 320.420013428
574754.75 4177232.75 320.600006104
574755.625 4177232.5 320.320007324
574755.6875 4177233 320.239990234
574756 4177232.5 320.149993896
574756.0625 4177233 320.160003662
574756.9375 4177233 320.269989014
574757.3125 4177232.75 320.109985352
574758.1875 4177232.5 319.970001221
574758.5625 4177232.75 319.869995117
574759.4375 4177232.5 319.869995117
574759.8125 4177232.5 319.959991455
574740.5625 4177233.5 319.390014648
574740.9375 4177233.25 319.220001221
574741.875 4177233.5 319.470001221
574742.1875 4177233.25 320.029998779
574743.0625 4177233 319.730010986
574743.4375 4177233.25 319.700012207
574744.3125 4177233.25 319.649993896
574744.75 4177233 319.350006104
574745.5625 4177233 319.839996338
574745.9375 4177233.25 319.739990234
574746.8125 4177233 320
574746.875 4177233.5 319.839996338
574747.1875 4177233.25 319.799987793
574748.0625 4177233.25 319.869995117
574748.5 4177233.25 319.880004883
574749.375 4177233.25 320.049987793
574749.6875 4177233 320.029998779
574750.625 4177233.5 319.890014648
574751 4177233 320.059997559
574751.875 4177233.5 320.320007324
574752.25 4177233.5 320.260009766
574753.125 4177233 320.320007324
574753.5625 4177233.5 320.25
574754.4375 4177233 320.100006104
574754.75 4177233.25 320.549987793
574755.75 4177233.5 320.260009766
574756.125 4177233.5 320
574757 4177233.5 319.869995117
574757.375 4177233.25 319.929992676
574758.25 4177233 320.079986572
574758.625 4177233.25 319.839996338
574759.5 4177233 319.799987793
574759.5625 4177233.5 319.799987793
574759.875 4177233.25 319.980010986
574760.75 4177233.5 319.959991455
574740.625 4177234 319.339996338
574741 4177233.75 319.190002441
574741.875 4177234 319.600006104
574742.1875 4177233.75 320.059997559
574743.125 4177233.75 319.690002441
574743.1875 4177234.25 319.690002441
574743.5 4177233.75 319.420013428
574744.375 4177233.75 319.820007324
574744.75 4177233.75 319.850006104
574745.625 4177233.5 319.959991455
574745.6875 4177234.25 319.839996338
574746 4177234 319.950012207
574746.9375 4177234.25 319.929992676
574747.25 4177233.75 319.869995117
574748.125 4177233.75 320.049987793
574748.5 4177233.75 319.899993896
574749.375 4177233.75 320.190002441
574749.75 4177233.5 320.119995117
574749.8125 4177234.25 320.070007324
574750.6875 4177234 320.170013428
574751 4177233.75 320.109985352
574751.9375 4177234.25 320.350006104
574752.3125 4177234.25 320.239990234
574753.1875 4177233.75 320.329986572
574753.625 4177234 320.170013428
574754.5 4177233.75 320.100006104
574754.875 4177233.75 320.149993896
574755.8125 4177234.25 320.190002441
574756.1875 4177234 319.880004883
574757.0625 4177234 320.010009766
574757.4375 4177234 319.760009766
574758.25 4177233.75 320.100006104
574758.3125 4177234.25 319.929992676
574758.6875 4177234 319.730010986
574759.625 4177234.25 319.570007324
574759.9375 4177233.75 319.760009766
574760.8125 4177234 319.829986572
574741 4177234.25 319.760009766
574741.9375 4177234.75 319.670013428
574742.25 4177234.25 320.029998779
574743.5625 4177234.25 319.859985352
574744.4375 4177234.25 319.950012207
574744.8125 4177234.25 319.820007324
574744.875 4177234.75 319.679992676
574745.75 4177234.75 319.980010986
574746.0625 4177234.5 319.950012207
574747 4177234.75 320.049987793
574747.3125 4177234.25 319.910003662
574748.1875 4177234.25 320.130004883
574748.5625 4177234.25 319.910003662
574749.4375 4177234.25 320.130004883
574749.8125 4177234.75 320.269989014
574750.75 4177234.5 320.299987793
574751.0625 4177234.25 320.450012207
574752 4177234.75 320.200012207
574752.375 4177234.75 320.049987793
574753.25 4177234.25 320.029998779
574753.3125 4177234.75 319.950012207
574753.6875 4177234.5 320.170013428
574754.5625 4177234.25 319.899993896
574754.5625 4177234.75 319.899993896
574754.9375 4177234.25 319.929992676
574755.875 4177234.75 319.950012207
574756.25 4177234.75 320.010009766
574757.125 4177234.5 319.709991455
574757.5 4177234.5 319.559997559
574758.375 4177234.75 319.869995117
574758.75 4177234.5 319.600006104
574759.6875 4177234.75 319.570007324
574760 4177234.25 319.450012207
574760.875 4177234.75 319.730010986
574741.0625 4177235 319.679992676
574742 4177235.25 319.890014648
574742.3125 4177235 320.220001221
574743.1875 4177234.75 319.880004883
574743.625 4177235 319.839996338
574744.5 4177235 319.809997559
574744.875 4177235.25 320.029998779
574745.75 4177235.25 320.239990234
574746.125 4177235 320.079986572
574747.3125 4177235 320.299987793
574748.25 4177235 320.299987793
574748.625 4177235 320.220001221
574749.5 4177235 320.290008545
574749.875 4177235.25 320.200012207
574750.75 4177235.25 320.260009766
574751.125 4177234.75 320.369995117
574751.1875 4177235.25 320.190002441
574752.0625 4177235.25 320.160003662
574752.4375 4177235.25 320.049987793
574753.375 4177235.25 319.820007324
574753.75 4177235 319.959991455
574754.6875 4177235.25 319.769989014
574755 4177235 320.019989014
574755.9375 4177235.25 319.950012207
574756.3125 4177235.25 319.779998779
574757.1875 4177235.25 319.779998779
574757.5625 4177235 319.529998779
574758.4375 4177235.25 319.779998779
574758.8125 4177235 319.600006104
574759.6875 4177235.25 319.709991455
574760.0625 4177234.75 319.579986572
574760.125 4177235.25 319.359985352
574760.9375 4177235.25 319.579986572
574761.3125 4177235 319.410003662
574741.125 4177235.5 319.700012207
574742.0625 4177235.75 319.799987793
574742.375 4177235.5 319.760009766
574742.4375 4177236 319.720001221
574743.25 4177235.5 319.989990234
574743.3125 4177236 320.029998779
574743.625 4177235.5 320.140014648
574744.5 4177235.5 319.970001221
574744.9375 4177236 320.130004883
574745.8125 4177236 319.970001221
574746.1875 4177235.75 319.980010986
574747 4177235.5 320.290008545
574747.0625 4177236 320.25
574747.375 4177235.5 320.320007324
574748.25 4177235.5 320.25
574748.625 4177235.5 320.380004883
574749.5625 4177235.5 320.339996338
574749.9375 4177236 320.220001221
574750.8125 4177235.75 320.160003662
574751.25 4177236 319.950012207
574752.125 4177235.75 320.119995117
574752.5 4177235.75 319.799987793
574753.4375 4177236 319.829986572
574753.75 4177235.75 320.079986572
574754.6875 4177236 319.890014648
574755.0625 4177235.5 319.989990234
574756 4177235.75 319.920013428
574756.375 4177235.75 319.529998779
574757.25 4177235.75 319.75
574757.625 4177235.5 319.75
574758.5625 4177235.75 319.5
574758.875 4177235.5 319.420013428
574759.75 4177235.75 319.630004883
574760.1875 4177236 319.369995117
574761 4177235.75 319.510009766
574761.4375 4177235.75 319.269989014
574742.0625 4177236.5 319.869995117
574742.5 4177236.5 319.769989014
574743.375 4177236.5 319.899993896
574743.6875 4177236 320
574744.5625 4177236 319.950012207
574745 4177236.5 320.190002441
574745.875 4177236.5 320.130004883
574746.1875 4177236.25 320.070007324
574747.125 4177236.5 320.309997559
574747.4375 4177236 320.200012207
574748.3125 4177236 320.359985352
574748.6875 4177236 320.230010986
574749.5625 4177236 320.480010986
574750 4177236.5 320.109985352
574750.875 4177236.25 320.019989014
574751.3125 4177236.5 319.709991455
574752.1875 4177236.5 320.130004883
574752.5625 4177236.25 319.779998779
574753.5 4177236.5 319.690002441
574753.875 4177236.25 319.779998779
574754.75 4177236.5 319.839996338
574755.125 4177236 319.910003662
574755.1875 4177236.5 319.700012207
574756 4177236.25 319.790008545
574756.4375 4177236.25 319.769989014
574757.3125 4177236.25 319.600006104
574757.6875 4177236 319.589996338
574758.5625 4177236.5 319.480010986
574758.9375 4177236 319.540008545
574759.875 4177236.25 319.309997559
574760.25 4177236.5 319.410003662
574761.0625 4177236.25 319.329986572
574761.4375 4177236.25 319.260009766
574742.125 4177237 319.809997559
574742.5625 4177237.25 319.989990234
574743.375 4177237 320.049987793
574743.75 4177236.5 320.070007324
574744.625 4177236.5 320.010009766
574745 4177237 320.5
574745.9375 4177237 320.309997559
574746.25 4177236.75 320.529998779
574747.1875 4177237 320.179992676
574747.5 4177236.5 320.130004883
574748.375 4177236.75 320.290008545
574748.75 4177236.5 320.049987793
574749.6875 4177236.5 320.160003662
574750.0625 4177237 320.019989014
574750.9375 4177236.75 320.089996338
574751.375 4177237 319.959991455
574752.25 4177237 320.070007324
574752.625 4177237 319.739990234
574753.5 4177237 319.899993896
574753.9375 4177236.75 319.5
574754.8125 4177237 319.589996338
574755.25 4177237 319.690002441
574756.125 4177236.75 319.290008545
574756.5 4177236.75 319.649993896
574757.375 4177236.75 319.369995117
574757.75 4177236.75 319.570007324
574758.6875 4177237 319.269989014
574759 4177236.75 319.260009766
574759.9375 4177237 319.079986572
574760.3125 4177237 319.320007324
574761.125 4177236.75 319.290008545
574761.5 4177236.75 319.630004883
574742.25 4177237.5 319.510009766
574742.625 4177237.75 319.950012207
574743.4375 4177237.75 320.119995117
574743.8125 4177237.25 320.140014648
574744.6875 4177237.25 320.230010986
574745.0625 4177237.75 320.450012207
574746 4177237.5 320.070007324
574746.3125 4177237.5 320.320007324
574747.25 4177237.5 320.160003662
574747.5625 4177237.25 320.149993896
574748.4375 4177237.25 320.100006104
574748.8125 4177237.25 320.130004883
574748.875 4177237.75 320.079986572
574749.75 4177237.25 320.119995117
574750.125 4177237.5 319.920013428
574751 4177237.25 319.869995117
574751.4375 4177237.5 319.929992676
574752.3125 4177237.5 319.799987793
574752.6875 4177237.5 319.790008545
574753.625 4177237.5 319.649993896
574753.9375 4177237.25 319.75
574754.875 4177237.5 319.399993896
574755.3125 4177237.75 319.630004883
574756.1875 4177237.5 319.25
574756.5625 4177237.25 319.25
574757.4375 4177237.25 319.519989014
574757.8125 4177237.25 319.239990234
574758.6875 4177237.5 319.420013428
574759 4177237.25 319.769989014
574760 4177237.5 319.160003662
574760.375 4177237.5 319.170013428
574761.1875 4177237.5 319.230010986
574761.5625 4177237.5 319.5
574762.4375 4177237.5 319.149993896
574742.3125 4177238 319.010009766
574742.625 4177238.25 320.380004883
574743.5 4177238.25 320.440002441
574743.8125 4177237.75 320.179992676
574743.9375 4177238.25 320.079986572
574744.75 4177237.75 320.049987793
574744.75 4177238.25 320.100006104
574745.125 4177238.25 320.299987793
574746.0625 4177238.25 319.959991455
574746.375 4177238 320.190002441
574747.3125 4177238.25 319.880004883
574747.625 4177237.75 320.190002441
574747.6875 4177238.25 319.910003662
574748.5 4177237.75 319.920013428
574748.5625 4177238.25 319.839996338
574749 4177238.25 319.769989014
574749.8125 4177237.75 320.029998779
574749.875 4177238.25 319.880004883
574750.1875 4177238 319.850006104
574751.0625 4177238 319.730010986
574751.5 4177238 319.820007324
574752.375 4177238 319.899993896
574752.75 4177238 319.579986572
574753.6875 4177238 319.529998779
574754 4177237.75 319.570007324
574754.9375 4177238 319.450012207
574755.375 4177238.25 319.420013428
574756.25 4177238 319.339996338
574756.625 4177238 319.459991455
574757.5 4177238 319.279998779
574757.875 4177237.75 319.359985352
574758.75 4177238 319.320007324
574759.125 4177237.75 319.299987793
574760 4177238 319.399993896
574760.4375 4177238 318.980010986
574761.25 4177238 319.059997559
574761.625 4177238 319.450012207
574762.5 4177238 319.089996338
574762.9375 4177238.25 319.170013428
574742.8125 4177238.75 318.660003662
574743.5625 4177238.75 320.359985352
574744 4177238.75 320.010009766
574744.875 4177238.75 319.799987793
574745.1875 4177238.75 320.179992676
574746.0625 4177238.75 320.100006104
574746.4375 4177238.5 320.059997559
574747.375 4177238.75 319.809997559
574747.75 4177238.75 319.839996338
574748.625 4177238.75 319.709991455
574749 4177238.75 319.910003662
574749.9375 4177238.75 319.549987793
574750.25 4177238.75 319.890014648
574751.125 4177238.5 319.670013428
574751.5625 4177238.75 319.609985352
574752.4375 4177238.5 319.609985352
574752.8125 4177238.5 319.600006104
574753.75 4177238.75 319.399993896
574754.0625 4177238.5 319.570007324
574755 4177238.75 319.519989014
574755.4375 4177238.75 319.299987793
574756.3125 4177238.5 319.329986572
574756.6875 4177238.5 319.109985352
574757.5625 4177238.5 319.239990234
574757.9375 4177238.25 319.230010986
574758 4177238.75 318.989990234
574758.8125 4177238.5 319.049987793
574759.1875 4177238.25 319.230010986
574759.25 4177238.75 319.170013428
574760.125 4177238.5 318.790008545
574760.5 4177238.75 318.940002441
574761.3125 4177238.5 319.059997559
574761.6875 4177238.5 319.320007324
574762.5625 4177238.5 319
574763 4177238.75 318.809997559
574743.625 4177239.25 320.029998779
574744 4177239.5 319.829986572
574744.9375 4177239.5 319.769989014
574745.25 4177239.25 320.119995117
574746.125 4177239.25 320.040008545
574746.5 4177239 319.809997559
574747.4375 4177239.25 319.970001221
574747.8125 4177239.25 319.739990234
574748.6875 4177239.25 319.489990234
574749.0625 4177239.25 319.839996338
574750 4177239.25 319.5
574750.3125 4177239.25 319.529998779
574751.1875 4177239 319.559997559
574751.625 4177239.25 319.529998779
574752.5 4177239 319.339996338
574752.875 4177239 319.670013428
574753.8125 4177239.25 319.290008545
574754.1875 4177239 319.399993896
574754.25 4177239.5 319.230010986
574755.0625 4177239.25 319.220001221
574755.5 4177239.25 318.980010986
574756.375 4177239 318.940002441
574756.75 4177239 319.160003662
574757.625 4177239 319.119995117
574758.0625 4177239.5 318.950012207
574758.9375 4177239.25 318.950012207
574759.3125 4177239.5 319.269989014
574760.125 4177239.25 318.920013428
574760.5625 4177239.25 318.859985352
574761.375 4177239 319
574761.75 4177239 319.089996338
574762.625 4177239.25 318.850006104
574743.6875 4177240 319.829986572
574744.125 4177240 319.649993896
574744.9375 4177240 319.940002441
574745.3125 4177239.75 319.890014648
574746.25 4177239.75 319.679992676
574746.5625 4177239.5 319.660003662
574747.5 4177239.75 319.649993896
574747.875 4177240 319.619995117
574748.75 4177240 319.459991455
574749.125 4177240 319.700012207
574750.0625 4177240 319.470001221
574750.375 4177239.75 319.480010986
574751.25 4177239.5 319.519989014
574751.6875 4177239.75 319.440002441
574752.5625 4177239.75 319.410003662
574752.9375 4177239.75 319.410003662
574753.875 4177239.75 319.179992676
574754.25 4177240 319.380004883
574755.125 4177239.75 319.149993896
574755.5625 4177239.75 319.209991455
574756.4375 4177239.75 319.049987793
574756.8125 4177239.5 318.929992676
574757.6875 4177239.5 319.089996338
574758.125 4177240 318.970001221
574758.9375 4177239.75 318.950012207
574759.375 4177240 318.899993896
574760.1875 4177239.75 318.970001221
574760.625 4177239.75 318.700012207
574761.4375 4177239.75 318.790008545
574761.8125 4177239.5 318.790008545
574743.75 4177240.5 320.040008545
574744.125 4177240.5 319.75
574745 4177240.5 319.709991455
574745.375 4177240.25 319.709991455
574746.25 4177240.5 319.720001221
574746.625 4177240 319.760009766
574746.6875 4177240.75 319.410003662
574747.5625 4177240.25 319.529998779
574747.9375 4177240.5 319.380004883
574748.8125 4177240.5 319.5
574749.1875 4177240.5 319.700012207
574750.125 4177240.5 319.459991455
574750.4375 4177240.25 319.429992676
574751.3125 4177240.25 319.380004883
574751.4375 4177240.75 319.059997559
574751.75 4177240.25 319.329986572
574752.625 4177240.25 319.269989014
574753 4177240.25 319.230010986
574753.875 4177240.25 319.309997559
574754.3125 4177240.5 319.100006104
574755.1875 4177240.25 319.269989014
574755.5625 4177240.5 319.179992676
574756.5 4177240.25 319.100006104
574756.875 4177240.25 319.029998779
574757.75 4177240.25 319.059997559
574758.1875 4177240.5 318.730010986
574759 4177240.25 318.820007324
574759.4375 4177240.5 318.570007324
574760.25 4177240.25 318.760009766
574760.6875 4177240.25 318.470001221
574743.8125 4177241 319.570007324
574744.1875 4177241 319.769989014
574745.0625 4177241 319.75
574745.4375 4177241 319.630004883
574746.3125 4177241 319.75
574746.75 4177241.25 319.549987793
574747.625 4177241 319.329986572
574748 4177241 319.420013428
574748.875 4177241 319.489990234
574749.25 4177241 319.609985352
574750.1875 4177241 319.119995117
574750.5 4177240.75 319.410003662
574751.4375 4177241.25 319.130004883
574751.8125 4177240.75 319.170013428
574752.6875 4177240.75 318.920013428
574753.0625 4177240.75 319.160003662
574753.9375 4177241 319.149993896
574754.4375 4177241 318.920013428
574755.25 4177241 319.160003662
574755.6875 4177241 318.950012207
574756.5 4177240.75 319.200012207
574756.9375 4177240.75 318.850006104
574757 4177241.25 318.690002441
574757.8125 4177240.75 318.890014648
574757.875 4177241.25 318.850006104
574758.25 4177241 318.820007324
574759.0625 4177240.75 318.730010986
574744.25 4177241.5 319.649993896
574745.125 4177241.75 319.820007324
574745.5 4177241.5 319.619995117
574746.4375 4177241.5 319.480010986
574746.8125 4177241.75 319.540008545
574747.6875 4177241.5 319.309997559
574748.0625 4177241.5 319.350006104
574748.9375 4177241.75 319.410003662
574749.3125 4177241.5 319.489990234
574750.25 4177241.5 319.220001221
574750.5625 4177241.5 319.350006104
574751.5 4177241.75 319
574751.875 4177241.5 319.019989014
574752.75 4177241.25 319.140014648
574753.125 4177241.25 319.140014648
574753.1875 4177241.75 319.010009766
574754 4177241.5 319.019989014
574754.5 4177241.75 318.850006104
574755.3125 4177241.5 319.100006104
574755.75 4177241.5 318.890014648
574756.5625 4177241.25 318.940002441
574757.0625 4177241.75 318.640014648
574744.3125 4177242.25 319.730010986
574745.1875 4177242.25 319.709991455
574745.5625 4177242 319.470001221
574746.5 4177242 319.410003662
574746.875 4177242.25 319.269989014
574747.75 4177242 319.290008545
574748.125 4177242.25 319.559997559
574749 4177242.25 319.25
574749.375 4177242 319.369995117
574750.3125 4177242.25 319.059997559
574750.625 4177242 318.970001221
574751.5625 4177242.25 319.029998779
574751.9375 4177242 319.220001221
574752.8125 4177242 318.980010986
574753.25 4177242.25 318.809997559
574754.0625 4177242 318.869995117
574754.5 4177242.25 318.859985352
574755.375 4177242 318.910003662
574755.75 4177242 318.899993896
574756.625 4177242 318.820007324
574745.25 4177242.75 319.359985352
574745.625 4177242.5 319.339996338
574746.5 4177242.5 319.339996338
574746.9375 4177242.75 319.369995117
574747.75 4177242.5 319.309997559
574748.1875 4177242.75 319.140014648
574749.0625 4177242.75 318.829986572
574749.4375 4177242.75 319.140014648
574750.375 4177242.75 318.980010986
574750.6875 4177242.5 319.209991455
574751.625 4177243 319
574752 4177242.5 318.799987793
574752.875 4177242.5 318.929992676
574752.9375 4177243 318.809997559
574753.3125 4177243 318.790008545
574754.125 4177242.5 318.779998779
574754.5625 4177242.75 318.799987793
574755.4375 4177242.5 318.589996338
574755.875 4177242.5 318.290008545
574745.3125 4177243.25 319.309997559
574745.6875 4177243 319.209991455
574746.5625 4177243.25 319.269989014
574747 4177243.5 319.130004883
574747.8125 4177243.25 319.200012207
574748.25 4177243.25 319.109985352
574749.125 4177243.25 319.269989014
574749.5 4177243.25 318.910003662
574750.4375 4177243.25 318.790008545
574750.75 4177243 319.230010986
574751.6875 4177243.5 318.839996338
574752.0625 4177243 318.829986572
574752.125 4177243.5 318.790008545
574753 4177243.5 318.519989014
574753.375 4177243.5 318.920013428
574754.25 4177243 318.570007324
574745.375 4177243.75 319.260009766
574745.75 4177243.75 319.350006104
574746.6875 4177243.75 318.970001221
574747.0625 4177244 319.309997559
574747.875 4177243.75 319.309997559
574748.3125 4177243.75 319.209991455
574749.1875 4177243.75 318.959991455
574749.5625 4177243.75 318.959991455
574750.5 4177243.75 318.75
574750.8125 4177243.5 319.320007324
574750.875 4177244.25 319.309997559
574751.75 4177244 318.910003662
574752.1875 4177244 318.570007324
574745.5 4177244.25 318.739990234
574745.8125 4177244.25 319.25
574746.6875 4177244.25 319.140014648
574747.125 4177244.5 319.230010986
574747.9375 4177244.25 319.040008545
574748.375 4177244.25 319.079986572
574749.25 4177244.5 319.029998779
574749.625 4177244.25 318.809997559
574750.5 4177244.25 318.809997559
574750.6875 4177244.75 317.649993896
574750.9375 4177244.75 318.600006104
574745.875 4177244.75 319.170013428
574745.9375 4177245.25 318.910003662
574746.75 4177244.75 319.049987793
574747.1875 4177245 319.119995117
574748 4177244.75 318.989990234
574748.4375 4177245 319.140014648
574749.3125 4177245 318.850006104
574749.6875 4177244.75 318.700012207
574749.75 4177245.25 318.429992676
574746.0625 4177245.75 317.850006104
574746.8125 4177245.5 319.049987793
574746.875 4177246 318.859985352
574747.25 4177245.75 319.029998779
574748.0625 4177245.5 318.970001221
574748.125 4177246 318.829986572
574748.5 4177245.5 318.899993896
574748.5625 4177246 318.630004883
574749.375 4177245.5 318.829986572
574746.9375 4177246.5 318.850006104
574747.25 4177246.25 319.049987793
