# .PCD v.7 - Point Cloud Data file format
VERSION .7
FIELDS x y z
SIZE 4 4 4
TYPE F F F
COUNT 1 1 1
WIDTH 158
HEIGHT 1
VIEWPOINT 0 0 0 1 0 0 0
POINTS 158
DATA ascii
574599.75 4177322.25 318.859985352
574599 4177322.5 318.869995117
574599.0625 4177323 319.010009766
574599.75 4177322.75 318.779998779
574598.5 4177323.25 318.880004883
574599.125 4177323.5 318.720001221
574599.8125 4177323.25 318.630004883
574600.375 4177323 318.820007324
574600.4375 4177323.5 318.899993896
574601.125 4177323.25 318.839996338
574598.5625 4177323.75 318.700012207
574599.1875 4177324 318.540008545
574599.875 4177323.75 318.480010986
574600.5 4177324 318.730010986
574601.1875 4177324 318.679992676
574601.75 4177324 318.820007324
574602.5 4177324 318.630004883
574597.9375 4177324.25 318.649993896
574598.625 4177324.25 318.690002441
574599.25 4177324.5 318.600006104
574599.9375 4177324.5 318.709991455
574600.5 4177324.75 318.549987793
574601.25 4177324.5 318.890014648
574601.8125 4177324.5 318.720001221
574602.5625 4177324.5 318.609985352
574603.125 4177324.25 318.880004883
574597.375 4177324.75 318.820007324
574597.9375 4177324.75 318.869995117
574598.6875 4177324.75 318.600006104
574599.25 4177325.25 318.630004883
574599.9375 4177325 318.829986572
574600.5625 4177325.25 318.660003662
574601.3125 4177325 318.660003662
574601.875 4177325 318.720001221
574602.625 4177325 318.779998779
574603.1875 4177325 318.839996338
574603.9375 4177325 318.869995117
574597.4375 4177325.25 318.799987793
574598 4177325.5 318.809997559
574598.75 4177325.25 318.600006104
574599.3125 4177325.75 318.540008545
574600 4177325.5 318.660003662
574600.625 4177325.75 318.690002441
574601.3125 4177325.5 318.670013428
574601.9375 4177325.5 318.579986572
574602.6875 4177325.5 318.549987793
574603.25 4177325.5 318.890014648
574604 4177325.5 318.709991455
574604.5 4177325.25 318.790008545
574604.5625 4177326 318.769989014
574596.75 4177326 318.600006104
574597.5 4177326 318.529998779
574597.5 4177326.5 318.440002441
574598 4177326 318.760009766
574598.75 4177326 318.450012207
574598.8125 4177326.5 318.489990234
574599.375 4177326.25 318.700012207
574600.0625 4177326 318.480010986
574600.625 4177326.25 318.779998779
574601.375 4177326 318.570007324
574601.9375 4177326.25 318.940002441
574602.6875 4177326.25 318.700012207
574603.25 4177326 318.730010986
574604 4177326.25 318.829986572
574604.625 4177326.5 318.730010986
574605.3125 4177326.25 318.859985352
574605.9375 4177326.25 318.540008545
574596.25 4177327 318.559997559
574596.8125 4177326.5 318.410003662
574597.5625 4177327 318.480010986
574598.0625 4177326.5 318.790008545
574598.125 4177327 318.489990234
574598.875 4177327 318.459991455
574599.4375 4177326.75 318.609985352
574600.125 4177326.75 318.5
574600.6875 4177326.75 318.670013428
574601.4375 4177326.75 318.679992676
574602 4177326.75 318.839996338
574602.75 4177326.75 318.529998779
574603.3125 4177326.5 318.730010986
574604.0625 4177326.75 318.799987793
574604.6875 4177327 318.790008545
574605.375 4177326.75 318.790008545
574606 4177326.75 318.700012207
574596.875 4177327.25 318.489990234
574597.625 4177327.5 318.399993896
574598.1875 4177327.5 318.769989014
574598.9375 4177327.5 318.350006104
574599.5 4177327.5 318.350006104
574600.125 4177327.25 318.670013428
574600.75 4177327.5 318.5
574601.5 4177327.25 318.670013428
574602.0625 4177327.25 318.779998779
574602.75 4177327.25 318.880004883
574603.375 4177327.25 318.619995117
574604.0625 4177327.25 318.839996338
574604.75 4177327.5 318.720001221
574605.4375 4177327.25 318.859985352
574606 4177327.5 318.739990234
574606.75 4177327 318.670013428
574596.875 4177327.75 318.869995117
574598.25 4177328.25 318.660003662
574598.9375 4177328.25 318.450012207
574599.5 4177328 318.450012207
574600.1875 4177327.75 318.489990234
574600.8125 4177328 318.489990234
574601.5 4177327.75 318.570007324
574602.125 4177327.75 318.779998779
574602.875 4177327.75 318.489990234
574603.4375 4177327.75 318.510009766
574604.125 4177327.75 318.75
574604.75 4177328 318.489990234
574605.5 4177327.75 318.779998779
574606.0625 4177328 318.859985352
574599 4177328.75 318.399993896
574599.5625 4177328.5 318.640014648
574600.25 4177328.25 318.549987793
574600.875 4177328.5 318.690002441
574601.5625 4177328.25 318.459991455
574602.1875 4177328.5 318.630004883
574602.875 4177328.5 318.769989014
574603.5 4177328.25 318.450012207
574603.5625 4177328.75 318.359985352
574604.1875 4177328.5 318.790008545
574604.8125 4177328.75 318.809997559
574605.5 4177328.5 318.679992676
574599.625 4177329 318.510009766
574600.3125 4177329 318.549987793
574600.875 4177329 318.570007324
574601.625 4177329 318.470001221
574602.25 4177329 318.480010986
574602.9375 4177329 318.739990234
574603.5625 4177329.25 318.529998779
574604.25 4177329 318.739990234
574604.8125 4177329.25 319.059997559
574605.5625 4177329 318.739990234
574600.375 4177329.5 318.429992676
574600.9375 4177329.75 318.579986572
574601.6875 4177329.5 318.450012207
574602.25 4177329.5 318.660003662
574603 4177329.5 318.450012207
574603.625 4177330 318.630004883
574604.3125 4177329.5 318.470001221
574604.875 4177329.75 318.760009766
574601 4177330.25 318.369995117
574601.6875 4177330 318.649993896
574601.75 4177330.5 318.609985352
574602.3125 4177330 318.559997559
574603 4177330 318.649993896
574603.6875 4177330.5 318.5
574604.3125 4177330 318.5
574602.375 4177330.75 318.350006104
574603.0625 4177330.5 318.589996338
574603.125 4177331.25 318.570007324
574603.6875 4177331 318.510009766
574604.375 4177330.75 318.619995117
574602.4375 4177331.25 318.470001221
574603.75 4177331.5 318.839996338
