# .PCD v.7 - Point Cloud Data file format
VERSION .7
FIELDS x y z
SIZE 4 4 4
TYPE F F F
COUNT 1 1 1
WIDTH 668
HEIGHT 1
VIEWPOINT 0 0 0 1 0 0 0
POINTS 668
DATA ascii
574812.875 4177124.75 318.790008545
574811.625 4177125.25 318.570007324
574811.75 4177125.25 318.799987793
574811.8125 4177125.75 319.160003662
574812.8125 4177126 321.059997559
574814.0625 4177125.75 321.450012207
574814.25 4177125.75 321.540008545
574815.6875 4177125.75 319.609985352
574811.5625 4177126.25 320.200012207
574811.75 4177126.25 318.179992676
574811.75 4177126.5 320.399993896
574811.9375 4177126.5 318.410003662
574812.875 4177126.5 320.309997559
574813 4177126.25 321.209991455
574814.0625 4177126.25 321.619995117
574814.25 4177126.5 321.75
574815.4375 4177126.25 321.179992676
574815.5625 4177126.5 320.399993896
574815.6875 4177126.25 320.429992676
574816.875 4177126.5 319.910003662
574813 4177126.75 319.880004883
574813 4177126.75 321.459991455
574813.125 4177126.75 319.839996338
574814.125 4177126.75 321.5
574814.3125 4177126.75 321.220001221
574814.375 4177127.25 321.209991455
574815.6875 4177127 320.799987793
574816.9375 4177127 319.899993896
574811.6875 4177127.5 320.369995117
574811.875 4177127.5 320.089996338
574812.9375 4177127.75 320.880004883
574813.1875 4177127.25 319.890014648
574814.1875 4177127.5 321.869995117
574814.375 4177127.75 321.350006104
574815.5625 4177127.25 321.079986572
574815.625 4177127.75 320.470001221
574815.75 4177127.5 320.670013428
574815.8125 4177127.75 320.320007324
574816.9375 4177127.75 320.130004883
574810.375 4177128 320.619995117
574810.5625 4177128.25 320.799987793
574811.6875 4177128.25 320.899993896
574811.875 4177128 320.679992676
574813 4177128.25 320.920013428
574813.125 4177128.25 321.399993896
574814.25 4177128 321.369995117
574814.5 4177128 320.980010986
574815.8125 4177128.5 320.820007324
574810.4375 4177128.75 320.820007324
574810.625 4177128.75 320.839996338
574810.6875 4177129 319.760009766
574811.75 4177128.75 320.799987793
574811.875 4177128.5 320.859985352
574813 4177129 321.540008545
574813.1875 4177128.75 321.600006104
574814.3125 4177128.5 321.100006104
574814.375 4177129 320.690002441
574814.5 4177128.5 320.790008545
574815.625 4177128.5 320.890014648
574816.8125 4177129 322.799987793
574809.25 4177129.5 321.290008545
574813.125 4177129.25 320.899993896
574813.25 4177129 321.200012207
574813.25 4177129.5 321.140014648
574814.4375 4177129.5 320.649993896
574814.5625 4177129 320.809997559
574814.625 4177129.5 320.619995117
574815.75 4177129.5 323.200012207
574806.4375 4177130 323.670013428
574807.5 4177129.75 324.329986572
574809.375 4177129.75 320.209991455
574810.25 4177130 323.829986572
574813.375 4177130 320.739990234
574813.4375 4177129.75 317.709991455
574813.5 4177130 318.850006104
574813.625 4177130.25 317.850006104
574814.5 4177130 320.459991455
574814.75 4177129.75 319.640014648
574815.5625 4177129.75 323.390014648
574815.6875 4177129.75 321.880004883
574815.75 4177130 323.079986572
574816.875 4177129.75 323.320007324
574816.9375 4177130 322.510009766
574806.3125 4177130.5 323.269989014
574806.5 4177130.25 323.410003662
574806.5 4177130.75 323.160003662
574807.5625 4177130.25 324.049987793
574809.1875 4177130.5 321.350006104
574809.375 4177130.5 321.269989014
574810.3125 4177130.5 323.649993896
574810.5 4177130.5 324.119995117
574811.6875 4177130.25 322.720001221
574811.875 4177130.5 322.75
574813.4375 4177130.25 317.739990234
574814.5625 4177130.5 320.519989014
574814.75 4177130.25 320.470001221
574815.6875 4177130.75 323.149993896
574815.875 4177130.25 322.279998779
574807.8125 4177131 324.239990234
574807.9375 4177131 322.890014648
574808.875 4177130.75 324.829986572
574809.25 4177131 321.399993896
574809.375 4177131 321.480010986
574810.4375 4177130.75 322.510009766
574810.5625 4177131.25 321.600006104
574810.5625 4177131 323.440002441
574810.6875 4177131 321.989990234
574814.5625 4177131.25 321.079986572
574814.75 4177130.75 320.230010986
574815.75 4177131.25 322.709991455
574815.875 4177130.75 322.480010986
574816.9375 4177131 323.700012207
574807.625 4177131.5 324.390014648
574807.8125 4177131.5 322.779998779
574807.9375 4177131.75 321.549987793
574808 4177131.5 322.440002441
574808.125 4177131.5 321.100006104
574809.5 4177131.75 320.720001221
574811.875 4177132 322.290008545
574812.0625 4177131.75 322.040008545
574814.625 4177132 321.369995117
574814.75 4177131.5 321.010009766
574815.75 4177131.75 323.220001221
574815.9375 4177131.5 322.929992676
574815.9375 4177132 323.119995117
574816.9375 4177131.5 324.089996338
574809.0625 4177132.5 324.220001221
574809.3125 4177132 323.329986572
574811.9375 4177132.5 322.179992676
574812.125 4177132.25 322.109985352
574813.375 4177132.5 323.130004883
574814.75 4177132 321.559997559
574815.875 4177132 321.709991455
574807.8125 4177133 324.119995117
574808 4177132.75 323.899993896
574808.125 4177133 322.609985352
574809.25 4177132.5 322.820007324
574809.4375 4177132.75 322.700012207
574810.875 4177133 322.089996338
574812 4177132.75 321.559997559
574812.1875 4177132.75 321.820007324
574813.25 4177132.75 322.429992676
574814.625 4177132.75 322.109985352
574814.8125 4177132.75 322.079986572
574806.875 4177133.25 321.940002441
574809.1875 4177133.5 324.380004883
574810.5625 4177133.5 324.299987793
574810.75 4177133.5 321.410003662
574810.9375 4177133.5 321.850006104
574813.25 4177133.5 323.130004883
574813.25 4177133.5 325.309997559
574814.5625 4177133.5 323.429992676
574814.8125 4177133.25 322.519989014
574815.75 4177133.25 324.260009766
574815.9375 4177133.25 324.140014648
574816.125 4177133.25 322.619995117
574806.6875 4177134.25 322.600006104
574806.9375 4177133.75 322.010009766
574807.8125 4177133.75 324.559997559
574808.0625 4177134 324.350006104
574809.25 4177134 324.25
574809.375 4177133.75 324.790008545
574809.4375 4177134 323.940002441
574810.75 4177134.25 322.089996338
574811 4177134 321.899993896
574812.0625 4177134 324.779998779
574813.3125 4177134.25 325.570007324
574814.6875 4177134 322.880004883
574814.8125 4177134 323.25
574815.875 4177133.75 323.809997559
574815.9375 4177134.25 323.130004883
574816.0625 4177134 323.540008545
574806.9375 4177134.5 322.380004883
574809.375 4177134.5 323.140014648
574811 4177134.5 322.209991455
574811.8125 4177134.5 325.5
574812.0625 4177134.5 325.339996338
574813.1875 4177134.5 324.799987793
574813.375 4177134.5 325.029998779
574813.4375 4177134.25 322.410003662
574813.625 4177134.75 322.679992676
574814.6875 4177134.75 323.369995117
574814.875 4177134.25 322.510009766
574816.125 4177134.5 323.440002441
574807 4177134.75 322.25
574809.625 4177135.25 323.290008545
574811.9375 4177135 325.010009766
574812.0625 4177135 323.299987793
574812.125 4177135 324.589996338
574812.25 4177135.25 324
574813.4375 4177135 323.209991455
574813.4375 4177135 325.040008545
574814.8125 4177135 321.760009766
574814.875 4177135.25 323.700012207
574815.0625 4177135 321.440002441
574809.4375 4177135.5 323.450012207
574809.6875 4177135.75 322.950012207
574810.8125 4177135.5 323.25
574811 4177135.75 323.190002441
574812.0625 4177136 324.429992676
574813.4375 4177135.75 323.799987793
574813.5625 4177135.75 324.679992676
574808.3125 4177136.5 321.820007324
574808.5 4177136 321.230010986
574808.5625 4177136.5 321.320007324
574809.5 4177136.25 323.630004883
574809.625 4177136.5 322.170013428
574809.6875 4177136.5 323.429992676
574810.875 4177136.25 323.359985352
574811.0625 4177136.25 323.010009766
574812.0625 4177136.5 324.660003662
574812.1875 4177136.25 325.579986572
574812.1875 4177136.5 325.489990234
574813.625 4177136.25 324.429992676
574814.75 4177136 324.220001221
574814.8125 4177136.5 323.640014648
574814.9375 4177136.25 324.290008545
574808.375 4177137 321.839996338
574808.625 4177137.25 321.519989014
574809.625 4177137 322.559997559
574809.8125 4177136.75 322.529998779
574811 4177137.25 325.130004883
574812.125 4177137.25 324.829986572
574812.3125 4177137 324.809997559
574812.4375 4177137 322.959991455
574813.375 4177136.75 325.329986572
574813.5625 4177137 325.320007324
574813.5625 4177136.75 322.799987793
574808.4375 4177137.5 321.690002441
574808.625 4177137.75 321.570007324
574809.8125 4177137.25 320.899993896
574809.8125 4177137.25 323.290008545
574810 4177137.25 321.329986572
574810.8125 4177137.25 325.070007324
574811 4177137.75 325.109985352
574813.5 4177137.75 324.649993896
574808.4375 4177138.25 322.549987793
574809.75 4177138.25 322.109985352
574810.8125 4177137.75 325.149993896
574810.9375 4177138.25 324.420013428
574811.0625 4177138.25 325.019989014
574813.5625 4177138.25 324.549987793
574813.75 4177138.25 324.75
574814.875 4177138 324.5
574815.25 4177138.25 322.410003662
574808.5 4177138.75 322.160003662
574808.625 4177138.5 322.700012207
574808.6875 4177138.75 322.109985352
574809.8125 4177138.5 324.170013428
574811 4177138.75 324.230010986
574811.0625 4177138.75 325.579986572
574812.1875 4177138.5 325.290008545
574813.8125 4177139 324.920013428
574815 4177138.75 323.720001221
574815.0625 4177138.5 324.899993896
574808.75 4177139.25 321.630004883
574809.75 4177139 323.25
574809.875 4177139.5 322.559997559
574809.875 4177139.25 324.529998779
574810 4177139.25 322.760009766
574811 4177139.5 324.799987793
574811.1875 4177139 324.779998779
574813.5625 4177139 325.179992676
574813.8125 4177139.5 325.260009766
574815.0625 4177139.25 323.559997559
574815.25 4177139.5 321.920013428
574815.25 4177139 323.630004883
574815.3125 4177139.25 322.690002441
574816.25 4177139 324.299987793
574816.375 4177139.5 323.709991455
574816.5 4177139 324.309997559
574816.5625 4177139.5 324
574808.8125 4177139.5 321.339996338
574810.0625 4177139.5 322.440002441
574810.125 4177140 322.220001221
574811.0625 4177140 325.100006104
574811.1875 4177139.75 325.100006104
574813.625 4177139.75 325.480010986
574813.75 4177140 324.269989014
574815.3125 4177140 321.640014648
574815.4375 4177139.75 322.100006104
574816.4375 4177140 323.950012207
574811.25 4177140.25 325.140014648
574812.5 4177140.5 323.970001221
574812.6875 4177140.25 324.149993896
574812.75 4177140.75 323.839996338
574813.8125 4177140.25 326.140014648
574813.875 4177140.25 323.25
574813.875 4177140.5 325.329986572
574814.0625 4177140.5 323.149993896
574816.5625 4177140.25 324.609985352
574812.5 4177141 324.269989014
574812.75 4177141.25 323.709991455
574813.9375 4177141 323.220001221
574814.1875 4177140.75 322.380004883
574814.25 4177141.25 322.220001221
574815.25 4177141 324.890014648
574816.375 4177141 325.25
574816.5625 4177141 325.369995117
574816.625 4177141.25 324.779998779
574812.5625 4177141.5 324.070007324
574812.8125 4177141.75 323.980010986
574814.0625 4177141.75 321.989990234
574814.3125 4177141.75 321.910003662
574815.125 4177141.5 325.339996338
574815.3125 4177141.5 325.230010986
574815.375 4177141.75 324.700012207
574816.4375 4177141.5 325.160003662
574816.625 4177141.75 325.179992676
574803.4375 4177142 320.820007324
574803.6875 4177142.25 320.790008545
574812.625 4177142.25 324.230010986
574812.875 4177142.25 323.910003662
574814.1875 4177142.25 321.420013428
574814.375 4177142.25 321.809997559
574815.1875 4177142 324.859985352
574815.4375 4177142.25 324.220001221
574816.5 4177142.25 325.220001221
574816.75 4177142.25 324.769989014
574802.25 4177142.75 319.200012207
574803.5 4177142.75 320.799987793
574803.75 4177142.75 320.459991455
574804.8125 4177143 321.850006104
574805 4177143 322.140014648
574815.25 4177142.5 324.670013428
574815.375 4177143 323.890014648
574815.5 4177142.75 324.510009766
574816.5625 4177142.75 324.910003662
574816.75 4177142.75 324.760009766
574802.25 4177143.5 319.980010986
574802.5 4177143.5 319.859985352
574803.5 4177143.5 321.779998779
574803.75 4177143.5 321.660003662
574804.9375 4177143.5 321.369995117
574806 4177143.25 324.410003662
574806.1875 4177143.25 324.709991455
574806.25 4177143.5 324.5
574807.375 4177143.25 324.279998779
574807.625 4177143.25 323.279998779
574811.8125 4177143.5 319.839996338
574812 4177143.5 320.010009766
574812.8125 4177143.75 323.309997559
574813.0625 4177143.5 322.880004883
574814.0625 4177143.5 323.970001221
574814.25 4177143.25 323.869995117
574815.375 4177143.5 324.049987793
574815.625 4177143.75 323.829986572
574816.625 4177143 324.5
574816.6875 4177143.75 324.299987793
574816.8125 4177143.25 324.989990234
574802.3125 4177144.25 320.119995117
574802.5625 4177144 319.709991455
574803.625 4177143.75 320.339996338
574803.75 4177144 321.869995117
574803.75 4177144 319.239990234
574803.875 4177144.25 320.820007324
574805.125 4177144 321.799987793
574806 4177144 324.570007324
574807.4375 4177143.75 323.940002441
574807.6875 4177143.75 323.619995117
574808.9375 4177144 325.100006104
574810.0625 4177144 324.869995117
574811.75 4177144.25 320.880004883
574812.9375 4177144.25 322.980010986
574813.125 4177144 322.809997559
574814.125 4177144 324.079986572
574814.3125 4177143.75 324.019989014
574814.375 4177144.25 324.010009766
574815.4375 4177144 323.890014648
574815.6875 4177144.25 323.709991455
574816.875 4177143.75 324.720001221
574801.0625 4177144.25 318.440002441
574801.3125 4177144.25 318.089996338
574802.375 4177144.75 319.600006104
574802.5 4177144.75 320.829986572
574806 4177144.75 325.619995117
574806.1875 4177144.5 325.709991455
574807.4375 4177144.5 324.619995117
574807.6875 4177144.5 324.559997559
574807.75 4177144.75 323.380004883
574808.75 4177144.75 324.910003662
574808.9375 4177144.5 325.25
574810.125 4177144.75 324.950012207
574811.9375 4177144.5 322.140014648
574814.1875 4177144.5 324.040008545
574814.375 4177144.75 324.109985352
574815.4375 4177144.75 324.480010986
574815.6875 4177144.75 324.100006104
574816.8125 4177144.75 324.089996338
574801.3125 4177145 318.859985352
574802.5625 4177145.25 321.049987793
574803.625 4177145.25 322.140014648
574803.8125 4177145.25 322.480010986
574805 4177145.25 324.429992676
574806.0625 4177145.25 325.670013428
574806.25 4177145 325.769989014
574806.3125 4177145.25 325.140014648
574807.5 4177145 324.640014648
574809.0625 4177145 324.470001221
574810.1875 4177145.25 324.950012207
574810.375 4177145.5 325.209991455
574811.6875 4177145.25 322.709991455
574811.9375 4177145 322.140014648
574812.875 4177145.25 324.5
574813 4177145 324.950012207
574813.0625 4177145.5 324.510009766
574814.25 4177145.25 324.040008545
574814.5 4177145 323.390014648
574815.75 4177145.25 324.260009766
574802.3125 4177145.5 321.049987793
574802.625 4177145.75 320.760009766
574803.875 4177145.5 321.75
574805 4177145.5 322.239990234
574805 4177145.75 324.950012207
574805.25 4177145.5 322.320007324
574806.125 4177146 325.540008545
574806.375 4177145.75 325.239990234
574806.375 4177145.75 322.440002441
574806.5 4177146 323.619995117
574807.5625 4177145.5 323.970001221
574807.6875 4177145.75 325.559997559
574808.75 4177145.5 326.220001221
574809 4177145.75 325.820007324
574810.25 4177145.75 324.760009766
574810.4375 4177145.75 324.920013428
574811.9375 4177145.75 322.700012207
574812.9375 4177145.75 324.540008545
574813.125 4177146 324.660003662
574814.1875 4177146 325.260009766
574814.4375 4177146 325.040008545
574815.5 4177145.5 324.760009766
574815.5625 4177146 324.600006104
574815.75 4177146 324.579986572
574805.0625 4177146.25 322.649993896
574805.25 4177146.25 322.549987793
574806.4375 4177146.25 322.549987793
574806.625 4177146.25 322.470001221
574807.625 4177146.25 324.329986572
574807.6875 4177146.5 323.589996338
574807.75 4177146.25 325.579986572
574807.875 4177146.5 324.380004883
574808.8125 4177146 325.929992676
574808.875 4177146.5 325.619995117
574809.0625 4177146 325.160003662
574810.5 4177146.25 324.899993896
574811.625 4177146.25 324.510009766
574811.875 4177146.25 322.109985352
574812.0625 4177146 322.239990234
574812.0625 4177146.5 322.380004883
574812.9375 4177146.5 325.279998779
574813.125 4177146.5 324.989990234
574814.5 4177146.5 324.649993896
574815.625 4177146.5 324.209991455
574815.875 4177146.25 323.760009766
574805.0625 4177146.75 322.850006104
574805.3125 4177146.75 323
574806.4375 4177147 323.470001221
574806.6875 4177146.75 322.260009766
574807.9375 4177147 324.049987793
574809.125 4177146.75 325.609985352
574809.375 4177147.25 320.769989014
574810.1875 4177146.75 326.109985352
574811.9375 4177146.75 321.350006104
574812.0625 4177147.25 320.839996338
574812.1875 4177147 321.470001221
574812.9375 4177147 325.480010986
574813.1875 4177147.25 325.480010986
574814.1875 4177146.75 325.809997559
574814.5 4177147 322.440002441
574814.5625 4177146.75 323.890014648
574814.75 4177147 322.480010986
574814.8125 4177147.25 321.429992676
574815.6875 4177147 323.859985352
574815.875 4177146.75 324.339996338
574806.4375 4177147.75 323.660003662
574807.75 4177147.25 324
574807.8125 4177147.75 323.350006104
574808 4177147.25 323.399993896
574808.0625 4177147.75 322.850006104
574808.9375 4177147.25 325.799987793
574809 4177147.75 325.230010986
574809.125 4177147.25 325.790008545
574809.1875 4177147.75 325.470001221
574809.375 4177147.75 320.779998779
574809.5 4177147.25 321.630004883
574812.25 4177147.25 320.760009766
574813 4177147.75 325.279998779
574813.1875 4177147.75 325.790008545
574814.25 4177147.25 326.019989014
574814.625 4177147.5 321.859985352
574815.75 4177147.5 324.119995117
574815.9375 4177147.25 323.940002441
574806.5 4177148.25 323.540008545
574806.6875 4177148 323.489990234
574807.9375 4177148 322.75
574808.1875 4177148 322.470001221
574808.3125 4177148.25 321.170013428
574809.5625 4177147.75 321.579986572
574815.75 4177148.25 324.329986572
574815.9375 4177148 324.480010986
574806.6875 4177148.75 324.200012207
574807.875 4177149 323.869995117
574815.875 4177148.75 323.640014648
574816 4177148.5 324.690002441
574816.0625 4177148.75 323.970001221
574806.5 4177149 324.130004883
574806.6875 4177149.5 325.049987793
574808.1875 4177149.5 323.660003662
574815.875 4177149.25 323.940002441
574816.125 4177149.25 323.5
574803.875 4177150 324.179992676
574804.0625 4177149.75 324.429992676
574805.3125 4177150 323.519989014
574805.5 4177149.5 323.75
574805.5625 4177150 323.019989014
574806.5 4177150 325.75
574806.6875 4177150 325.820007324
574807.9375 4177149.75 324.5
574808.1875 4177150 324.010009766
574809.25 4177149.75 324.489990234
574809.5 4177149.5 324.489990234
574816.1875 4177149.75 323.510009766
574803.875 4177150.5 324.410003662
574804.125 4177150.25 324.089996338
574805.375 4177150.5 323.420013428
574805.625 4177150.5 322.959991455
574806.5625 4177150.25 324.850006104
574806.75 4177150.5 325.440002441
574808 4177150.25 324.380004883
574809.25 4177150.75 325.640014648
574809.4375 4177150.25 325.510009766
574804 4177151 323.649993896
574804.1875 4177150.75 324.25
574804.25 4177151.25 323.820007324
574805.4375 4177151 322.75
574805.6875 4177151 323.130004883
574806.625 4177151 325.070007324
574806.8125 4177151 325.140014648
574808 4177150.75 324.540008545
574808.1875 4177151 323.149993896
574808.1875 4177150.75 325.269989014
574808.3125 4177151 324.190002441
574809.3125 4177151.25 325.309997559
574809.5 4177150.75 325.470001221
574809.5625 4177151.25 325.059997559
574804 4177151.5 323.850006104
574804.25 4177151.75 323.929992676
574806.625 4177151.75 326.130004883
574806.875 4177151.5 325.339996338
574808.25 4177151.5 322.730010986
574808.4375 4177151.75 323.119995117
574809.375 4177151.75 324.790008545
574809.625 4177151.75 324.609985352
574806.6875 4177152.25 325.359985352
574806.875 4177152.25 326.019989014
574808.25 4177152.25 323.260009766
574806.875 4177153 323.980010986
574808.3125 4177152.75 322.760009766
574808.4375 4177152.5 323.829986572
574808.5625 4177153 323.25
574809.5 4177152.75 324.700012207
574807.1875 4177153.25 323.890014648
574808.3125 4177153.5 323.609985352
574808.5 4177153.75 324.179992676
574809.5625 4177153.25 324.549987793
574809.75 4177153.25 324.730010986
574805.6875 4177153.75 322.730010986
574805.9375 4177154.25 323.239990234
574806.875 4177153.75 324.799987793
574807 4177154.25 323.829986572
574807.1875 4177154 324.570007324
574807.25 4177154.25 323.679992676
574808.4375 4177154 322.950012207
574808.5625 4177154 323.929992676
574809.5625 4177154 325.029998779
574809.875 4177153.75 324.369995117
574804.5 4177154.5 324.170013428
574805.6875 4177154.75 323.989990234
574806 4177154.75 323.25
574807.125 4177154.5 322.529998779
574807.25 4177154.75 321.410003662
574807.375 4177154.5 322.339996338
574807.5 4177154.75 321.359985352
574809.625 4177154.75 325.380004883
574809.875 4177154.25 324.920013428
574811 4177154.25 324.380004883
574811.25 4177154.5 324.529998779
574804.375 4177155 323.619995117
574804.5 4177155 325.010009766
574805.75 4177155 323.459991455
574806 4177155.25 323.230010986
574807.375 4177155 320.339996338
574808.3125 4177155 325.130004883
574808.5625 4177155 324.959991455
574808.6875 4177155.25 324.140014648
574809.6875 4177155.25 325.350006104
574809.875 4177155 325.149993896
574809.9375 4177155.5 325.070007324
574811.0625 4177155 324.440002441
574804.5625 4177155.5 324.200012207
574805.8125 4177155.75 323.619995117
574806.125 4177155.75 322.920013428
574807.4375 4177155.75 323.459991455
574808.375 4177155.5 324.940002441
574808.5 4177156 324.230010986
574808.6875 4177156 324.869995117
574809.75 4177155.5 324.390014648
574810 4177155.75 324.720001221
574807.25 4177156.25 322.989990234
574807.5 4177156.25 323.279998779
574808.625 4177156.25 323.019989014
574808.75 4177156.25 324.470001221
574808.9375 4177156.5 322.679992676
574809.8125 4177156.25 324.570007324
574810.0625 4177156.5 325.089996338
574807.3125 4177156.75 322.679992676
574807.5625 4177156.75 322.920013428
574808.75 4177156.75 321.940002441
574808.9375 4177157 322.679992676
574811.375 4177156.75 322.450012207
574808.75 4177157.25 322.25
574809 4177157.5 322.470001221
574811.375 4177157.5 323.440002441
574811.625 4177157.25 323.119995117
574810.1875 4177158 322.140014648
574810.375 4177158 323.049987793
574811.4375 4177158.25 323.510009766
574811.6875 4177157.75 323.059997559
574811.875 4177158.25 318.239990234
574812.0625 4177157.75 318.440002441
574808.875 4177158.5 322.279998779
574809.125 4177158.5 322.609985352
574810.1875 4177158.75 322.809997559
574810.4375 4177158.5 322.679992676
574810.5625 4177158.75 321.440002441
574811.5 4177158.75 323.309997559
574811.6875 4177158.5 323.339996338
574811.9375 4177158.75 318.489990234
574812.125 4177158.5 318.679992676
574808.9375 4177159 322.440002441
574809.125 4177159.25 320.410003662
574809.125 4177159.25 323.079986572
574809.25 4177159.5 322.209991455
574810.25 4177159.25 322.339996338
574810.4375 4177159.25 320.410003662
574810.625 4177159.25 321.200012207
574811.9375 4177159.5 318.940002441
574812.125 4177159.25 319.589996338
574813.1875 4177159 319.510009766
574809.25 4177160 322.239990234
574810.4375 4177160 321.029998779
574810.6875 4177160 318.820007324
574810.6875 4177159.75 321.140014648
574812.1875 4177159.5 319.290008545
574813.25 4177159.75 319.940002441
574813.5 4177159.5 319.630004883
574813.5 4177160.25 319.799987793
574810.75 4177160.25 321.25
574810.875 4177160.5 319.279998779
574811.875 4177160.5 320.309997559
574812.1875 4177160.25 319.570007324
574813.3125 4177160.25 319.660003662
574813.5625 4177160.75 319.760009766
574812 4177160.75 319.640014648
574812.1875 4177161 320.279998779
574812.3125 4177161.25 319.140014648
574811 4177161.5 319.190002441
574812.0625 4177161.25 319.529998779
