# .PCD v.7 - Point Cloud Data file format
VERSION .7
FIELDS x y z
SIZE 4 4 4
TYPE F F F
COUNT 1 1 1
WIDTH 59
HEIGHT 1
VIEWPOINT 0 0 0 1 0 0 0
POINTS 59
DATA ascii
574792 4177154.5 321.429992676
574792.3125 4177154.5 320.899993896
574791.0625 4177155 320.029998779
574792.0625 4177155.25 321.160003662
574792.3125 4177155.25 321.799987793
574789.5 4177155.75 320.649993896
574789.75 4177155.75 320.260009766
574790.8125 4177155.5 320.760009766
574791.0625 4177155.5 320.510009766
574792.125 4177155.75 321.390014648
574792.375 4177155.75 321.339996338
574793.5625 4177155.75 320.529998779
574793.8125 4177155.5 320.480010986
574789.8125 4177156.25 320.529998779
574790.875 4177156 320.450012207
574791.125 4177156 320.489990234
574791.375 4177156.5 318.209991455
574792.1875 4177156.5 321.730010986
574792.375 4177156.5 319.079986572
574792.4375 4177156.25 321.420013428
574792.6875 4177156 318.440002441
574792.6875 4177156.5 318.529998779
574793.75 4177156.5 318.959991455
574788.8125 4177157.25 317.829986572
574789.625 4177156.75 319.940002441
574789.875 4177156.75 320.059997559
574790 4177157 316.160003662
574791 4177157 319.880004883
574791.125 4177156.75 321.489990234
574792.5 4177156.75 318.239990234
574792.8125 4177156.75 317.359985352
574793.8125 4177157 319.010009766
574794 4177156.75 319.220001221
574794.0625 4177157 316.170013428
574788.8125 4177157.75 317.829986572
574789.75 4177157.25 319.760009766
574789.9375 4177157.25 320.079986572
574790 4177157.75 319.559997559
574791.125 4177157.5 319.410003662
574791.3125 4177157.5 319.940002441
574791.5 4177157.5 317.589996338
574792.6875 4177157.5 316.779998779
574792.875 4177157.5 317.410003662
574794.0625 4177157.25 318.869995117
574794.375 4177157.75 316.290008545
574789.9375 4177158.25 318.179992676
574790.0625 4177158.25 316.510009766
574790.125 4177158 318.609985352
574791.125 4177158.25 319.769989014
574791.5625 4177158 317.470001221
574792.75 4177158.25 317.070007324
574792.9375 4177158 317.450012207
574793 4177158.25 316.619995117
574790.1875 4177158.5 318.660003662
574790.3125 4177158.75 317.440002441
574791.25 4177158.75 319.25
574791.4375 4177158.75 316.670013428
574791.6875 4177158.5 316.989990234
574791.75 4177158.75 316.25
