# .PCD v.7 - Point Cloud Data file format
VERSION .7
FIELDS x y z
SIZE 4 4 4
TYPE F F F
COUNT 1 1 1
WIDTH 362
HEIGHT 1
VIEWPOINT 0 0 0 1 0 0 0
POINTS 362
DATA ascii
574785.1875 4177118 317.320007324
574786.5 4177118.25 317.470001221
574785 4177118.5 317.950012207
574785.1875 4177118.75 318.190002441
574786.25 4177118.75 318.779998779
574791.75 4177118.75 318.690002441
574791.9375 4177118.75 318.359985352
574796.0625 4177118.75 317.279998779
574785 4177119 318.190002441
574785.1875 4177119.25 318.269989014
574786.3125 4177119.25 318.829986572
574786.4375 4177119.5 318.019989014
574786.5 4177119 318.779998779
574786.5 4177119.5 318.760009766
574786.6875 4177119.25 316.630004883
574791.8125 4177119.5 319.049987793
574796.125 4177119 316.970001221
574796.3125 4177119.25 317.109985352
574783.9375 4177119.5 316.299987793
574784 4177120 316.070007324
574785.0625 4177119.75 318.459991455
574785.25 4177119.75 318.619995117
574786.5625 4177119.75 316.339996338
574786.75 4177119.75 316.619995117
574787.9375 4177120 318.420013428
574790.375 4177120 320.25
574790.5625 4177120 319.609985352
574791.9375 4177120 319.630004883
574784.125 4177120.25 316.359985352
574785.125 4177120.25 318.390014648
574785.25 4177120.5 317.420013428
574785.25 4177120.25 318.429992676
574785.375 4177120.5 318
574785.4375 4177120.75 316.850006104
574787.8125 4177120.5 318.640014648
574788 4177120.5 318.220001221
574789.375 4177120.25 317.730010986
574790.4375 4177120.5 319.559997559
574790.625 4177120.25 319.260009766
574791.8125 4177120.25 319.820007324
574792 4177120.5 319.339996338
574794.6875 4177120.5 318.630004883
574794.875 4177120.5 319.040008545
574796.1875 4177120.25 317.510009766
574783.9375 4177121 317.309997559
574784.1875 4177121.25 317.160003662
574785.3125 4177120.75 316.690002441
574785.5 4177121.25 316.940002441
574786.6875 4177121.25 318.899993896
574789.375 4177121.25 319.25
574790.5 4177121 319.239990234
574790.625 4177121.25 318.589996338
574790.6875 4177120.75 319.609985352
574791.8125 4177120.75 319.989990234
574792 4177121 320.279998779
574794.75 4177121.25 318.779998779
574794.9375 4177121 318.809997559
574796.1875 4177121 318.200012207
574784 4177121.5 317.559997559
574785.375 4177121.5 316.769989014
574785.5625 4177121.75 316.839996338
574786.625 4177122 318.470001221
574786.75 4177121.75 318.649993896
574787.875 4177121.75 321.049987793
574789.125 4177121.75 320.570007324
574789.375 4177121.75 319.529998779
574790.6875 4177121.75 318.339996338
574790.8125 4177121.5 318.880004883
574790.875 4177121.75 318.369995117
574791.8125 4177121.5 320.739990234
574792.0625 4177121.5 320.399993896
574793.25 4177121.75 320.970001221
574793.5 4177121.75 320.019989014
574794.9375 4177121.5 318.690002441
574796.3125 4177121.5 319.140014648
574784.1875 4177122 317.700012207
574784.25 4177122.25 315.510009766
574784.3125 4177122 316.25
574786.6875 4177122.25 318.089996338
574786.8125 4177122 318.170013428
574787.75 4177122.5 321.609985352
574787.875 4177122.5 319.760009766
574787.9375 4177122.25 321.450012207
574789.1875 4177122 319.950012207
574789.3125 4177122.5 319.160003662
574789.375 4177122.25 319.950012207
574791.8125 4177122.25 321.459991455
574792 4177122.25 321.149993896
574793.25 4177122.5 321.739990234
574793.5 4177122.5 320.440002441
574794.9375 4177122.25 319.880004883
574796.1875 4177122 319.230010986
574796.375 4177122 319.429992676
574786.75 4177123 319.790008545
574786.8125 4177122.5 316.920013428
574786.9375 4177122.75 317.390014648
574787.9375 4177123 319.720001221
574788 4177122.75 321.010009766
574788.125 4177122.5 318.970001221
574789.375 4177123 320.769989014
574789.5 4177123 319.149993896
574791.9375 4177122.5 320.510009766
574792 4177123 321.970001221
574793.25 4177123 321.510009766
574795 4177122.5 319.459991455
574796.3125 4177122.75 320.429992676
574796.4375 4177123 319.339996338
574784.5 4177123.25 315.279998779
574786.75 4177123.5 318.109985352
574787 4177123.25 317.480010986
574788.0625 4177123.5 321.049987793
574789.1875 4177123.5 321.329986572
574792 4177123.25 320.700012207
574792.125 4177123.25 321.559997559
574792.1875 4177123.5 320.380004883
574792.5 4177123.5 317.489990234
574793.3125 4177123.5 321.540008545
574793.5 4177123.25 321.320007324
574793.75 4177123.25 316.760009766
574793.8125 4177123.75 316.089996338
574795 4177123.25 318.480010986
574795.125 4177123.25 318.869995117
574795.1875 4177123.5 318.029998779
574796.25 4177123.25 319.720001221
574796.3125 4177123.75 319.369995117
574796.5 4177123.5 319.609985352
574786.9375 4177124.25 318.980010986
574787.125 4177124 316.920013428
574787.9375 4177123.75 320.920013428
574788.125 4177124 320.579986572
574789.3125 4177124 320.890014648
574789.4375 4177124.25 319.799987793
574789.5 4177124 320.720001221
574789.5625 4177124 319.609985352
574789.6875 4177124 316.529998779
574791 4177124.25 317.179992676
574792.125 4177124.25 320.25
574793.375 4177124 321.359985352
574793.5 4177123.75 321.660003662
574793.5625 4177124 321.359985352
574793.875 4177124 317.660003662
574794.0625 4177124 315.429992676
574795 4177124 318.869995117
574795.25 4177124.25 318.559997559
574783.1875 4177124.5 316.609985352
574784.3125 4177124.75 316.850006104
574784.5 4177124.5 316.929992676
574785.5 4177124.75 318.239990234
574788 4177124.5 320.940002441
574788.1875 4177124.25 318.609985352
574788.25 4177124.75 318.179992676
574788.3125 4177124.5 319.359985352
574788.5 4177124.25 316.929992676
574791.125 4177124.5 318.029998779
574792.125 4177124.75 320.649993896
574795 4177124.5 319.100006104
574784.4375 4177125.25 316.149993896
574784.5 4177125.25 317.959991455
574785.6875 4177125 319.220001221
574788.3125 4177125.25 318.100006104
574789.625 4177125 318.299987793
574789.6875 4177125 319.459991455
574792.3125 4177125 320.730010986
574792.5625 4177125.25 318.519989014
574793.8125 4177125.25 318.040008545
574794.0625 4177125.25 316.839996338
574783.25 4177125.75 317.570007324
574785.5 4177125.75 319.989990234
574785.6875 4177125.75 320.149993896
574787 4177125.75 318.149993896
574787.0625 4177126 317.070007324
574788.5 4177125.75 318.489990234
574789.625 4177125.75 319.059997559
574790.8125 4177126 321.570007324
574792.125 4177125.75 321.75
574792.3125 4177125.75 321.570007324
574793.5625 4177125.75 321.450012207
574793.9375 4177125.5 317
574794.0625 4177126 317.959991455
574795.375 4177125.5 316.410003662
574795.5 4177125.5 316.570007324
574783.0625 4177126 317.579986572
574783.125 4177126.5 317.260009766
574783.25 4177126.25 317.170013428
574784.375 4177126.25 317.739990234
574784.375 4177126.25 319.869995117
574784.5625 4177126.25 317.989990234
574785.5625 4177126.25 319.660003662
574785.6875 4177126.25 318.220001221
574785.75 4177126.25 319.850006104
574785.8125 4177126.5 319.290008545
574787.25 4177126.25 315.890014648
574787.25 4177126.25 317.579986572
574787.375 4177126.25 316.290008545
574788.625 4177126.5 317.470001221
574789.6875 4177126 318.299987793
574789.8125 4177126.25 317.279998779
574789.9375 4177126.5 318.109985352
574790.125 4177126.5 316.200012207
574790.9375 4177126.25 322.019989014
574791 4177126.5 321.820007324
574792.1875 4177126.25 321.489990234
574792.4375 4177126.5 321.239990234
574794 4177126 316.799987793
574794.1875 4177126.25 316.920013428
574795.3125 4177126.5 317.510009766
574782.0625 4177127.25 317.130004883
574783.1875 4177127 317.040008545
574783.3125 4177126.75 317.519989014
574783.4375 4177127 316.399993896
574784.375 4177127 318.679992676
574784.5625 4177127 318.959991455
574785.6875 4177127 319.109985352
574785.875 4177127 318.829986572
574787.25 4177127 316.649993896
574787.4375 4177126.75 316.339996338
574787.5 4177127 315.720001221
574788.625 4177127 318.290008545
574789.75 4177126.75 320.399993896
574789.8125 4177127 317.779998779
574790.8125 4177126.75 322.140014648
574790.9375 4177126.75 320.660003662
574791.0625 4177127 321.660003662
574791.25 4177127 316.980010986
574792.25 4177126.75 321.799987793
574792.4375 4177127.25 322.040008545
574783.3125 4177127.5 316.450012207
574783.5 4177127.25 316.220001221
574784.5 4177127.25 317.950012207
574784.5625 4177127.75 317.350006104
574784.625 4177127.5 318.640014648
574784.8125 4177127.75 316.359985352
574785.75 4177127.75 319.029998779
574785.875 4177127.5 319.220001221
574788.5625 4177127.5 317.5
574788.625 4177127.75 316.769989014
574788.6875 4177127.5 317.869995117
574790.9375 4177127.75 321.429992676
574791.0625 4177127.5 321.940002441
574792.4375 4177127.75 321.959991455
574795.3125 4177127.25 318.540008545
574795.4375 4177127.25 319.230010986
574795.5 4177127.75 319.309997559
574796.9375 4177127.25 316.239990234
574797 4177127.75 315.850006104
574797.125 4177127.5 316.359985352
574797.1875 4177127.75 315.630004883
574784.625 4177128 318.859985352
574784.6875 4177128 316.390014648
574785.8125 4177128 318.279998779
574785.9375 4177128 319.190002441
574786 4177128.25 318.470001221
574788.75 4177128 317.929992676
574788.75 4177128 315.630004883
574788.875 4177128 316.519989014
574790 4177127.75 316.609985352
574791.125 4177128 321.519989014
574792.3125 4177128 321.850006104
574792.5625 4177128 321.25
574794.125 4177128.25 319.350006104
574795.375 4177127.75 318.799987793
574795.5625 4177128.25 319.089996338
574795.6875 4177128.25 317.420013428
574798.6875 4177128 315.220001221
574788.75 4177128.75 316.470001221
574788.9375 4177128.5 316.089996338
574791.1875 4177128.5 321.570007324
574792.5 4177128.75 320.149993896
574792.6875 4177128.5 320.040008545
574793.9375 4177128.75 320.040008545
574794.1875 4177128.75 319.209991455
574795.3125 4177128.75 319.769989014
574795.8125 4177129 316.529998779
574797 4177128.5 316.670013428
574797.125 4177128.75 315.5
574797.1875 4177128.5 316.679992676
574797.3125 4177128.75 315.670013428
574798.5 4177128.5 315.970001221
574798.625 4177129 316.570007324
574788.9375 4177129.25 317.070007324
574789.0625 4177129.25 315.5
574792.5625 4177129.25 320.450012207
574792.75 4177129 320.230010986
574792.8125 4177129.5 320.140014648
574794.1875 4177129.25 319.700012207
574794.4375 4177129 316.980010986
574795.375 4177129.25 319.690002441
574795.5625 4177129.5 318.109985352
574795.5625 4177129.25 319.869995117
574795.875 4177129.5 317
574797.1875 4177129.25 315.190002441
574797.3125 4177129.25 315.579986572
574794.0625 4177129.75 319.920013428
574795.6875 4177129.75 316.899993896
574795.75 4177130 316.130004883
574795.9375 4177130 316.799987793
574797.375 4177129.75 315.869995117
574793 4177130.75 318.829986572
574794.125 4177130.25 319.739990234
574794.25 4177130.5 318.549987793
574794.3125 4177130.25 319.790008545
574794.4375 4177130.25 317.869995117
574796 4177130.5 316.459991455
574793.3125 4177130.75 315.820007324
574794.625 4177131 316.769989014
574795.9375 4177131 315.390014648
574796.0625 4177130.75 316.140014648
574796.125 4177131 315.269989014
574788.8125 4177131.75 318.820007324
574790.1875 4177131.75 318.399993896
574793.0625 4177131.75 317.25
574793.3125 4177131.5 316.420013428
574794.4375 4177131.25 317.329986572
574794.75 4177131.75 316.100006104
574795.9375 4177131.75 316.040008545
574796.1875 4177131.5 315.350006104
574788.875 4177132.25 318.630004883
574789.0625 4177132 318.630004883
574790.25 4177132.25 318.369995117
574790.4375 4177132 318.339996338
574790.5 4177132.25 317.970001221
574792 4177132.25 316.149993896
574793.1875 4177132 315.959991455
574793.3125 4177132.25 317
574796 4177132.25 315.950012207
574790.3125 4177132.75 317.980010986
574790.5625 4177132.75 318.019989014
574790.6875 4177133 316.600006104
574791.875 4177133 316.269989014
574792.0625 4177132.75 316.190002441
574794.75 4177132.5 316.940002441
574796.25 4177132.75 315.859985352
574790.75 4177133.5 316.369995117
574792 4177133.75 317.549987793
574793.0625 4177133.5 319.480010986
574793.1875 4177133.5 320.160003662
574791.875 4177134 317.149993896
574793.25 4177134 319.929992676
574793.3125 4177134.25 319.200012207
574790.75 4177134.75 317.529998779
574793.0625 4177134.25 320.089996338
574790.5625 4177135 317.559997559
574790.8125 4177135.25 317.290008545
574791.8125 4177135 319.179992676
574791.9375 4177135.25 317.910003662
574792 4177135.25 319.679992676
574792.125 4177135.25 318.070007324
574793.0625 4177135 320.450012207
574793.3125 4177135 320.130004883
574793.375 4177135.5 320.079986572
574794.625 4177135.25 319.059997559
574790.875 4177135.5 317.140014648
574793.125 4177135.5 320.570007324
574793.25 4177136 319.459991455
574793.375 4177136 320.010009766
574794.6875 4177135.75 318.760009766
574794.875 4177135.5 318.720001221
574790.9375 4177136.25 317.399993896
574792.1875 4177136.5 319.029998779
574793.3125 4177136.25 318.799987793
574793.5 4177136.25 319.380004883
574795 4177136.25 317.829986572
