# .PCD v.7 - Point Cloud Data file format
VERSION .7
FIELDS x y z
SIZE 4 4 4
TYPE F F F
COUNT 1 1 1
WIDTH 489
HEIGHT 1
VIEWPOINT 0 0 0 1 0 0 0
POINTS 489
DATA ascii
574810.1875 4177304.5 315.190002441
574812.125 4177304.25 315.160003662
574807.4375 4177304.75 316.160003662
574808 4177305 316.260009766
574808.75 4177305 316.760009766
574810.125 4177305 316.140014648
574810.625 4177305.25 317.420013428
574811.5 4177305.25 316
574808.125 4177305.5 315.200012207
574808.875 4177305.5 315.950012207
574810.1875 4177305.75 316.200012207
574810.625 4177305.75 317.459991455
574813.5 4177305.5 315.459991455
574814.3125 4177305.5 315.450012207
574807.5 4177306 316.700012207
574808.0625 4177306.25 316.880004883
574808.75 4177306.25 317.839996338
574809.375 4177306.25 316.920013428
574810.25 4177306.25 316.5
574810.75 4177306.25 316.779998779
574811.625 4177306.25 315.760009766
574813.625 4177306 315.149993896
574807.5 4177306.5 316.929992676
574808.0625 4177306.75 317.519989014
574808.75 4177307 318.230010986
574809.5 4177306.75 316.390014648
574810.1875 4177306.75 317.5
574810.75 4177306.75 317.470001221
574811.625 4177307 316.760009766
574815 4177306.5 315.619995117
574806.9375 4177307.25 315.630004883
574807.625 4177307.25 316.640014648
574808.0625 4177307.5 317.899993896
574808.875 4177307.5 317.589996338
574809.4375 4177307.5 317.929992676
574810.1875 4177307.5 317.850006104
574810.6875 4177307.5 318.679992676
574811.625 4177307.5 317.119995117
574812.25 4177307.25 316.570007324
574813.125 4177307.5 316.059997559
574815.0625 4177307 315.480010986
574807.5625 4177307.75 317.670013428
574807.6875 4177308.25 316.630004883
574808.125 4177308 317.899993896
574809.4375 4177308 318.049987793
574810.25 4177308 318.059997559
574810.75 4177308 318.450012207
574811.6875 4177308 317.179992676
574812.25 4177307.75 317.010009766
574813.125 4177308 316.420013428
574813.6875 4177307.75 315.920013428
574813.75 4177308.25 315.579986572
574814.5 4177307.75 316.070007324
574815.0625 4177307.75 315.890014648
574815.875 4177307.75 316.019989014
574807.8125 4177308.75 316.040008545
574808.1875 4177308.5 318.029998779
574809 4177308.5 316.950012207
574809.5625 4177308.5 317.470001221
574810.25 4177308.5 318.640014648
574810.9375 4177308.5 317.369995117
574811.6875 4177308.75 317.510009766
574812.3125 4177308.5 317.170013428
574813.1875 4177308.75 316.260009766
574813.8125 4177308.75 315.519989014
574814.625 4177308.75 315.829986572
574815.25 4177308.75 315.529998779
574815.9375 4177308.25 316.200012207
574816.5 4177308.75 316.720001221
574807.8125 4177309.25 316.350006104
574808.3125 4177309 317.059997559
574809.0625 4177309 317.149993896
574809.625 4177309.25 317.619995117
574810.3125 4177309.25 318.540008545
574810.875 4177309 318.380004883
574811.8125 4177309.25 316.859985352
574812.3125 4177309 317.559997559
574813.25 4177309.25 316.25
574813.875 4177309.5 315.369995117
574815.875 4177309 317.239990234
574816.5 4177309.5 317.230010986
574807.125 4177309.5 315.839996338
574807.9375 4177309.75 315.440002441
574808.375 4177309.5 316.899993896
574809.1875 4177309.5 316.350006104
574809.8125 4177309.5 315.920013428
574810.375 4177309.75 318.019989014
574810.875 4177309.75 318.820007324
574811.75 4177309.75 318.160003662
574812.4375 4177309.5 316.600006104
574812.5625 4177310 316.070007324
574813.3125 4177309.75 316.179992676
574813.9375 4177310 315.959991455
574814.5 4177309.5 317.5
574814.5625 4177310 317.339996338
574815.0625 4177309.5 318.140014648
574815.25 4177310 316.209991455
574815.9375 4177309.5 317.239990234
574816.625 4177310 316.049987793
574806.5625 4177310.25 316.279998779
574807.1875 4177310 315.350006104
574808 4177310.5 315.899993896
574808.5 4177310 315.940002441
574809.25 4177310 316.209991455
574809.8125 4177310.25 315.869995117
574810.5 4177310.25 317.619995117
574811.1875 4177310 316.239990234
574812.0625 4177310.25 315.320007324
574812.625 4177310.5 315.640014648
574813.3125 4177310.25 316.290008545
574813.875 4177310.5 316.75
574814.625 4177310.5 317.670013428
574816 4177310 317.109985352
574816.5625 4177310.5 317.359985352
574805.9375 4177310.75 315.600006104
574806.5 4177311 317.609985352
574807.1875 4177310.75 316.200012207
574808 4177311 315.869995117
574808.4375 4177310.75 317
574809.1875 4177310.75 317.279998779
574809.8125 4177310.75 316.549987793
574810.5625 4177310.75 317.380004883
574811.0625 4177310.75 318.359985352
574813.4375 4177311 316.040008545
574814 4177311.25 316.399993896
574814.75 4177311 316.320007324
574815.125 4177310.75 318.350006104
574815.25 4177311.25 317.320007324
574816 4177310.75 317.579986572
574816.5625 4177311.25 318.489990234
574805.375 4177311.25 315.850006104
574805.875 4177311.5 316.880004883
574806.5625 4177311.5 317.730010986
574807.125 4177311.5 317.959991455
574808.0625 4177311.5 315.649993896
574808.5625 4177311.25 316.100006104
574808.6875 4177311.75 315.630004883
574809.3125 4177311.25 316.410003662
574809.5 4177311.75 315.350006104
574810.6875 4177311.25 316.339996338
574811.25 4177311.25 316.510009766
574811.375 4177311.75 315.790008545
574813.5 4177311.5 315.829986572
574814.0625 4177311.75 315.799987793
574814.8125 4177311.75 316.359985352
574815.3125 4177311.75 317.459991455
574804.75 4177312 315.420013428
574805.375 4177312 316.679992676
574805.9375 4177312 316.690002441
574806.6875 4177312 316.890014648
574807.125 4177312 318.130004883
574810.75 4177311.75 316.359985352
574811.375 4177312.25 316.140014648
574812.75 4177312.25 315.899993896
574813.5 4177312 316.260009766
574814 4177312.25 317.720001221
574814.8125 4177312.25 316.829986572
574815.375 4177312.25 317.730010986
574816.1875 4177312.25 317.25
574804.75 4177312.75 315.989990234
574805.4375 4177312.5 316.859985352
574806 4177312.5 316.799987793
574806.625 4177312.75 318.119995117
574807.3125 4177312.5 316.940002441
574808.6875 4177313 316.450012207
574809.4375 4177313 317.029998779
574812.75 4177312.75 316.320007324
574813.4375 4177312.75 317.380004883
574814.0625 4177312.75 317.070007324
574814.6875 4177313 319.320007324
574815.25 4177313 319.149993896
574816.875 4177312.75 316.5
574804.3125 4177313.25 315.260009766
574804.875 4177313.25 315.329986572
574806.0625 4177313 316.160003662
574807.375 4177313 316.790008545
574808.75 4177313.5 316.609985352
574810.9375 4177313.5 316.059997559
574812.25 4177313 316.070007324
574812.3125 4177313.5 315.339996338
574812.75 4177313.5 316.970001221
574813.5 4177313.25 317.630004883
574814.75 4177313.5 319.239990234
574803.0625 4177313.75 315.25
574804.1875 4177314 317.339996338
574804.8125 4177313.75 316.579986572
574805.4375 4177313.75 317.850006104
574806.0625 4177313.75 317.290008545
574806.8125 4177313.75 316.989990234
574807.375 4177313.5 317.019989014
574807.4375 4177314 316.839996338
574808.125 4177314 317.339996338
574808.6875 4177314 317.730010986
574809.875 4177313.75 319.25
574810.875 4177314 316.920013428
574811.5 4177314 316.609985352
574812.8125 4177314 316.75
574813.5625 4177313.75 316.940002441
574814.1875 4177314 316.929992676
574814.6875 4177314 320.179992676
574815.1875 4177313.5 320.850006104
574816.0625 4177313.5 319.529998779
574816.25 4177314 318.339996338
574816.9375 4177314 317.029998779
574803.0625 4177314.25 315.369995117
574803.625 4177314.25 315.790008545
574804.1875 4177314.5 317.630004883
574804.75 4177314.5 317.570007324
574805.4375 4177314.25 318.239990234
574806 4177314.25 318.260009766
574806.9375 4177314.25 316.380004883
574807.4375 4177314.75 317.420013428
574808.1875 4177314.5 317.790008545
574808.75 4177314.75 317.5
574809.3125 4177314.25 319.739990234
574809.875 4177314.25 320.119995117
574811.5625 4177314.5 316.309997559
574812.3125 4177314.25 316.540008545
574812.375 4177314.75 315.940002441
574812.8125 4177314.5 317.369995117
574813.5625 4177314.25 317.660003662
574814.25 4177314.5 316.739990234
574814.8125 4177314.5 319.209991455
574815.25 4177314.25 321.149993896
574815.5 4177314.5 318.089996338
574816.3125 4177314.75 318.170013428
574817 4177314.5 317.019989014
574803.6875 4177314.75 315.769989014
574804.375 4177315 316.109985352
574804.875 4177315 317.329986572
574805.5 4177314.75 318.640014648
574805.6875 4177315.25 316.510009766
574806.0625 4177315 318.309997559
574806.375 4177315.25 315.239990234
574807.625 4177315.25 316.339996338
574808.25 4177315 317.309997559
574808.875 4177315.25 317.279998779
574809.4375 4177314.75 319.160003662
574809.9375 4177315 320
574810.875 4177314.75 317.950012207
574811 4177315.25 317.25
574813 4177315 316.079986572
574813.6875 4177315 317.059997559
574814.1875 4177315.25 318.140014648
574815 4177315 317.579986572
574815.5 4177315.25 318.690002441
574816.4375 4177315.25 317.160003662
574803.6875 4177315.5 316.140014648
574804.5 4177315.5 315.529998779
574805 4177315.5 315.660003662
574805.75 4177315.75 316.200012207
574806.375 4177316 315.790008545
574807.625 4177315.75 316.369995117
574808.375 4177315.5 316.739990234
574809.0625 4177315.75 315.609985352
574809.4375 4177315.25 319.329986572
574809.5625 4177315.75 318.359985352
574810 4177315.5 320.070007324
574811.0625 4177315.75 316.679992676
574812.9375 4177315.75 317.299987793
574813.6875 4177315.5 317.570007324
574814.25 4177315.75 318.429992676
574814.9375 4177315.75 319.529998779
574815.5625 4177315.75 318.75
574805.0625 4177316 316.119995117
574805.875 4177316.25 315.269989014
574806.4375 4177316.5 315.899993896
574807.0625 4177316 316.600006104
574807.125 4177316.5 316.799987793
574807.6875 4177316.25 316.700012207
574809.0625 4177316.25 316.239990234
574809.5625 4177316.5 318.829986572
574810.125 4177316 318.899993896
574810.375 4177316.25 316.320007324
574811 4177316.5 318
574811.5 4177316.5 318.720001221
574812.375 4177316.5 317.760009766
574813 4177316.25 317.230010986
574813.75 4177316 317.779998779
574814.25 4177316.25 318.299987793
574815 4177316.25 318.720001221
574815.625 4177316.25 318.480010986
574805.875 4177317 315.869995117
574807.25 4177317 315.779998779
574807.75 4177317 316.390014648
574809.1875 4177316.75 315.380004883
574809.9375 4177316.75 315.220001221
574810.375 4177317 316.739990234
574811.125 4177317 317.489990234
574811.5 4177317 319.619995117
574813.0625 4177316.75 316.910003662
574813.8125 4177316.5 317.489990234
574814.3125 4177316.75 318.820007324
574815.0625 4177316.75 318.529998779
574815.8125 4177316.75 317.359985352
574816.6875 4177316.75 316.179992676
574806.5625 4177317.5 315.190002441
574807.3125 4177317.5 315.660003662
574809 4177317.5 317.600006104
574809.8125 4177317.5 317.420013428
574810.375 4177317.5 317.450012207
574811.6875 4177317.5 317.959991455
574812.3125 4177317.25 319.440002441
574813.125 4177317.25 316.940002441
574813.8125 4177317.25 317.690002441
574814.0625 4177317.5 315.570007324
574814.5 4177317.25 317.170013428
574815.375 4177317.25 315.779998779
574815.875 4177317.25 316.809997559
574805.875 4177318 317.149993896
574807.1875 4177318.25 317.709991455
574808.4375 4177317.75 318.089996338
574809 4177318 318.690002441
574809.75 4177318 318.540008545
574810.3125 4177318.25 319.059997559
574811.0625 4177318 318.970001221
574811.75 4177318 318.190002441
574812.4375 4177318.25 318.959991455
574815.3125 4177317.75 316.859985352
574815.875 4177318 317.820007324
574805.9375 4177318.75 316.950012207
574806.4375 4177318.75 318.350006104
574807.3125 4177318.75 316.489990234
574807.9375 4177318.5 315.980010986
574808.375 4177318.5 319.299987793
574808.9375 4177318.75 319.929992676
574809.75 4177318.75 319.489990234
574810.3125 4177318.75 319.609985352
574811 4177318.75 320.660003662
574811.6875 4177318.75 319.619995117
574812.5 4177318.75 318.769989014
574815.4375 4177318.25 316.100006104
574816 4177318.5 316.779998779
574805.25 4177319.5 317.399993896
574805.9375 4177319.25 318.230010986
574807.4375 4177319.25 315.920013428
574807.9375 4177319.25 316.970001221
574808.4375 4177319 319.540008545
574809.0625 4177319.25 319.100006104
574809.5 4177319.5 322.609985352
574811 4177319.5 321.540008545
574811.625 4177319.25 320.679992676
574812.4375 4177319.5 320.049987793
574813.4375 4177319 315.239990234
574814.125 4177319.25 316.269989014
574805.375 4177320 316.570007324
574806 4177319.75 317.980010986
574806.375 4177319.5 319.75
574806.5625 4177320 318.260009766
574807.4375 4177319.75 316.279998779
574807.6875 4177320 320.089996338
574808.5 4177319.5 319.670013428
574808.9375 4177320 321.209991455
574809.5 4177320 323.350006104
574810 4177319.5 323.980010986
574810.9375 4177320 322.799987793
574811.4375 4177320 323.649993896
574813.4375 4177319.5 315.649993896
574814.75 4177319.5 316.019989014
574815.5625 4177320 316.070007324
574804.75 4177320 316.880004883
574805.375 4177320.5 317.029998779
574806 4177320.5 318.510009766
574806.5625 4177320.5 318.630004883
574807.4375 4177320.5 316.980010986
574807.75 4177320.5 320.209991455
574808.375 4177320.25 321.070007324
574809 4177320.5 321.269989014
574809.6875 4177320.5 322.049987793
574810.0625 4177320 323.820007324
574811.5 4177320.5 323.679992676
574812.375 4177320 321.720001221
574813.25 4177320.25 318.510009766
574804.8125 4177320.5 317.279998779
574804.8125 4177321.25 317.350006104
574805.4375 4177321 317.220001221
574806.0625 4177321 318.179992676
574806.6875 4177321 318.160003662
574808.375 4177320.75 321.839996338
574809.0625 4177321 320.839996338
574809.75 4177321 321.760009766
574810.125 4177320.75 323.630004883
574810.875 4177320.5 324.029998779
574810.875 4177321.25 324.190002441
574811.6875 4177321 321.510009766
574812.3125 4177320.75 322.730010986
574812.625 4177321 319.769989014
574813 4177321 321.989990234
574814.9375 4177321.25 315.609985352
574815.6875 4177321.25 316.399993896
574816.375 4177321 315.339996338
574806.1875 4177321.5 317.5
574806.5 4177321.75 321.109985352
574807.125 4177321.25 321.649993896
574807.1875 4177321.75 321.589996338
574807.75 4177321.75 321.609985352
574808.375 4177321.5 322.359985352
574809.0625 4177321.5 321.859985352
574810 4177321.5 318.970001221
574810.125 4177321.25 324.269989014
574810.3125 4177321.75 322.880004883
574811 4177321.75 323.470001221
574811.6875 4177321.5 322.269989014
574812.8125 4177321.5 318.380004883
574813.5 4177321.25 316.649993896
574815.75 4177321.75 316.079986572
574816.375 4177321.75 315.649993896
574806 4177322.25 320.010009766
574806.5 4177322.25 321.489990234
574807.125 4177322.25 322.410003662
574807.75 4177322.25 321.869995117
574808.375 4177322 323
574809 4177322.25 323.140014648
574810 4177322 319.529998779
574810.3125 4177322.25 322.959991455
574811.3125 4177322 320.25
574811.75 4177322.25 322.359985352
574812.875 4177322 317.859985352
574813.5 4177321.75 317.739990234
574813.75 4177322.25 315.179992676
574815.8125 4177322.25 315.470001221
574816.4375 4177322.25 315.440002441
574805.5 4177322.75 317.929992676
574806 4177322.75 320.380004883
574806.5 4177323 322.25
574807.25 4177323 321.959991455
574807.8125 4177322.75 322.170013428
574808.4375 4177322.5 323.399993896
574809.0625 4177322.75 322.910003662
574810.1875 4177322.5 318.339996338
574810.8125 4177322.5 317.720001221
574811.375 4177322.75 319.929992676
574812 4177322.5 319.640014648
574813.0625 4177322.5 316.630004883
574813.75 4177322.75 315.320007324
574814.5 4177322.5 315.450012207
574805.625 4177323.25 317.320007324
574806.125 4177323.25 320.140014648
574806.5625 4177323.5 321.709991455
574807.3125 4177323.5 321.480010986
574807.875 4177323.25 321.920013428
574808.5625 4177323 322.399993896
574809.1875 4177323.25 322.010009766
574810.1875 4177323 318.890014648
574810.9375 4177323 317.209991455
574811.6875 4177323 316.859985352
574812.3125 4177323 316.470001221
574813.125 4177323 315.869995117
574813.75 4177323.5 316.100006104
574814.5 4177323.25 316.540008545
574805.625 4177324 317.630004883
574806.1875 4177323.75 320.119995117
574806.625 4177324 321.649993896
574807.5 4177324 320.079986572
574807.9375 4177323.75 321.700012207
574808.6875 4177323.5 321.549987793
574808.9375 4177324 319.089996338
574809.3125 4177323.75 321.329986572
574810.1875 4177323.75 319.670013428
574810.4375 4177324.25 317.170013428
574810.9375 4177323.75 317.559997559
574811.75 4177323.5 316.720001221
574812.375 4177323.5 316.799987793
574813.75 4177324 316.739990234
574814.4375 4177323.75 317.470001221
574806.25 4177324.25 319.459991455
574806.8125 4177324.5 319.959991455
574807.5 4177324.5 320.700012207
574808.125 4177324.25 319.869995117
574809 4177324.5 318.359985352
574809.375 4177324.25 321.010009766
574809.8125 4177324.75 316.529998779
574810.875 4177324.25 318.769989014
574811.875 4177324.25 316.279998779
574806.5 4177324.75 317.049987793
574807.0625 4177325 317.880004883
574807.5625 4177325 320.559997559
574808.1875 4177325 319.970001221
574809.25 4177325 316.709991455
574809.875 4177325.25 316.440002441
574810.6875 4177325.25 315.350006104
574811 4177324.75 317.980010986
574811.3125 4177325.25 315.279998779
574807.125 4177325.5 317.890014648
574807.6875 4177325.5 319.549987793
574808.25 4177325.5 319.429992676
574809.8125 4177325.75 317.170013428
574810.625 4177325.75 316.600006104
574811.25 4177325.75 316.130004883
