# .PCD v.7 - Point Cloud Data file format
VERSION .7
FIELDS x y z
SIZE 4 4 4
TYPE F F F
COUNT 1 1 1
WIDTH 173
HEIGHT 1
VIEWPOINT 0 0 0 1 0 0 0
POINTS 173
DATA ascii
574611.1875 4177171.25 317.119995117
574611.5 4177171 317.010009766
574611.25 4177171.75 317.160003662
574611.5 4177171.5 317.25
574612.5 4177171.25 317.609985352
574612.6875 4177171.75 318.119995117
574608.6875 4177172 316.989990234
574611.5 4177172.25 317.660003662
574612.5 4177172 317.940002441
574612.75 4177172.5 318.079986572
574613.8125 4177172.5 317.970001221
574614.0625 4177172.5 317.75
574608.6875 4177172.5 317.130004883
574609 4177172.5 317.130004883
574610.3125 4177172.75 316.980010986
574611.25 4177172.5 317.670013428
574611.5625 4177172.75 317.829986572
574612.5 4177172.5 318.25
574612.8125 4177173 318.220001221
574614.125 4177173 317.709991455
574607.6875 4177173.5 317.970001221
574608.75 4177173.25 317.600006104
574609 4177173.25 317.820007324
574610.0625 4177173 317.179992676
574610.375 4177173.5 317.380004883
574611.3125 4177173 317.799987793
574611.625 4177173.25 317.790008545
574612.5625 4177173.25 317.970001221
574612.875 4177173.5 318.070007324
574613.8125 4177173.25 318.380004883
574614.1875 4177173.5 317.970001221
574615.25 4177173.5 317.079986572
574607.4375 4177173.75 318.260009766
574607.75 4177174 318.070007324
574608.75 4177174 318.200012207
574609 4177173.75 317.940002441
574610.0625 4177173.75 317.589996338
574610.375 4177174 317.75
574611.375 4177173.75 317.869995117
574611.625 4177174 318.059997559
574612.625 4177173.75 317.950012207
574612.875 4177174 318.010009766
574613.875 4177173.75 318.260009766
574614.25 4177174 317.660003662
574615.3125 4177174 316.940002441
574615.5625 4177173.75 316.920013428
574606.5 4177174.75 317.890014648
574607.5 4177174.25 317.880004883
574607.75 4177174.75 318.149993896
574608.8125 4177174.5 318.040008545
574609.0625 4177174.5 318.049987793
574610.125 4177174.5 317.739990234
574610.4375 4177174.75 317.910003662
574611.375 4177174.5 318.260009766
574611.6875 4177174.5 318.100006104
574612.6875 4177174.25 317.940002441
574612.9375 4177174.5 318.260009766
574613.9375 4177174.25 318.140014648
574614.0625 4177174.75 317.540008545
574614.3125 4177174.5 317.350006104
574606.5625 4177175.25 317.859985352
574607.5 4177175 318.119995117
574607.8125 4177175.25 318.059997559
574608.8125 4177175 317.950012207
574609.125 4177175 317.880004883
574610.125 4177175 317.980010986
574610.4375 4177175.25 318.070007324
574611.4375 4177175 318.359985352
574611.6875 4177175.25 318.329986572
574612.75 4177175 318.010009766
574613 4177175.25 318.140014648
574614.125 4177175.25 317.140014648
574614.375 4177175 317.109985352
574606.3125 4177175.5 317.559997559
574606.375 4177176 317.25
574606.625 4177175.75 317.769989014
574607.5625 4177175.5 317.799987793
574607.875 4177175.75 317.850006104
574608.875 4177175.75 318.399993896
574609.1875 4177175.5 317.970001221
574610.1875 4177175.75 318.130004883
574610.5 4177175.75 318.190002441
574611.5 4177175.5 318.239990234
574611.75 4177175.75 318.260009766
574612.75 4177175.5 318.019989014
574613.0625 4177175.75 317.869995117
574614.1875 4177175.75 316.869995117
574614.4375 4177175.5 316.820007324
574606.4375 4177176.5 317.200012207
574606.6875 4177176.25 317.220001221
574607.625 4177176 317.760009766
574607.6875 4177176.5 317.399993896
574607.9375 4177176.25 317.869995117
574608.9375 4177176.25 318.339996338
574609.1875 4177176 318.070007324
574609.25 4177176.5 317.890014648
574610.25 4177176.25 318.299987793
574610.5 4177176.25 318.130004883
574611.5 4177176.25 318.220001221
574611.8125 4177176.25 318.089996338
574612.8125 4177176 317.75
574613.125 4177176.25 317.660003662
574614.1875 4177176.5 317.570007324
574614.4375 4177176.25 317.130004883
574615.5 4177176.5 317
574606.75 4177176.75 317.010009766
574607.75 4177177.25 317.410003662
574608 4177176.75 317.660003662
574608.9375 4177176.75 318.350006104
574609.3125 4177177 317.839996338
574610.25 4177176.75 318.239990234
574610.5625 4177176.75 317.850006104
574611.5625 4177176.75 318.160003662
574611.8125 4177176.75 318.260009766
574612.875 4177176.75 317.989990234
574613.125 4177176.75 317.940002441
574614.1875 4177177.25 318.220001221
574614.5 4177176.75 317.320007324
574615.5 4177177 317.380004883
574606.8125 4177177.25 316.869995117
574607.875 4177177.5 316.589996338
574608.0625 4177177.25 317.399993896
574608.0625 4177177.75 317.329986572
574609 4177177.5 318.25
574609.3125 4177177.75 317.959991455
574610.3125 4177177.5 318.190002441
574610.625 4177177.5 318.170013428
574611.625 4177177.25 317.959991455
574611.875 4177177.25 318.109985352
574612.9375 4177177.25 318
574613.1875 4177177.25 318.130004883
574614.5 4177177.25 317.700012207
574609.0625 4177178 318.410003662
574609.375 4177178.25 318.209991455
574610.375 4177178 318.25
574610.6875 4177178 318.049987793
574611.6875 4177177.75 318.029998779
574611.9375 4177177.75 318.029998779
574612 4177178.25 317.829986572
574613 4177177.75 317.880004883
574613.25 4177177.75 317.980010986
574614.25 4177177.75 318.320007324
574614.3125 4177178.25 317.890014648
574614.5625 4177178 317.820007324
574609.125 4177178.5 317.640014648
574609.4375 4177178.75 317.760009766
574610.4375 4177178.5 318.079986572
574610.75 4177178.5 317.609985352
574611.75 4177178.25 317.779998779
574612.0625 4177178.75 317.799987793
574613 4177178.5 318.019989014
574613.25 4177178.5 318.079986572
574614.375 4177178.75 317.920013428
574614.5625 4177178.5 317.839996338
574610.5 4177179 317.790008545
574610.625 4177179.5 316.640014648
574610.8125 4177179 317.609985352
574610.875 4177179.5 317.399993896
574611.75 4177179 317.859985352
574611.875 4177179.5 317.510009766
574612.125 4177179.25 317.570007324
574613.0625 4177179 318
574613.125 4177179.5 317.799987793
574613.3125 4177179 318.239990234
574613.375 4177179.5 317.950012207
574611.9375 4177180 317.25
574612.1875 4177179.75 317.179992676
574613.1875 4177180 317.700012207
574613.4375 4177180 317.769989014
574612 4177180.5 316.559997559
574612.25 4177180.25 316.869995117
574613.25 4177180.5 316.850006104
574613.5 4177180.25 316.890014648
