# .PCD v.7 - Point Cloud Data file format
VERSION .7
FIELDS x y z
SIZE 4 4 4
TYPE F F F
COUNT 1 1 1
WIDTH 66
HEIGHT 1
VIEWPOINT 0 0 0 1 0 0 0
POINTS 66
DATA ascii
574814.5625 4177117.75 322.559997559
574814.6875 4177118.25 322.049987793
574814.75 4177118 322.220001221
574816.0625 4177118 320.899993896
574814.75 4177118.75 321.660003662
574814.8125 4177118.5 322.019989014
574815 4177118.5 320.269989014
574815.0625 4177118.75 319.649993896
574814.9375 4177119.25 320.149993896
574815.0625 4177119.25 320.200012207
574816.125 4177119.25 321.149993896
574816.3125 4177119 320.640014648
574816.375 4177119.5 320.420013428
574816.1875 4177119.75 321.079986572
574816.375 4177120 320.799987793
574815 4177120.5 320.200012207
574815.125 4177120.25 320.649993896
574815.1875 4177120.5 319.850006104
574816.1875 4177120.25 321.510009766
574816.375 4177120.5 319.959991455
574816.4375 4177120.5 321.119995117
574816.4375 4177121 319.690002441
574816.5 4177121 320.690002441
574816.5625 4177121 319.690002441
574814.0625 4177122 319.089996338
574816.625 4177121.5 319.619995117
574813.9375 4177122.5 319.480010986
574815.125 4177122.25 320.660003662
574815.25 4177122.5 321.480010986
574816.625 4177122.25 320.290008545
574814 4177122.75 320.640014648
574816.375 4177122.5 321.700012207
574816.6875 4177122.75 320.579986572
574813.125 4177123.5 316.369995117
574813.875 4177123.5 321.089996338
574814 4177123.5 321.559997559
574814.0625 4177123.5 319.290008545
574814.25 4177123.5 316.959991455
574814.3125 4177123.5 317.790008545
574815.0625 4177123.25 322.730010986
574815.1875 4177123.25 322.450012207
574815.25 4177123.75 322.609985352
574816.375 4177123.25 322.149993896
574816.5 4177123.5 321.299987793
574816.6875 4177123.25 321.239990234
574816.75 4177123.5 320.070007324
574816.875 4177123.5 317.079986572
574814.0625 4177123.75 320.950012207
574814.1875 4177124.25 318.170013428
574814.375 4177123.75 317.559997559
574815.0625 4177124 322.809997559
574815.3125 4177124 322.290008545
574816.5625 4177124 320.809997559
574816.8125 4177124 320.429992676
574814.375 4177124.5 318.320007324
574815.1875 4177124.25 322.510009766
574815.25 4177124.75 322.179992676
574815.375 4177124.25 321.630004883
574815.4375 4177124.75 321.540008545
574815.5 4177124.5 318.679992676
574815.625 4177124.5 317.279998779
574815.6875 4177124.25 318.149993896
574815.8125 4177124.5 316.959991455
574816.75 4177124.75 320.019989014
574816.9375 4177124.75 317.619995117
574817 4177125.25 317.529998779
