# .PCD v.7 - Point Cloud Data file format
VERSION .7
FIELDS x y z
SIZE 4 4 4
TYPE F F F
COUNT 1 1 1
WIDTH 1381
HEIGHT 1
VIEWPOINT 0 0 0 1 0 0 0
POINTS 1381
DATA ascii
574728.5625 4177327.5 312.100006104
574729.25 4177327.5 312.089996338
574729.8125 4177327.5 312
574730.5625 4177327.5 311.720001221
574731.0625 4177327.5 312.079986572
574731.8125 4177327.25 312.010009766
574732.4375 4177327.5 311.739990234
574733.0625 4177327.25 312.100006104
574733.6875 4177327.5 312.029998779
574734.375 4177327.25 312.239990234
574735 4177327.25 312.010009766
574735.6875 4177327.25 311.839996338
574736.3125 4177327.25 311.940002441
574737.0625 4177327.5 311.859985352
574737.625 4177327.25 311.730010986
574738.3125 4177327 311.920013428
574738.9375 4177327.25 311.809997559
574739.6875 4177327.25 311.829986572
574740.25 4177327 311.760009766
574741 4177327.25 311.859985352
574741.5625 4177327 311.910003662
574741.625 4177327.75 311.910003662
574742.3125 4177327.5 311.940002441
574742.9375 4177327.5 311.950012207
574743.625 4177327.5 311.899993896
574744.1875 4177327.5 311.929992676
574744.9375 4177327.5 311.880004883
574745.5 4177327.25 311.940002441
574746.25 4177327.5 311.790008545
574746.8125 4177327.25 311.920013428
574747.5625 4177327.25 311.829986572
574748.125 4177327 311.739990234
574748.875 4177327.25 311.920013428
574749.5 4177327.5 311.880004883
574750.1875 4177327.25 311.869995117
574750.75 4177327.5 311.690002441
574751.4375 4177327.5 311.980010986
574752 4177327.25 311.890014648
574752.75 4177327.5 312.049987793
574753.25 4177327.25 312.149993896
574754 4177327.5 311.910003662
574754.5625 4177327.25 311.989990234
574755.3125 4177327.5 311.859985352
574755.875 4177327.5 311.970001221
574756.5 4177327.5 312.149993896
574757.125 4177327.5 312.010009766
574757.8125 4177327.5 312.190002441
574758.375 4177327.5 312
574759.0625 4177327.5 312.239990234
574759.625 4177327.25 311.970001221
574760.3125 4177327.25 312.049987793
574760.9375 4177327.25 312.130004883
574761.625 4177327.5 312.339996338
574762.125 4177327.25 312.329986572
574762.875 4177327.5 312.170013428
574763.5 4177327.5 312.170013428
574764.1875 4177327.5 312.339996338
574765.4375 4177327.5 312.200012207
574766 4177327.25 312.359985352
574767.25 4177327 312.269989014
574768 4177327.5 312.309997559
574769.75 4177327.25 312.390014648
574586.0625 4177328 312.709991455
574586.75 4177328 312.730010986
574592.25 4177327.75 312.720001221
574624.3125 4177328 312.660003662
574626.125 4177327.75 312.660003662
574665.875 4177328.25 312.559997559
574668.25 4177327.75 312.450012207
574669.5 4177328 312.410003662
574670.6875 4177328 312.519989014
574671.25 4177328.25 312.459991455
574671.875 4177328 312.549987793
574672.4375 4177328 312.559997559
574673.0625 4177327.75 312.470001221
574673.6875 4177328 312.299987793
574674.3125 4177327.75 312.459991455
574674.8125 4177328 312.480010986
574675.5 4177328 312.350006104
574676 4177328 312.339996338
574676.6875 4177328 312.320007324
574677.1875 4177328 312.579986572
574677.875 4177328 312.329986572
574678.375 4177328 312.440002441
574679 4177328 312.519989014
574679.5625 4177327.75 312.130004883
574680.6875 4177327.75 312.390014648
574681.375 4177328 312.369995117
574681.875 4177327.75 312.549987793
574683.0625 4177327.75 312.470001221
574684.3125 4177327.75 312.470001221
574685.5 4177327.75 312.429992676
574686.25 4177328 312.359985352
574687.4375 4177327.75 312.440002441
574687.5 4177328.25 312.339996338
574688.0625 4177328.25 312.359985352
574690.5 4177327.75 312.410003662
574691.25 4177328.25 312.190002441
574691.8125 4177327.75 312.470001221
574693.0625 4177327.75 312.359985352
574693.8125 4177327.75 312.470001221
574694.375 4177327.75 312.489990234
574695.125 4177328 312.470001221
574695.75 4177328.25 312.390014648
574696.4375 4177327.75 312.260009766
574697 4177327.75 312.519989014
574697.75 4177327.75 312.25
574699.5625 4177328 312.279998779
574700.3125 4177328 312.239990234
574700.875 4177327.75 312.390014648
574701.5625 4177327.75 312.5
574702.125 4177327.75 312.480010986
574702.875 4177328 312.359985352
574703.4375 4177327.75 312.529998779
574704.125 4177327.75 312.390014648
574704.1875 4177328.25 312.390014648
574704.75 4177327.75 312.450012207
574705.5 4177327.75 312.239990234
574706.8125 4177328 312.480010986
574708.125 4177328 312.299987793
574708.75 4177328 312.429992676
574709.5 4177328 312.279998779
574710.0625 4177327.75 312.380004883
574711.4375 4177327.75 312.320007324
574711.5 4177328.25 312.079986572
574712.1875 4177327.75 312.190002441
574712.75 4177327.75 312.279998779
574713.5625 4177328 312.410003662
574714.1875 4177328.25 312.299987793
574714.875 4177328 312.279998779
574715.5 4177328 312.119995117
574716.25 4177328 312.200012207
574716.875 4177328 312.170013428
574717.625 4177328.25 312.140014648
574718.1875 4177328 312.160003662
574718.9375 4177328 312.200012207
574719.5 4177327.75 312.029998779
574720.25 4177328 312.100006104
574720.8125 4177327.75 312.239990234
574720.875 4177328.25 312.200012207
574721.5625 4177328 311.899993896
574722.1875 4177328.25 312.230010986
574722.875 4177328.25 312.200012207
574723.4375 4177328 312.170013428
574724.125 4177327.75 312.269989014
574724.1875 4177328.25 312.089996338
574724.75 4177328 312.049987793
574725.4375 4177327.75 312
574726 4177327.75 312.220001221
574726.75 4177327.75 311.899993896
574727.375 4177328.25 312.070007324
574728.0625 4177328 311.989990234
574728.625 4177328.25 312.119995117
574729.3125 4177328 312.220001221
574729.875 4177328 312.140014648
574730.625 4177328 311.769989014
574731.1875 4177328 311.920013428
574731.875 4177327.75 311.790008545
574732.4375 4177328 312.179992676
574733.125 4177327.75 312.049987793
574733.75 4177328 312.029998779
574734.4375 4177328 311.890014648
574735.0625 4177327.75 311.75
574735.75 4177328 311.859985352
574736.3125 4177327.75 312.049987793
574737.125 4177328 311.690002441
574737.6875 4177327.75 311.839996338
574738.375 4177327.75 311.929992676
574738.4375 4177328.25 311.989990234
574739 4177327.75 311.679992676
574739.75 4177327.75 311.730010986
574740.3125 4177327.75 311.920013428
574740.3125 4177328.25 311.970001221
574741 4177328 311.980010986
574741.6875 4177328.25 311.899993896
574742.375 4177328 311.859985352
574742.9375 4177328 311.970001221
574743.6875 4177328 311.760009766
574744.3125 4177328 311.700012207
574745 4177328 311.790008545
574745.5625 4177327.75 311.950012207
574746.3125 4177328 311.820007324
574746.875 4177327.75 311.859985352
574747.625 4177327.75 311.970001221
574748.1875 4177327.75 311.670013428
574748.25 4177328.25 311.920013428
574748.9375 4177327.75 311.739990234
574749.5625 4177328.25 311.700012207
574750.1875 4177328 311.899993896
574750.8125 4177328 311.769989014
574751.5 4177328 311.75
574752.0625 4177328 311.940002441
574752.8125 4177328 311.869995117
574753.3125 4177328 312.109985352
574754.0625 4177328.25 311.850006104
574754.625 4177328 312.119995117
574755.3125 4177328 312.100006104
574755.875 4177328.25 312.200012207
574756.5625 4177328 312.260009766
574757.125 4177328 312.089996338
574757.875 4177328.25 312.160003662
574758.4375 4177328 312.329986572
574759.125 4177328.25 312.269989014
574759.6875 4177327.75 312.049987793
574760.375 4177327.75 312.130004883
574760.9375 4177327.75 312.25
574761.6875 4177328 312.220001221
574762.25 4177327.75 312.119995117
574762.9375 4177328 312.149993896
574763.5 4177328.25 312.359985352
574764.25 4177328 312.390014648
574764.8125 4177328 312.369995117
574765.5 4177328 312.109985352
574766.0625 4177327.75 312.260009766
574769.8125 4177328 312.350006104
574589.25 4177328.75 312.690002441
574591.75 4177328.25 312.739990234
574591.75 4177328.75 312.709991455
574624.375 4177328.5 312.5
574624.9375 4177328.5 312.640014648
574626.1875 4177328.25 312.619995117
574632.0625 4177328.75 312.649993896
574667.6875 4177328.75 312.529998779
574668.25 4177328.25 312.589996338
574670.75 4177328.5 312.559997559
574671.3125 4177328.75 312.369995117
574673.125 4177328.25 312.369995117
574673.6875 4177328.75 312.480010986
574674.875 4177328.5 312.320007324
574675.5625 4177328.5 312.279998779
574676.0625 4177328.5 312.410003662
574676.75 4177328.75 312.279998779
574677.25 4177328.5 312.519989014
574678.375 4177328.5 312.489990234
574679.0625 4177328.75 312.429992676
574679.5625 4177328.25 312.320007324
574680.25 4177328.75 312.540008545
574681.375 4177328.5 312.540008545
574681.9375 4177328.25 312.470001221
574682.625 4177328.75 312.359985352
574683.125 4177328.25 312.549987793
574683.8125 4177328.5 312.440002441
574684.3125 4177328.25 312.480010986
574685.0625 4177328.5 312.299987793
574685.5625 4177328.25 312.299987793
574685.625 4177328.75 312.239990234
574686.25 4177328.75 312.480010986
574686.8125 4177328.75 312.529998779
574687.5 4177328.75 312.519989014
574689.3125 4177328.25 312.420013428
574689.375 4177328.75 312.369995117
574690 4177328.5 312.450012207
574690.5625 4177328.25 312.410003662
574691.3125 4177328.75 312.25
574691.8125 4177328.25 312.350006104
574692.5625 4177328.25 312.5
574693.125 4177328.25 312.429992676
574693.875 4177328.5 312.420013428
574694.4375 4177328.25 312.410003662
574694.5 4177328.75 312.399993896
574695.1875 4177328.5 312.390014648
574695.8125 4177328.75 312.359985352
574696.5 4177328.25 312.239990234
574697.0625 4177328.5 312.510009766
574697.75 4177328.5 312.480010986
574698.3125 4177328.25 312.420013428
574699.0625 4177328.75 312.369995117
574699.625 4177328.5 312.170013428
574700.375 4177328.75 312.140014648
574700.9375 4177328.25 312.200012207
574700.9375 4177328.75 312.489990234
574701.625 4177328.25 312.329986572
574703.5 4177328.25 312.510009766
574704.25 4177328.75 312.450012207
574704.8125 4177328.25 312.320007324
574705.5 4177328.25 312.160003662
574706.125 4177328.25 312.079986572
574706.875 4177328.5 312.440002441
574707.4375 4177328.75 312.489990234
574708.1875 4177328.5 312.390014648
574708.8125 4177328.5 312.369995117
574709.5625 4177328.75 312.179992676
574710.1875 4177328.5 312
574710.9375 4177328.75 312.359985352
574711.5625 4177328.75 312
574712.25 4177328.25 312.209991455
574712.875 4177328.25 312.010009766
574712.875 4177328.75 312.179992676
574713.625 4177328.5 312.149993896
574714.25 4177328.75 312.160003662
574714.9375 4177328.5 312.079986572
574715.5625 4177328.5 312.130004883
574716.3125 4177328.5 312.279998779
574716.875 4177328.5 312.369995117
574717.6875 4177328.75 312.140014648
574718.25 4177328.5 312.059997559
574719 4177328.75 312.260009766
574719.5625 4177328.5 312.170013428
574720.3125 4177328.5 312.230010986
574720.9375 4177328.75 312.049987793
574721.625 4177328.75 312.339996338
574722.1875 4177328.75 312.220001221
574722.9375 4177328.75 312.119995117
574723.5 4177328.5 311.980010986
574724.25 4177328.75 311.760009766
574724.8125 4177328.5 312.100006104
574725.5 4177328.5 312.160003662
574726.0625 4177328.25 312.109985352
574726.8125 4177328.5 311.920013428
574727.4375 4177328.75 312.019989014
574728.125 4177328.5 312.059997559
574728.6875 4177328.75 312.130004883
574729.375 4177328.5 312.100006104
574729.9375 4177328.5 311.940002441
574730.6875 4177328.75 311.859985352
574731.1875 4177328.5 312.029998779
574731.9375 4177328.25 311.890014648
574732.5 4177328.5 312.100006104
574733.1875 4177328.25 311.950012207
574733.8125 4177328.5 311.760009766
574734.5 4177328.5 311.720001221
574735.125 4177328.5 311.660003662
574735.75 4177328.5 312.369995117
574736.375 4177328.5 311.880004883
574737.1875 4177328.75 311.700012207
574737.6875 4177328.25 311.899993896
574738.5 4177328.75 311.890014648
574739 4177328.25 311.970001221
574739.125 4177328.75 311.720001221
574739.75 4177328.25 311.760009766
574740.375 4177328.75 311.940002441
574741.125 4177328.5 311.660003662
574741.75 4177328.75 311.839996338
574742.4375 4177328.5 311.820007324
574743 4177328.75 311.950012207
574743.75 4177328.5 311.739990234
574744.3125 4177328.5 311.920013428
574745.0625 4177328.5 311.940002441
574745.625 4177328.5 311.820007324
574746.375 4177328.75 311.769989014
574746.9375 4177328.25 311.779998779
574747.6875 4177328.25 311.839996338
574748.3125 4177328.75 311.660003662
574749 4177328.5 311.899993896
574749.5625 4177328.75 311.920013428
574750.25 4177328.5 311.75
574750.875 4177328.5 311.850006104
574751.5625 4177328.5 312.059997559
574752.125 4177328.5 311.739990234
574752.875 4177328.5 311.790008545
574753.4375 4177328.5 311.920013428
574754.125 4177328.75 311.910003662
574754.6875 4177328.5 311.910003662
574755.375 4177328.5 312.010009766
574755.9375 4177328.75 311.950012207
574756.625 4177328.5 312.179992676
574757.25 4177328.5 311.910003662
574757.9375 4177328.75 312.029998779
574758.5 4177328.5 312.279998779
574759.1875 4177328.75 312.089996338
574759.75 4177328.25 312.220001221
574760.4375 4177328.25 312.329986572
574761 4177328.5 312.140014648
574761.75 4177328.5 312.160003662
574762.25 4177328.25 312.089996338
574763 4177328.5 312.140014648
574764.25 4177328.5 312.339996338
574764.875 4177328.5 312.309997559
574766.125 4177328.25 312.299987793
574766.8125 4177328.5 312.369995117
574767.4375 4177328.75 312.369995117
574589.3125 4177329.25 312.619995117
574589.875 4177329.25 312.690002441
574591.125 4177329 312.630004883
574592.375 4177329 312.709991455
574593.0625 4177329.25 312.700012207
574623.6875 4177329.25 312.480010986
574624.375 4177329 312.440002441
574624.9375 4177329 312.670013428
574628.25 4177329 312.579986572
574628.875 4177329 312.489990234
574629.5625 4177329.5 312.600006104
574667.75 4177329.5 312.510009766
574668.3125 4177328.75 312.579986572
574668.9375 4177329.25 312.510009766
574669.5625 4177329 312.470001221
574670.125 4177329.25 312.600006104
574670.8125 4177329.25 312.390014648
574671.3125 4177329.25 312.510009766
574673.1875 4177329 312.450012207
574673.75 4177329.25 312.380004883
574674.9375 4177329 312.420013428
574675.625 4177329 312.279998779
574676.125 4177329 312.390014648
574676.75 4177329.25 312.239990234
574677.25 4177329 312.489990234
574677.9375 4177329.25 312.399993896
574679.125 4177329.25 312.480010986
574679.625 4177328.75 312.320007324
574680.3125 4177329.25 312.410003662
574681.4375 4177329 312.489990234
574681.9375 4177328.75 312.470001221
574682 4177329.5 312.570007324
574682.6875 4177329.25 312.279998779
574683.1875 4177329 312.519989014
574683.875 4177329 312.269989014
574684.375 4177329 312.459991455
574685.125 4177329 312.269989014
574685.6875 4177329.5 312.320007324
574686.3125 4177329.25 312.190002441
574686.9375 4177329.25 312.329986572
574687.5625 4177329.25 312.470001221
574688.1875 4177329.25 312.200012207
574688.75 4177328.75 312.5
574689.375 4177329.5 312.410003662
574690.0625 4177329 312.25
574690.625 4177329 312.279998779
574691.375 4177329.25 312.369995117
574692.625 4177328.75 312.440002441
574692.6875 4177329.5 312.329986572
574693.25 4177329.5 312.260009766
574693.9375 4177329 312.329986572
574694.5 4177329.25 312.450012207
574695.25 4177329 312.529998779
574695.875 4177329.25 312.260009766
574696.5 4177329 312.470001221
574697.125 4177329 312.369995117
574698.375 4177329 312.269989014
574699.125 4177329.25 312.369995117
574700.4375 4177329.25 312.440002441
574701 4177329.5 312.380004883
574701.6875 4177329 312.320007324
574702.25 4177329 312.350006104
574702.9375 4177329 312.519989014
574703.5 4177328.75 312.320007324
574703.5625 4177329.5 312.329986572
574704.25 4177329.25 312.470001221
574704.8125 4177328.75 312.339996338
574704.9375 4177329.5 312.149993896
574705.5625 4177329 312.380004883
574706.1875 4177329 312.170013428
574706.9375 4177329.25 312.260009766
574707.5 4177329.25 312.230010986
574708.25 4177329 312.239990234
574708.8125 4177329.25 312.369995117
574709.625 4177329.25 312.029998779
574710.1875 4177329 312.100006104
574711 4177329.25 312.119995117
574711.5625 4177329.25 312.149993896
574712.3125 4177329 312.029998779
574712.9375 4177329.5 312.119995117
574713.625 4177329 312.200012207
574714.3125 4177329.25 312.040008545
574715 4177329 311.970001221
574715.625 4177329.25 312.010009766
574716.375 4177329 312.220001221
574716.9375 4177329 312.209991455
574717.75 4177329.25 311.959991455
574718.3125 4177329 312.190002441
574719.0625 4177329.25 312.140014648
574719.5625 4177329 312.359985352
574720.375 4177329.25 312.079986572
574720.9375 4177329.25 312.130004883
574721.625 4177329.25 312.290008545
574722.25 4177329.25 312.200012207
574723 4177329.25 311.989990234
574723.5625 4177329.25 312
574724.3125 4177329.25 311.980010986
574724.875 4177329 312.059997559
574725.5625 4177329 311.920013428
574726.125 4177328.75 311.959991455
574726.875 4177329 311.989990234
574727.4375 4177329.25 312.019989014
574728.1875 4177329.25 311.970001221
574728.75 4177329.25 311.809997559
574729.4375 4177329.25 312.079986572
574730 4177329.25 311.799987793
574730.6875 4177329.25 312.049987793
574731.25 4177329 312.119995117
574732 4177328.75 311.75
574732.5625 4177329.25 312.140014648
574733.25 4177329 311.899993896
574733.875 4177329 311.910003662
574734.5625 4177329 311.829986572
574735.1875 4177329 311.609985352
574735.8125 4177329 312.380004883
574736.4375 4177329 311.859985352
574737.25 4177329.25 311.640014648
574737.75 4177329 311.880004883
574738.5625 4177329.25 311.579986572
574739.1875 4177329.25 311.519989014
574739.8125 4177329 311.609985352
574740.4375 4177329.25 312.070007324
574741.125 4177329 311.799987793
574741.75 4177329.25 311.989990234
574742.4375 4177329 311.880004883
574743.0625 4177329.25 311.809997559
574743.8125 4177329 311.709991455
574744.375 4177329 311.850006104
574745.125 4177329.25 311.720001221
574745.6875 4177329 311.619995117
574746.4375 4177329.25 311.920013428
574747 4177329 311.700012207
574747.75 4177329 311.820007324
574748.375 4177329.25 311.75
574749 4177329 311.769989014
574749.625 4177329.25 311.790008545
574750.3125 4177329 311.779998779
574750.9375 4177329.25 312.140014648
574751.625 4177329 311.779998779
574752.1875 4177329 311.880004883
574752.875 4177329.25 311.970001221
574753.5 4177329 311.820007324
574754.1875 4177329.25 311.989990234
574754.75 4177329 311.75
574755.4375 4177329 312.140014648
574756 4177329.25 311.839996338
574756.6875 4177329 312.049987793
574757.25 4177329 311.970001221
574758 4177329.25 311.899993896
574758.5 4177329 312.140014648
574759.25 4177329.25 312
574759.8125 4177329 312.109985352
574760.5 4177329 312.279998779
574761.0625 4177329 312.179992676
574761.75 4177329 312.119995117
574762.3125 4177329 312.25
574763.0625 4177329.25 312.350006104
574763.625 4177329.25 312.329986572
574764.3125 4177329.25 312.290008545
574765.625 4177329 312.350006104
574766.875 4177329 312.399993896
574588.125 4177329.75 312.679992676
574589.9375 4177329.75 312.75
574590.625 4177329.75 312.640014648
574592.4375 4177329.5 312.690002441
574593.125 4177329.75 312.579986572
574617.1875 4177329.5 312.679992676
574620.5 4177329.75 312.630004883
574621.125 4177329.75 312.5
574622.375 4177329.5 312.549987793
574623.75 4177329.75 312.440002441
574624.4375 4177329.75 312.339996338
574625 4177329.5 312.390014648
574625.75 4177329.5 312.489990234
574626.3125 4177330 312.619995117
574627.625 4177330 312.660003662
574628.3125 4177329.5 312.489990234
574628.875 4177329.5 312.570007324
574629.625 4177330 312.549987793
574630.1875 4177329.75 312.579986572
574631.4375 4177329.5 312.649993896
574668.9375 4177329.75 312.420013428
574670.1875 4177330 312.579986572
574670.8125 4177329.75 312.410003662
574671.375 4177329.75 312.579986572
574673.25 4177329.5 312.5
574673.8125 4177329.75 312.329986572
574674.4375 4177329.5 312.510009766
574675.625 4177329.75 312.290008545
574676.1875 4177329.75 312.269989014
574676.8125 4177329.75 312.359985352
574677.375 4177329.75 312.200012207
574678 4177329.75 312.239990234
574678.5 4177329.5 312.440002441
574679.125 4177329.75 312.480010986
574679.6875 4177329.5 312.260009766
574680.3125 4177329.75 312.290008545
574680.8125 4177329.5 312.369995117
574681.5 4177329.5 312.489990234
574682.0625 4177330 312.390014648
574682.75 4177330 312.450012207
574683.25 4177329.5 312.459991455
574683.9375 4177329.5 312.339996338
574684.4375 4177329.5 312.239990234
574684.5 4177330 312.339996338
574685.125 4177329.75 312.390014648
574685.75 4177330 312.25
574686.375 4177329.75 312.329986572
574686.9375 4177330 312.260009766
574687.625 4177330 312.450012207
574688.25 4177330 312.209991455
574688.875 4177330 312.320007324
574689.4375 4177330 312.359985352
574690.125 4177329.5 312.200012207
574690.6875 4177329.5 312.230010986
574691.4375 4177329.75 312.190002441
574691.9375 4177329.5 312.549987793
574692.6875 4177330 312.339996338
574693.25 4177330 312.320007324
574693.9375 4177329.5 312.399993896
574694.5625 4177330 312.230010986
574695.25 4177329.75 312.450012207
574695.875 4177330 312.380004883
574697.1875 4177329.5 312.119995117
574697.875 4177329.5 312.369995117
574698.4375 4177329.5 312.230010986
574699.1875 4177329.75 312.220001221
574699.75 4177329.5 312.380004883
574700.4375 4177329.75 312.440002441
574701.0625 4177330 312.220001221
574701.75 4177329.5 312.309997559
574702.3125 4177329.5 312.239990234
574703 4177329.5 312.309997559
574703.625 4177330 312.440002441
574704.3125 4177330 312.459991455
574704.9375 4177330 312.339996338
574705.625 4177329.5 312.209991455
574706.1875 4177329.5 312.420013428
574707 4177329.75 312.059997559
574707.5625 4177329.75 312.190002441
574708.25 4177329.75 312.350006104
574708.875 4177329.75 312.220001221
574709.625 4177329.75 312.299987793
574710.25 4177329.5 312.079986572
574711 4177329.75 312.200012207
574711.625 4177330 312.420013428
574712.375 4177329.5 312.010009766
574713 4177330 312.369995117
574713.6875 4177329.5 312.200012207
574714.375 4177329.75 312.100006104
574715.0625 4177329.5 312.160003662
574715.6875 4177329.75 312.190002441
574716.4375 4177329.75 312.089996338
574717 4177329.75 312.130004883
574717.75 4177329.75 312.109985352
574718.375 4177329.75 312.200012207
574719.0625 4177329.75 312.290008545
574719.6875 4177329.5 311.920013428
574720.4375 4177329.75 312.029998779
574721 4177330 312.010009766
574721.75 4177329.75 311.869995117
574722.3125 4177330 312
574723.0625 4177330 312.010009766
574723.625 4177329.75 312.029998779
574724.375 4177330 311.899993896
574724.9375 4177329.5 311.970001221
574725.625 4177329.5 311.809997559
574726.1875 4177329.5 312.100006104
574726.25 4177330 311.980010986
574726.875 4177329.5 312
574727.5625 4177329.75 311.720001221
574728.1875 4177329.75 312.019989014
574728.8125 4177329.75 311.880004883
574729.5 4177329.75 311.839996338
574730.0625 4177329.75 311.869995117
574730.75 4177329.75 312.049987793
574731.3125 4177329.75 312.070007324
574732 4177329.5 311.790008545
574732.0625 4177330 311.869995117
574732.625 4177329.75 311.75
574733.3125 4177329.5 311.820007324
574733.9375 4177329.75 311.899993896
574734.625 4177329.5 311.970001221
574735.1875 4177329.5 311.869995117
574735.9375 4177329.5 311.660003662
574736.5 4177329.5 311.929992676
574737.25 4177329.75 311.809997559
574737.8125 4177329.5 311.709991455
574738.625 4177330 311.739990234
574739.1875 4177330 311.820007324
574739.875 4177329.5 311.75
574740.5 4177330 311.880004883
574741.1875 4177329.5 311.809997559
574741.8125 4177330 312
574742.5 4177329.75 312.049987793
574743.125 4177329.75 311.700012207
574743.8125 4177329.75 312.019989014
574744.4375 4177329.75 311.899993896
574745.1875 4177329.75 311.809997559
574745.75 4177329.5 311.600006104
574746.5 4177329.75 311.959991455
574747.0625 4177329.5 311.779998779
574747.75 4177329.5 311.779998779
574748.375 4177330 311.839996338
574749.0625 4177329.5 311.690002441
574749.6875 4177329.75 311.799987793
574750.375 4177329.5 311.730010986
574751 4177329.75 311.940002441
574751.6875 4177329.75 311.869995117
574752.25 4177329.5 311.869995117
574753 4177329.75 311.769989014
574753.5 4177329.5 311.970001221
574754.25 4177329.75 312.070007324
574754.8125 4177329.5 311.799987793
574755.5 4177329.75 312.070007324
574756.0625 4177329.75 311.839996338
574756.75 4177329.75 312.029998779
574757.3125 4177329.75 312.220001221
574758 4177329.75 312.260009766
574758.5625 4177329.75 312.149993896
574759.3125 4177329.75 312.279998779
574759.875 4177329.5 312.079986572
574760.5625 4177329.5 312.149993896
574761.125 4177329.5 312.290008545
574761.8125 4177329.75 312.239990234
574763.125 4177329.75 312.149993896
574763.6875 4177329.75 312.309997559
574765.625 4177329.75 312.399993896
574767.5 4177330 312.339996338
574588.75 4177330.5 312.549987793
574590 4177330.25 312.510009766
574592.4375 4177330 312.600006104
574594.5 4177330.5 312.720001221
574615.9375 4177330.25 312.690002441
574617.25 4177330.25 312.589996338
574618.5625 4177330.5 312.540008545
574619.25 4177330.25 312.670013428
574620.5625 4177330.25 312.600006104
574621.125 4177330.25 312.619995117
574621.875 4177330.5 312.679992676
574622.4375 4177330 312.660003662
574623.75 4177330.25 312.529998779
574624.5 4177330.25 312.660003662
574625.0625 4177330.25 312.410003662
574625.8125 4177330.25 312.529998779
574627.0625 4177330 312.630004883
574627.6875 4177330.5 312.600006104
574628.3125 4177330.25 312.559997559
574628.9375 4177330.25 312.579986572
574629.6875 4177330.5 312.399993896
574630.25 4177330.25 312.589996338
574630.9375 4177330.5 312.609985352
574633.5 4177330.5 312.619995117
574634.75 4177330.5 312.589996338
574667.8125 4177330.5 312.579986572
574669 4177330.25 312.459991455
574670.25 4177330.5 312.339996338
574671.4375 4177330.5 312.549987793
574672.0625 4177330.25 312.559997559
574672.625 4177330.25 312.329986572
574673.25 4177330 312.410003662
574673.875 4177330.25 312.170013428
574674.5 4177330 312.309997559
574675 4177330.25 312.540008545
574675.6875 4177330.25 312.359985352
574676.1875 4177330.25 312.410003662
574676.875 4177330.25 312.549987793
574677.375 4177330.25 312.220001221
574678 4177330.25 312.329986572
574678.5625 4177330.25 312.450012207
574679.1875 4177330.25 312.390014648
574679.6875 4177330 312.459991455
574679.75 4177330.5 312.529998779
574680.375 4177330.5 312.239990234
574680.875 4177330 312.160003662
574681.5 4177330.25 312.489990234
574682.125 4177330.5 312.25
574682.75 4177330.5 312.420013428
574683.25 4177330 312.440002441
574684.5625 4177330.5 312.359985352
574685.1875 4177330.25 312.5
574685.75 4177330.5 312.399993896
574686.4375 4177330.25 312.399993896
574687 4177330.5 312.369995117
574687.6875 4177330.5 312.399993896
574688.25 4177330.5 312.119995117
574688.9375 4177330.5 312.209991455
574689.5 4177330.5 312.390014648
574690.1875 4177330 312.290008545
574690.75 4177330 312.230010986
574691.4375 4177330.5 312.170013428
574692 4177330 312.5
574692.75 4177330.5 312.279998779
574693.3125 4177330.5 312.399993896
574694 4177330 312.470001221
574694.625 4177330.5 312.260009766
574695.3125 4177330.25 312.359985352
574695.9375 4177330.5 312.239990234
574696.625 4177330 312.459991455
574696.6875 4177330.5 312.070007324
574697.1875 4177330 312.269989014
574697.9375 4177330 312.260009766
574698.5 4177330 312.309997559
574699.25 4177330.5 312.239990234
574699.75 4177330.25 312.320007324
574700.5 4177330.5 312.510009766
574701.75 4177330 312.350006104
574702.375 4177330 312.239990234
574703.0625 4177330.25 312.290008545
574703.6875 4177330.5 312.359985352
574704.375 4177330.5 312.359985352
574705 4177330.5 312.149993896
574705.6875 4177330 312.25
574706.25 4177330 312.320007324
574707 4177330.25 312.100006104
574707.625 4177330.5 312.390014648
574708.3125 4177330.25 312.350006104
574709 4177330.25 312.040008545
574709.6875 4177330.25 312.420013428
574710.3125 4177330 312.239990234
574711.0625 4177330.5 312.140014648
574711.6875 4177330.5 311.989990234
574712.375 4177330 312.25
574713.0625 4177330.5 312.25
574713.75 4177330 312.369995117
574714.375 4177330.5 312.179992676
574715.0625 4177330.25 312.269989014
574715.75 4177330.25 312.350006104
574716.4375 4177330.25 312.260009766
574717.0625 4177330.25 311.989990234
574717.8125 4177330.5 312.100006104
574718.375 4177330.25 312.209991455
574719.125 4177330.25 312.149993896
574719.75 4177330 311.959991455
574720.5 4177330.25 312.010009766
574721.0625 4177330.5 312.190002441
574721.8125 4177330.25 311.829986572
574722.375 4177330.5 311.970001221
574723.0625 4177330.5 312.130004883
574723.6875 4177330.25 312.109985352
574724.4375 4177330.5 311.709991455
574724.9375 4177330.25 312.109985352
574725.6875 4177330 312.010009766
574726.3125 4177330.5 311.769989014
574726.9375 4177330 311.929992676
574727.5625 4177330.25 311.850006104
574728.25 4177330.25 311.970001221
574728.875 4177330.5 311.769989014
574729.5625 4177330.25 311.869995117
574730.125 4177330.25 311.859985352
574730.8125 4177330.25 311.959991455
574731.375 4177330.25 311.880004883
574732.125 4177330.5 311.809997559
574732.6875 4177330.25 311.730010986
574733.375 4177330 311.959991455
574734 4177330.25 311.760009766
574734.625 4177330.25 311.989990234
574735.25 4177330 311.790008545
574735.9375 4177330.25 312.079986572
574736.5625 4177330 311.839996338
574737.3125 4177330.25 311.970001221
574737.875 4177330 312.149993896
574737.9375 4177330.5 312.040008545
574738.6875 4177330.5 311.739990234
574739.25 4177330.5 311.760009766
574739.9375 4177330 311.649993896
574740 4177330.5 311.640014648
574740.5625 4177330.5 312.049987793
574741.25 4177330.25 311.890014648
574741.875 4177330.5 311.899993896
574742.5625 4177330.25 312.040008545
574743.1875 4177330.25 311.799987793
574743.875 4177330.25 311.859985352
574744.5 4177330.25 311.940002441
574745.1875 4177330.25 311.809997559
574745.8125 4177330 311.600006104
574746.5625 4177330.25 311.890014648
574747.125 4177330 311.660003662
574747.1875 4177330.5 311.519989014
574747.8125 4177330 311.839996338
574747.875 4177330.5 311.839996338
574748.4375 4177330.5 311.950012207
574749.125 4177330 311.779998779
574749.75 4177330.5 311.799987793
574750.4375 4177330.25 311.959991455
574751.0625 4177330.25 311.929992676
574751.6875 4177330.25 312
574752.3125 4177330.25 311.799987793
574753 4177330.25 311.730010986
574753.5625 4177330.25 312.010009766
574754.25 4177330.5 312.070007324
574754.8125 4177330 311.890014648
574755.5625 4177330.25 312.079986572
574756.125 4177330.5 311.850006104
574756.8125 4177330.25 312
574757.375 4177330.25 312.130004883
574758.125 4177330.5 311.980010986
574758.625 4177330.25 312.320007324
574759.375 4177330.5 312.239990234
574759.875 4177330 312.350006104
574760.625 4177330 312.209991455
574760.625 4177330.5 312.179992676
574761.1875 4177330 312.380004883
574761.875 4177330.25 312.230010986
574762.5 4177330.5 312.279998779
574763.1875 4177330.25 312.260009766
574763.75 4177330.5 312.220001221
574765.6875 4177330.25 312.359985352
574766.3125 4177330.5 312.359985352
574767.5625 4177330.5 312.369995117
574768.8125 4177330.25 312.380004883
574589.4375 4177331 312.679992676
574590 4177331 312.649993896
574590.75 4177331 312.649993896
574593.1875 4177330.75 312.679992676
574594.5 4177331 312.739990234
574617.25 4177330.75 312.529998779
574618 4177330.75 312.529998779
574618.625 4177331 312.429992676
574620.625 4177330.75 312.489990234
574621.1875 4177330.75 312.390014648
574621.9375 4177331 312.609985352
574622.5 4177330.5 312.690002441
574623.25 4177331 312.670013428
574623.8125 4177331 312.570007324
574624.5 4177330.75 312.630004883
574625.125 4177330.75 312.579986572
574625.8125 4177330.75 312.510009766
574626.4375 4177331 312.570007324
574627.125 4177330.75 312.570007324
574627.75 4177331 312.630004883
574628.375 4177330.75 312.579986572
574629 4177330.75 312.369995117
574629.75 4177331 312.489990234
574631 4177331 312.619995117
574631.5 4177330.5 312.660003662
574631.5625 4177331.25 312.489990234
574634.0625 4177330.75 312.609985352
574666.625 4177331.25 312.510009766
574667.3125 4177331 312.579986572
574668.5 4177331 312.440002441
574669.0625 4177331 312.450012207
574670.25 4177331 312.429992676
574671.5 4177331 312.440002441
574672.6875 4177330.75 312.390014648
574673.3125 4177330.5 312.540008545
574673.375 4177331.25 312.459991455
574673.875 4177331 312.260009766
574674.5 4177330.75 312.320007324
574675.0625 4177330.75 312.260009766
574675.75 4177330.75 312.339996338
574676.9375 4177330.75 312.329986572
574677.4375 4177330.75 312.140014648
574678.0625 4177330.75 312.160003662
574678.5625 4177330.75 312.480010986
574679.25 4177331 312.380004883
574679.8125 4177331.25 312.420013428
574680.4375 4177331 312.420013428
574680.9375 4177330.75 312.329986572
574681.625 4177330.75 312.220001221
574682.125 4177331 312.420013428
574682.8125 4177331 312.170013428
574683.3125 4177330.5 312.5
574683.375 4177331.25 312.320007324
574684 4177330.75 312.329986572
574684.5625 4177331.25 312.470001221
574685.25 4177330.75 312.529998779
574685.8125 4177331 312.510009766
574686.4375 4177330.75 312.339996338
574687.0625 4177331 312.239990234
574687.75 4177331 312.200012207
574688.3125 4177331 312.440002441
574689 4177331 312.089996338
574689.5625 4177331 312.399993896
574690.25 4177330.75 312.170013428
574690.75 4177330.5 312.209991455
574690.8125 4177331.25 312.369995117
574691.5 4177331 312.309997559
574692 4177330.5 312.440002441
574692.0625 4177331.25 312.290008545
574692.8125 4177331 312.339996338
574693.375 4177331 312.079986572
574694.0625 4177330.75 312.339996338
574694.6875 4177331 312.329986572
574695.375 4177330.75 312.470001221
574696 4177331 312.179992676
574696.6875 4177331.25 312.309997559
574697.25 4177330.75 312.279998779
574697.9375 4177330.75 312.339996338
574698.5 4177330.5 312.200012207
574698.5625 4177331.25 312.079986572
574699.25 4177331 312.350006104
574699.8125 4177330.75 312.359985352
574700.5625 4177331 312.480010986
574701.125 4177331 312.359985352
574701.8125 4177330.5 312.489990234
574701.875 4177331.25 312.380004883
574702.4375 4177330.5 312.089996338
574702.4375 4177331.25 312.200012207
574703.125 4177330.75 312.279998779
574703.75 4177331 312.230010986
574704.4375 4177331 312.320007324
574705.0625 4177331 312.200012207
574705.75 4177330.5 312.190002441
574705.75 4177331.25 312.149993896
574706.3125 4177330.5 312.200012207
574706.375 4177331.25 312.079986572
574707.0625 4177330.75 312.160003662
574707.6875 4177331 312.320007324
574708.375 4177330.75 312.380004883
574709 4177330.75 312.179992676
574709.75 4177330.75 312.179992676
574710.375 4177330.75 312.160003662
574711.125 4177331 312.130004883
574711.75 4177331 312
574712.4375 4177330.5 312.359985352
574712.5 4177331.25 312.109985352
574713.125 4177331 312.119995117
574713.8125 4177330.75 312.119995117
574714.4375 4177331 312.079986572
574715.125 4177330.75 312.190002441
574715.75 4177330.75 312.369995117
574716.5 4177330.75 312.109985352
574717.125 4177330.75 312.079986572
574717.875 4177331 311.829986572
574718.4375 4177330.75 312.029998779
574719.1875 4177331 312.059997559
574719.75 4177330.75 312.029998779
574720.5 4177330.75 311.820007324
574721.125 4177331 312.070007324
574721.8125 4177330.75 311.970001221
574722.4375 4177331 312.049987793
574723.125 4177331 311.989990234
574723.75 4177330.75 312.070007324
574724.5 4177331 311.820007324
574725 4177330.75 311.989990234
574725.6875 4177330.75 312.029998779
574725.8125 4177331.25 311.700012207
574726.375 4177331 311.739990234
574727 4177330.5 311.869995117
574727.625 4177331 311.630004883
574728.3125 4177330.75 311.920013428
574728.875 4177331 311.890014648
574729.5625 4177330.75 311.920013428
574730.1875 4177330.75 311.950012207
574730.875 4177331 311.799987793
574731.4375 4177330.75 311.690002441
574732.1875 4177331 311.959991455
574732.75 4177330.75 311.739990234
574733.4375 4177330.5 311.869995117
574733.4375 4177331.25 311.850006104
574734 4177330.75 311.769989014
574734.6875 4177330.75 311.820007324
574735.3125 4177330.75 311.730010986
574736 4177330.75 311.859985352
574736.625 4177330.75 311.839996338
574737.375 4177331 311.839996338
574738 4177331.25 311.739990234
574738.75 4177331 311.670013428
574739.3125 4177331 311.779998779
574740 4177331.25 311.910003662
574740.625 4177331 311.720001221
574741.3125 4177330.75 311.700012207
574741.9375 4177331 311.820007324
574742.625 4177330.75 311.989990234
574743.25 4177331 311.799987793
574743.9375 4177330.75 311.769989014
574744.5 4177330.75 311.959991455
574745.25 4177330.75 311.850006104
574745.875 4177330.75 311.739990234
574746.625 4177331 311.809997559
574747.25 4177331.25 311.700012207
574747.9375 4177331.25 311.690002441
574748.5 4177331 311.799987793
574749.1875 4177330.75 311.649993896
574749.8125 4177331 311.630004883
574750.5 4177330.75 312.079986572
574751.0625 4177330.75 312.010009766
574751.75 4177330.75 311.970001221
574752.375 4177330.75 312.029998779
574753.0625 4177330.75 311.850006104
574753.625 4177330.75 311.959991455
574754.3125 4177331 311.970001221
574754.875 4177330.75 311.950012207
574755.625 4177330.75 311.970001221
574756.1875 4177331 311.980010986
574756.8125 4177330.75 312.25
574757.4375 4177330.75 311.989990234
574758.125 4177331 312.100006104
574758.6875 4177330.75 312.260009766
574759.4375 4177331 312.329986572
574759.9375 4177330.5 312.329986572
574760 4177331.25 312.399993896
574760.6875 4177331.25 312.140014648
574761.25 4177330.75 312.309997559
574761.9375 4177330.75 312.279998779
574762.5625 4177331.25 312.119995117
574763.8125 4177331 312.290008545
574766.375 4177331 312.380004883
574588.8125 4177331.5 312.75
574589.5 4177331.5 312.709991455
574590.75 4177331.5 312.670013428
574592 4177331.75 312.640014648
574592.5625 4177331.25 312.690002441
574593.875 4177331.75 312.670013428
574596.375 4177331.5 312.730010986
574618.625 4177331.5 312.420013428
574619.3125 4177331.5 312.670013428
574619.9375 4177331.5 312.549987793
574620.625 4177331.5 312.579986572
574621.25 4177331.25 312.299987793
574621.9375 4177331.5 312.649993896
574622.5625 4177331.75 312.480010986
574623.3125 4177331.5 312.359985352
574623.875 4177331.5 312.559997559
574624.5625 4177331.25 312.570007324
574625.1875 4177331.25 312.609985352
574625.875 4177331.25 312.309997559
574626.5 4177331.5 312.279998779
574627.1875 4177331.25 312.429992676
574627.75 4177331.75 312.399993896
574628.4375 4177331.25 312.450012207
574629.0625 4177331.25 312.260009766
574629.75 4177331.75 312.440002441
574630.375 4177331.5 312.510009766
574631.0625 4177331.5 312.410003662
574631.625 4177331.75 312.359985352
574632.3125 4177331.5 312.369995117
574634.8125 4177331.5 312.440002441
574637.3125 4177331.75 312.660003662
574666.6875 4177331.75 312.299987793
574667.9375 4177331.75 312.480010986
574668.5625 4177331.75 312.429992676
574669.0625 4177331.5 312.549987793
574669.75 4177331.25 312.399993896
574670.3125 4177331.5 312.399993896
574670.9375 4177331.5 312.570007324
574672.1875 4177331.5 312.570007324
574672.75 4177331.5 312.299987793
574673.375 4177331.75 312.480010986
574673.9375 4177331.5 312.399993896
574674.5625 4177331.25 312.390014648
574675.125 4177331.25 312.140014648
574675.75 4177331.25 312.329986572
574676.3125 4177331.25 312.459991455
574677 4177331.5 312.220001221
574677.5 4177331.25 312.309997559
574678.125 4177331.5 312.179992676
574678.625 4177331.25 312.5
574679.3125 4177331.5 312.440002441
574679.875 4177331.75 312.160003662
574680.5 4177331.5 312.399993896
574681 4177331.25 312.380004883
574681 4177331.75 312.290008545
574681.625 4177331.25 312.220001221
574682.875 4177331.5 312.489990234
574683.4375 4177331.75 312.170013428
574684.0625 4177331.25 312.179992676
574684.0625 4177331.75 312.410003662
574684.625 4177331.75 312.329986572
574685.25 4177331.25 312.390014648
574685.875 4177331.75 312.399993896
574686.5 4177331.5 312.380004883
574687.0625 4177331.5 312.459991455
574687.75 4177331.5 312.260009766
574688.3125 4177331.5 312.470001221
574689 4177331.75 312.350006104
574689.5625 4177331.5 312.359985352
574690.25 4177331.25 312.100006104
574690.875 4177331.75 312.339996338
574691.5625 4177331.5 312.200012207
574692.125 4177331.75 312.299987793
574692.875 4177331.75 312.070007324
574693.4375 4177331.75 312.309997559
574694.0625 4177331.25 312.429992676
574694.75 4177331.5 312.510009766
574695.4375 4177331.25 312.510009766
574696.0625 4177331.5 312.220001221
574696.75 4177331.75 312.320007324
574697.3125 4177331.25 312.149993896
574698 4177331.25 312.380004883
574698.625 4177331.75 312.359985352
574699.3125 4177331.5 312.269989014
574699.875 4177331.25 312.25
574700.625 4177331.5 312.269989014
574701.1875 4177331.75 312.260009766
574701.9375 4177331.75 312.25
574702.5 4177331.75 312.339996338
574703.1875 4177331.25 312.369995117
574703.8125 4177331.75 312.239990234
574704.5 4177331.5 312.339996338
574705.125 4177331.75 312.109985352
574705.8125 4177331.75 312.160003662
574706.4375 4177331.75 312.119995117
574707.125 4177331.5 312.200012207
574707.6875 4177331.5 312.369995117
574708.4375 4177331.25 312.209991455
574709.0625 4177331.5 312.239990234
574709.8125 4177331.5 312.019989014
574710.375 4177331.25 312.25
574711.1875 4177331.5 312.299987793
574711.8125 4177331.5 312.200012207
574712.5625 4177331.75 312.040008545
574713.125 4177331.5 312.079986572
574713.875 4177331.25 312.160003662
574714.5 4177331.5 312.130004883
574715.1875 4177331.25 312.119995117
574715.875 4177331.5 311.970001221
574716.5625 4177331.25 312.079986572
574717.1875 4177331.25 312.019989014
574717.9375 4177331.5 311.880004883
574718.5 4177331.25 311.980010986
574719.25 4177331.5 311.920013428
574719.8125 4177331.25 312.179992676
574719.875 4177331.75 312.149993896
574720.5625 4177331.5 312.010009766
574721.1875 4177331.5 312
574721.875 4177331.5 311.929992676
574722.5 4177331.5 311.959991455
574723.1875 4177331.5 311.799987793
574723.75 4177331.5 312.019989014
574724.5 4177331.5 311.809997559
574725.0625 4177331.25 312.019989014
574725.8125 4177331.75 311.799987793
574726.4375 4177331.75 311.869995117
574727.0625 4177331.25 311.839996338
574727.125 4177331.75 312
574727.6875 4177331.5 311.929992676
574728.375 4177331.5 311.989990234
574728.9375 4177331.5 311.760009766
574729.625 4177331.5 312
574730.1875 4177331.5 311.989990234
574730.9375 4177331.5 311.75
574731.4375 4177331.25 312.029998779
574732.25 4177331.75 311.809997559
574732.8125 4177331.5 311.609985352
574733.5 4177331.75 311.809997559
574734.0625 4177331.25 311.899993896
574734.75 4177331.25 311.779998779
574735.375 4177331.25 311.929992676
574735.4375 4177331.75 311.559997559
574736.0625 4177331.25 311.799987793
574736.6875 4177331.25 311.619995117
574736.75 4177331.75 311.640014648
574737.4375 4177331.5 311.679992676
574738 4177331.75 311.989990234
574738.75 4177331.5 311.890014648
574739.375 4177331.75 311.779998779
574740.0625 4177331.75 311.940002441
574740.6875 4177331.5 312.029998779
574741.375 4177331.25 311.670013428
574742 4177331.5 311.779998779
574742.6875 4177331.25 311.700012207
574743.3125 4177331.5 311.769989014
574744 4177331.25 311.630004883
574744.625 4177331.25 311.630004883
574745.3125 4177331.5 311.739990234
574745.9375 4177331.25 311.679992676
574746.6875 4177331.5 311.640014648
574747.25 4177331.75 311.709991455
574748 4177331.75 311.660003662
574748.5625 4177331.5 311.809997559
574749.25 4177331.25 311.779998779
574749.875 4177331.5 311.850006104
574750.5 4177331.25 311.989990234
574751.125 4177331.5 312.119995117
574751.8125 4177331.25 312.100006104
574752.4375 4177331.25 311.859985352
574753.125 4177331.5 311.940002441
574753.6875 4177331.25 312.119995117
574754.375 4177331.5 312.079986572
574754.9375 4177331.25 311.890014648
574755.625 4177331.25 312.190002441
574756.25 4177331.5 311.959991455
574756.875 4177331.25 312.320007324
574757.5 4177331.25 312.149993896
574758.1875 4177331.5 312.329986572
574758.75 4177331.25 312.109985352
574759.4375 4177331.5 312.279998779
574760.0625 4177331.75 312.200012207
574760.75 4177331.75 312.339996338
574761.25 4177331.25 312.309997559
574762 4177331.25 312.380004883
574762.5625 4177331.75 312.420013428
574763.25 4177331.5 312.380004883
574764.5625 4177331.5 312.420013428
574765.125 4177331.25 312.279998779
574589.5625 4177332 312.720001221
574590.8125 4177332 312.739990234
574592.0625 4177332.25 312.660003662
574593.3125 4177332 312.670013428
574593.9375 4177332.25 312.619995117
574595.1875 4177332.25 312.720001221
574596.4375 4177332 312.720001221
574617.375 4177331.75 312.570007324
574619.375 4177332 312.549987793
574620 4177332.25 312.559997559
574621.25 4177332 312.679992676
574622 4177332 312.510009766
574622.625 4177332.25 312.320007324
574623.3125 4177332 312.619995117
574623.9375 4177332 312.5
574624.625 4177332 312.459991455
574625.25 4177331.75 312.369995117
574625.9375 4177331.75 312.220001221
574626.5625 4177332.25 312.019989014
574627.1875 4177331.75 312.470001221
574627.25 4177332.25 312.529998779
574627.8125 4177332.25 312.290008545
574628.5 4177331.75 312.369995117
574629.125 4177331.75 312.179992676
574629.8125 4177332.25 312.380004883
574630.375 4177332 312.480010986
574631.125 4177332.25 312.260009766
574631.6875 4177332.25 312.269989014
574632.375 4177332.25 312.339996338
574632.9375 4177332 312.570007324
574633.625 4177332 312.470001221
574634.1875 4177331.75 312.649993896
574634.875 4177332.25 312.480010986
574636.125 4177332.25 312.579986572
574636.6875 4177332.25 312.630004883
574637.375 4177332.25 312.640014648
574663.75 4177332 312.589996338
574666.75 4177332.25 312.609985352
574667.9375 4177332.25 312.480010986
574668.625 4177332.25 312.470001221
574669.125 4177332 312.570007324
574669.8125 4177332 312.429992676
574670.375 4177332.25 312.390014648
574671 4177332 312.459991455
574671.5625 4177332 312.529998779
574672.25 4177332 312.410003662
574672.8125 4177332 312.269989014
574673.4375 4177332.25 312.429992676
574674 4177332 312.489990234
574674.625 4177331.75 312.200012207
574674.6875 4177332.25 312.440002441
574675.1875 4177332 312.339996338
574675.8125 4177332 312.329986572
574676.375 4177332 312.350006104
574677 4177332 312.290008545
574677.5625 4177332 312.209991455
574678.1875 4177332 312.380004883
574678.6875 4177331.75 312.230010986
574678.75 4177332.25 312.179992676
574679.3125 4177332 312.5
574679.9375 4177332.25 312.119995117
574680.5625 4177332 312.149993896
574681.0625 4177332.25 312.329986572
574681.6875 4177331.75 312.230010986
574682.25 4177332.25 312.299987793
574682.9375 4177332.25 312.450012207
574683.5 4177332.25 312.200012207
574684.125 4177332.25 312.429992676
574684.6875 4177332.25 312.209991455
574685.3125 4177332 312.5
574685.9375 4177332.25 312.309997559
574687.125 4177332.25 312.350006104
574687.8125 4177332.25 312.369995117
574688.375 4177332.25 312.470001221
574689.0625 4177332.25 312.410003662
574689.625 4177332.25 312.339996338
574690.3125 4177331.75 312.420013428
574690.9375 4177332.25 312.130004883
574691.625 4177332 312.220001221
574692.1875 4177332.25 312.220001221
574692.9375 4177332.25 312.200012207
574693.5 4177332.25 312.260009766
574694.1875 4177332.25 312.320007324
574694.75 4177332.25 312.359985352
574695.5 4177332 312.279998779
574696.0625 4177332.25 312.359985352
574696.8125 4177332.25 312.269989014
574697.375 4177331.75 312.299987793
574697.4375 4177332.25 312.149993896
574698.0625 4177331.75 312.329986572
574698.6875 4177332.25 312.290008545
574699.375 4177332 312.260009766
574699.9375 4177331.75 312.329986572
574700.6875 4177332 312.239990234
574701.25 4177332.25 312.399993896
574702 4177332.25 312.329986572
574702.5625 4177332.25 312.239990234
574703.25 4177331.75 312.079986572
574703.875 4177332.25 312.059997559
574704.5 4177332.25 312.320007324
574705.1875 4177332.25 312.089996338
574705.875 4177332.25 312.25
574706.5 4177332.25 312.200012207
574707.1875 4177332 312.100006104
574707.75 4177332 312.260009766
574708.5 4177332 312.350006104
574709.0625 4177332 312.329986572
574709.875 4177332 312.140014648
574710.4375 4177331.75 312.350006104
574710.5 4177332.25 312.100006104
574711.25 4177332 311.959991455
574711.8125 4177332.25 312.320007324
574712.625 4177332.25 311.929992676
574713.1875 4177332.25 312.220001221
574713.875 4177331.75 312.149993896
574713.9375 4177332.25 312.079986572
574714.5625 4177332 312.200012207
574715.25 4177331.75 311.980010986
574715.9375 4177332 311.929992676
574716.625 4177332 312
574717.25 4177331.75 312.070007324
574718 4177332 312.100006104
574718.5625 4177332 311.820007324
