# .PCD v.7 - Point Cloud Data file format
VERSION .7
FIELDS x y z
SIZE 4 4 4
TYPE F F F
COUNT 1 1 1
WIDTH 252
HEIGHT 1
VIEWPOINT 0 0 0 1 0 0 0
POINTS 252
DATA ascii
574769.375 4177135.5 321.029998779
574769.4375 4177135.75 319.929992676
574770.6875 4177136 320.630004883
574769.3125 4177136.25 319.809997559
574770.5 4177136.25 321.029998779
574776.8125 4177136.25 323.859985352
574777.1875 4177136.5 322.510009766
574768.0625 4177136.75 320.220001221
574769.4375 4177136.75 321.579986572
574769.625 4177137 319.260009766
574770.5625 4177136.75 321
574770.8125 4177137 320.589996338
574770.9375 4177137 318.910003662
574771.8125 4177137.25 322.019989014
574772.125 4177137 320.5
574775.6875 4177137.25 323.399993896
574776.875 4177136.75 324.029998779
574777.25 4177137 321.970001221
574767.0625 4177137.75 320.140014648
574769.25 4177137.25 321.630004883
574769.4375 4177137.5 320.119995117
574769.4375 4177137.25 322.049987793
574769.6875 4177137.75 319.510009766
574770.625 4177137.25 321.260009766
574771.875 4177137.75 322.25
574772.125 4177137.75 321.470001221
574775.8125 4177137.25 321.690002441
574775.875 4177137.25 323.079986572
574776 4177137.5 320.070007324
574776.0625 4177137.25 321.119995117
574776.125 4177137.5 320.260009766
574777 4177137.75 323.510009766
574777.3125 4177137.25 321.859985352
574777.4375 4177137.75 321.160003662
574778.75 4177137.75 321.100006104
574768.125 4177138.25 320.75
574768.3125 4177137.75 320.239990234
574778.75 4177138.25 321.440002441
574768.3125 4177138.5 321.109985352
574769.3125 4177138.75 322.709991455
574770.5 4177138.5 323.630004883
574770.75 4177138.75 323.600006104
574771.875 4177138.5 323.089996338
574772 4177138.75 321.420013428
574772.1875 4177138.75 321.980010986
574777 4177138.5 324.089996338
574777.125 4177139 323.619995117
574777.3125 4177138.75 323.350006104
574778.5625 4177138.75 321.600006104
574778.875 4177138.5 320.220001221
574766.875 4177139.5 321.769989014
574767.0625 4177139 321.010009766
574767.125 4177139.5 320.790008545
574768.25 4177139.25 320.820007324
574768.375 4177139.25 321.459991455
574768.4375 4177139.5 321.079986572
574769.5 4177139.25 323.480010986
574770.5625 4177139.25 324.019989014
574770.6875 4177139.5 322.579986572
574770.75 4177139.25 324.010009766
574772.0625 4177139.25 321.130004883
574772.3125 4177139 321.089996338
574775.8125 4177139.5 323.829986572
574776 4177139.5 323.929992676
574777.1875 4177139.5 323.029998779
574778.625 4177139.25 321.589996338
574778.8125 4177139.5 321.600006104
574766.9375 4177140 321.529998779
574768.25 4177140.25 321.820007324
574768.4375 4177140 319.399993896
574769.375 4177140 322.950012207
574769.5625 4177139.5 323.269989014
574769.625 4177140 322.869995117
574769.875 4177139.5 319.209991455
574769.9375 4177140 318.899993896
574770.8125 4177139.5 323.350006104
574770.8125 4177139.5 321.029998779
574770.9375 4177140 320.160003662
574771 4177139.75 321.779998779
574772.0625 4177140 322.290008545
574772.25 4177140 322.410003662
574774.5 4177140 324.600006104
574774.75 4177140 324.239990234
574775.9375 4177140 323.470001221
574778.625 4177140 322.399993896
574767.1875 4177140.25 321.529998779
574767.25 4177140.5 321.149993896
574768.4375 4177140.25 321.510009766
574768.5625 4177140.25 320.089996338
574769.6875 4177140.5 320.220001221
574770 4177140.75 319.420013428
574771 4177140.25 322.130004883
574771.1875 4177140.5 320.429992676
574772.3125 4177140.25 321.970001221
574772.3125 4177140.5 319.739990234
574774.625 4177140.5 323.839996338
574774.75 4177140.5 324.25
574774.8125 4177140.25 320.929992676
574775 4177140.25 321.470001221
574775.0625 4177140.75 320.850006104
574776 4177140.5 323.220001221
574776 4177140.25 324.899993896
574776.125 4177140.5 323.890014648
574776.1875 4177140.5 321.209991455
574777.0625 4177140.75 325.910003662
574777.3125 4177140.25 325.299987793
574778.8125 4177140.25 322.929992676
574778.875 4177140.5 322.350006104
574768.375 4177141 320.660003662
574768.625 4177141 320.290008545
574769.75 4177141 319.609985352
574770 4177141.25 320.070007324
574770.9375 4177140.75 321.059997559
574771 4177141.25 320.720001221
574771.25 4177140.75 320.190002441
574774.875 4177141 321.75
574776.25 4177141 320.380004883
574776.4375 4177141.25 320.799987793
574777.1875 4177141.25 325.220001221
574777.3125 4177140.75 325.730010986
574777.375 4177141.25 325.410003662
574768.5 4177141.5 320.140014648
574768.6875 4177141.5 320.450012207
574771.1875 4177141.75 321.920013428
574772.25 4177141.75 321.820007324
574772.4375 4177141.75 322.079986572
574773.4375 4177141.5 322.989990234
574773.625 4177141.5 323.380004883
574776 4177141.5 326.029998779
574776.125 4177141.75 325.25
574777.3125 4177141.5 324.029998779
574777.375 4177141.75 323.450012207
574777.5 4177141.5 324.619995117
574778.4375 4177141.75 326.179992676
574778.5625 4177142 324.920013428
574778.875 4177141.5 321.410003662
574778.9375 4177141.75 323.25
574779.125 4177141.75 320.820007324
574769.9375 4177142 321.209991455
574770.0625 4177142.5 320.75
574770.9375 4177142.25 322.510009766
574771.1875 4177142.5 322.540008545
574772.5625 4177142 320.829986572
574773.6875 4177142 323.059997559
574773.8125 4177142.25 322.429992676
574774.75 4177142.25 323.859985352
574774.8125 4177142.25 325.600006104
574775 4177142.25 323.570007324
574775.25 4177142 319.970001221
574778.6875 4177142.25 326.75
574769.9375 4177142.75 319.670013428
574770.1875 4177142.75 319.510009766
574771 4177143 322.910003662
574771.1875 4177143 320.649993896
574771.1875 4177143 323.049987793
574772.1875 4177142.75 323.519989014
574772.375 4177143 322.149993896
574773.8125 4177143 320.480010986
574774.0625 4177142.75 320.059997559
574774.8125 4177143 324.200012207
574776 4177143 325.589996338
574776.1875 4177143 323.730010986
574776.3125 4177142.5 324.179992676
574776.375 4177143 323.579986572
574777.3125 4177143 326
574777.4375 4177142.5 326.359985352
574777.5625 4177142.75 324.880004883
574778.8125 4177142.5 323.029998779
574779.125 4177142.5 321.989990234
574779.125 4177143 321.899993896
574770 4177143.25 320.010009766
574770.1875 4177143.25 319.720001221
574771.25 4177143.5 320.230010986
574771.375 4177143.75 321.239990234
574772.8125 4177143.25 319.399993896
574774.375 4177143.5 317.049987793
574776.375 4177143.5 324.029998779
574777.5625 4177143.5 325.839996338
574778.75 4177143.5 324.619995117
574770 4177144 320.299987793
574770.1875 4177144 320.790008545
574770.3125 4177144.25 319.609985352
574771.5 4177144 320.190002441
574772.375 4177143.75 322.970001221
574772.5625 4177143.75 320.75
574772.8125 4177144 320.700012207
574772.9375 4177143.75 316.160003662
574773.1875 4177144 316.049987793
574774.1875 4177144 317.329986572
574774.4375 4177144 317.019989014
574774.8125 4177143.75 325.200012207
574775 4177143.75 325.059997559
574776.1875 4177143.75 324.700012207
574777.75 4177144 323.940002441
574778.875 4177144 324.079986572
574779.125 4177144 323.549987793
574779.1875 4177144.25 322.850006104
574770.125 4177144.25 319.489990234
574770.1875 4177144.75 318.790008545
574770.5 4177144.75 317.609985352
574771.25 4177144.5 321.600006104
574771.375 4177144.75 320.309997559
574771.5 4177144.75 321.260009766
574772.625 4177144.25 320.549987793
574772.8125 4177144.5 320.910003662
574773 4177144.25 315.869995117
574773.25 4177144.5 315.970001221
574774.25 4177144.75 317.570007324
574774.5 4177144.5 317
574775 4177144.5 325.559997559
574776.1875 4177144.5 325.369995117
574776.375 4177144.25 325.100006104
574778.9375 4177144.5 323.450012207
574770.3125 4177145.25 318.079986572
574770.3125 4177145 320.089996338
574771.4375 4177145.25 320.109985352
574771.5625 4177145 320.529998779
574771.875 4177145.25 317.570007324
574773 4177145.25 317.230010986
574773.25 4177145 316.589996338
574774.3125 4177145.25 317.160003662
574774.5 4177145.25 317.529998779
574776.1875 4177145.25 325.700012207
574776.375 4177145 325.820007324
574777.6875 4177145 325.690002441
574777.8125 4177145 324.279998779
574779 4177145 323.700012207
574779.1875 4177145 323.529998779
574770.4375 4177145.5 316.920013428
574770.5625 4177145.5 318.309997559
574770.625 4177146 318.089996338
574771.5625 4177145.5 318.850006104
574771.625 4177145.5 320.329986572
574771.6875 4177146 318.010009766
574771.9375 4177145.75 317.25
574773.0625 4177145.75 317.109985352
574773.1875 4177146 315.720001221
574773.25 4177145.75 317.109985352
574774.375 4177145.75 317.320007324
574774.5625 4177145.5 316.989990234
574777.625 4177145.5 324.489990234
574777.875 4177145.5 324.149993896
574779 4177145.75 324.160003662
574779.1875 4177145.75 324.320007324
574770.5 4177146 317.089996338
574770.6875 4177146.25 317.529998779
574773.375 4177146 316.589996338
574773.4375 4177146.5 315.959991455
574775.875 4177146.5 315.529998779
574779.25 4177146.25 324.369995117
574773.5 4177147 315.619995117
574774.8125 4177146.75 315.519989014
