# .PCD v.7 - Point Cloud Data file format
VERSION .7
FIELDS x y z
SIZE 4 4 4
TYPE F F F
COUNT 1 1 1
WIDTH 283
HEIGHT 1
VIEWPOINT 0 0 0 1 0 0 0
POINTS 283
DATA ascii
574712.3125 4177118.25 315.320007324
574712.4375 4177118 315.390014648
574712.4375 4177118.5 315.350006104
574733.6875 4177118.25 315.600006104
574733.875 4177118.5 315.320007324
574782.6875 4177118 315.029998779
574784.0625 4177118 315.059997559
574794.9375 4177118.25 315.160003662
574593 4177118.75 315.709991455
574593.0625 4177119 315.609985352
574712.375 4177118.75 315.329986572
574717.3125 4177118.75 315.579986572
574717.4375 4177118.75 315.720001221
574756.625 4177118.75 315.390014648
574794.8125 4177118.5 315.010009766
574592.9375 4177119 315.589996338
574716.125 4177119 315.339996338
574741.375 4177119.5 315.049987793
574781.3125 4177119 315.059997559
574781.5 4177119.5 315.029998779
574794.875 4177119 315.119995117
574795.0625 4177119 315.049987793
574740.25 4177119.75 315.380004883
574741.5 4177119.5 315.320007324
574781.375 4177119.75 315
574585.0625 4177120.5 315.640014648
574593.125 4177120.25 315.350006104
574722.625 4177120.75 315.190002441
574728.9375 4177120.5 315.119995117
574750.4375 4177120.5 315.320007324
574777.4375 4177120.5 315.269989014
574777.625 4177120.75 315.040008545
574726.5625 4177121 315.390014648
574729.125 4177121 315.480010986
574730.375 4177121.25 315.570007324
574735.25 4177121.25 315.209991455
574735.375 4177121.25 315.170013428
574737.6875 4177121 315.209991455
574591.875 4177121.5 315.839996338
574598.25 4177121.5 315.470001221
574598.4375 4177121.5 315.799987793
574598.5 4177121.75 315.429992676
574774.9375 4177121.75 315
574784.1875 4177121.5 315.079986572
574598.9375 4177122.25 315.390014648
574744.3125 4177122 315.209991455
574791.1875 4177122.25 315.010009766
574598.9375 4177122.5 315.380004883
574739.125 4177122.75 315.529998779
574744.4375 4177123 315.089996338
574725.5625 4177123.5 315.450012207
574743.1875 4177123.75 315.179992676
574784.3125 4177123.25 315.179992676
574597.25 4177124.25 315.359985352
574743.0625 4177124 315.160003662
574743.25 4177124.25 315.160003662
574771.1875 4177124 315.320007324
574760.875 4177124.25 315.179992676
574761.0625 4177124.75 315.350006104
574783.1875 4177124.75 315.100006104
574788.625 4177124.25 315.119995117
574735.75 4177125 315.239990234
574738.125 4177125.5 315.230010986
574745.75 4177125.25 315.369995117
574759.8125 4177125.25 315.390014648
574765 4177125.25 315.029998779
574596 4177126 315.809997559
574596.1875 4177126 315.630004883
574721.8125 4177125.75 315.630004883
574722 4177125.5 315.209991455
574735.6875 4177125.75 315.279998779
574738.3125 4177126 315.459991455
574743.1875 4177125.75 315.459991455
574743.375 4177125.5 315.119995117
574744.5 4177126 315.380004883
574744.6875 4177126 315.440002441
574748.3125 4177125.75 315.170013428
574759.6875 4177125.5 315.420013428
574761 4177125.5 315.160003662
574761.1875 4177125.5 315.220001221
574596.1875 4177126.5 315.769989014
574735.875 4177126 315.390014648
574743.4375 4177126 315.429992676
574745.8125 4177126.5 315.450012207
574746 4177126.25 315.279998779
574761.1875 4177126 315.149993896
574596.25 4177127 315.910003662
574722.0625 4177126.75 315.670013428
574738.25 4177127.25 315.559997559
574746.0625 4177126.75 315.380004883
574755.9375 4177126.75 315.459991455
574756 4177127 315.049987793
574756.1875 4177127.25 315.200012207
574746.125 4177127.75 315.279998779
574809.625 4177127.25 315.040008545
574770.25 4177128.25 315.279998779
574787.5 4177128.25 315.079986572
574787.625 4177128 315.029998779
574801.5 4177128.25 314.959991455
574738.4375 4177128.75 315.25
574739.75 4177128.75 315.260009766
574739.875 4177128.5 315.230010986
574764 4177128.5 315.160003662
574770.5 4177128.5 315.339996338
574777.0625 4177128.75 315.260009766
574787.6875 4177128.5 315.170013428
574739.75 4177129.5 315.559997559
574739.875 4177129.25 315.559997559
574746.25 4177129.25 315.309997559
574788.875 4177129 315.209991455
574747.625 4177130 315.320007324
574765.25 4177130 315.049987793
574766.5 4177129.5 315.149993896
574797.4375 4177130 315.029998779
574793.1875 4177130.75 315.119995117
574794.5 4177130.25 314.989990234
574795.875 4177130.25 314.970001221
574748.8125 4177131 315.079986572
574749 4177130.75 315.25
574757.75 4177131.75 315.100006104
574757.875 4177131.5 315.170013428
574764.3125 4177131.5 315.029998779
574599.375 4177132.5 315.359985352
574747.875 4177132.25 315.130004883
574777.25 4177132.25 315.109985352
574777.4375 4177132 315
574740.25 4177132.75 315.559997559
574777.25 4177132.75 315.309997559
574778.75 4177132.75 315.209991455
574790.5625 4177132.5 315.149993896
574750.25 4177133.25 315.489990234
574750.4375 4177133.25 315.230010986
574762 4177134 315.049987793
574767 4177134.75 315.149993896
574591.5625 4177135.5 315.850006104
574767.1875 4177135 315.190002441
574792.1875 4177135 315.040008545
574591.75 4177135.75 316.140014648
574773.625 4177136 315.109985352
574790.8125 4177135.5 315.209991455
574577.625 4177136.25 315.940002441
574578.6875 4177136.25 316.170013428
574591.5625 4177136 316.279998779
574591.6875 4177136.5 315.579986572
574591.8125 4177136 315.739990234
574759.4375 4177136.25 315.059997559
574763.5 4177136.5 315.260009766
574576.375 4177136.75 315.730010986
574578.6875 4177137 316.410003662
574578.875 4177137 316.399993896
574591.8125 4177136.75 315.989990234
574753.125 4177136.75 315.220001221
574793.75 4177137 315.119995117
574806.5 4177137.25 315.089996338
574575 4177137.75 315.929992676
574575.1875 4177137.5 316.220001221
574576.1875 4177137.25 316.230010986
574576.4375 4177137.5 315.850006104
574577.6875 4177137.25 315.679992676
574753.1875 4177137.25 315.179992676
574753.375 4177137.25 315.190002441
574755.9375 4177137.75 315.309997559
574788.3125 4177137.5 315.140014648
574575.0625 4177138.5 316.220001221
574575.25 4177138 315.890014648
574576.25 4177138 316.359985352
574576.4375 4177138 315.950012207
574753.4375 4177137.75 315.279998779
574754.5 4177138 315.269989014
574755.75 4177138 315.470001221
574757.25 4177138 315.25
574758.5 4177138 315.079986572
574575.125 4177138.75 315.700012207
574575.25 4177138.5 316.059997559
574576.3125 4177138.5 316.329986572
574576.5 4177138.5 316.200012207
574576.5625 4177138.75 315.630004883
574578.875 4177138.5 315.470001221
574579.0625 4177138.75 315.769989014
574576.375 4177139 316.019989014
574576.625 4177139.25 315.540008545
574577.625 4177139 316.160003662
574578.875 4177139.25 316.170013428
574579.0625 4177139.5 316.630004883
574580.375 4177139 315.720001221
574756.125 4177139 315.130004883
574784.6875 4177139 315.160003662
574808 4177139 315.029998779
574575.125 4177139.5 316.410003662
574575.1875 4177140.25 316.25
574575.3125 4177139.5 316.25
574579.1875 4177139.75 315.75
574580.3125 4177140 315.589996338
574763.875 4177140 315.049987793
574783.375 4177139.5 315.279998779
574575.375 4177140.25 316.420013428
574581.5625 4177140.25 316.130004883
574581.75 4177140.25 316
574584.1875 4177140.25 315.390014648
574584.375 4177140.25 315.480010986
574577.9375 4177141 315.989990234
574578.0625 4177141.75 315.410003662
574764.0625 4177142.25 315.119995117
574798.375 4177142 315.089996338
574799.875 4177143.25 315.070007324
574782.25 4177143.75 315.019989014
574801.3125 4177144 315
574769.4375 4177144.75 315.190002441
574782.3125 4177145 315.160003662
574801.5 4177145.75 315.010009766
574773.25 4177146.5 315.190002441
574776.125 4177146.5 315.109985352
574774.6875 4177147 315.049987793
574774.875 4177147.25 315.149993896
574800.4375 4177146.75 315.049987793
574804.375 4177147 315.130004883
574575.8125 4177147.75 316.220001221
574577.0625 4177147.75 315.809997559
574575.875 4177148.25 315.920013428
574576 4177147.75 316.269989014
574576.0625 4177148.25 316.040008545
574577.125 4177148.25 315.649993896
574770.8125 4177148 315.100006104
574575.9375 4177148.75 315.730010986
574576.125 4177148.75 315.690002441
574577.25 4177149.5 315.459991455
574804.6875 4177150.5 315.119995117
574785.625 4177151.5 315.179992676
574785.6875 4177152 315
574813.4375 4177157.5 315.019989014
574797.375 4177159 315.040008545
574797.125 4177159.5 315.089996338
574797.375 4177159.5 315.059997559
574799.9375 4177159.5 314.970001221
574800.25 4177160 314.970001221
574809.625 4177159.75 314.959991455
574798.875 4177160.5 314.980010986
574803.25 4177165.25 315.100006104
574599.1875 4177274.25 316.570007324
574597.9375 4177275 316.320007324
574599.25 4177274.75 316.559997559
574598 4177275.5 316.579986572
574597.5625 4177276 316.579986572
574595.125 4177278 316.559997559
574596.375 4177277.75 316.559997559
574599 4177277.75 316.570007324
574595.25 4177279.75 316.359985352
574587 4177288.5 316.239990234
574587.4375 4177288.25 316.600006104
574587.5 4177288.75 316.589996338
574588.25 4177288.5 316.649993896
574589.5 4177288.75 316.600006104
574587.0625 4177289 316.600006104
574587.5625 4177289.5 316.640014648
574588.3125 4177289.25 316.619995117
574588.8125 4177289.25 316.5
574587.0625 4177289.5 316.670013428
574588.3125 4177289.75 316.519989014
574588.8125 4177289.75 316.619995117
574587.625 4177290.5 316.450012207
574587.6875 4177291 316.589996338
574586.4375 4177291.25 316.619995117
574587.75 4177292.25 316.549987793
574586.0625 4177293 316.660003662
574586.125 4177293.5 316.679992676
574586.625 4177293.5 316.679992676
574587.375 4177293 316.589996338
574586.6875 4177294 316.640014648
574588.625 4177293.75 316.589996338
574585.5 4177294.75 316.630004883
574586.6875 4177294.5 316.609985352
574585.5 4177295.25 316.600006104
574586.75 4177295.25 316.619995117
574585.5625 4177295.75 316.630004883
574586.8125 4177295.75 316.579986572
574585.125 4177296.25 316.510009766
574585.625 4177296.25 316.579986572
574586.875 4177296.25 316.450012207
574588.125 4177296.25 316.619995117
574588.875 4177296.5 316.619995117
574589.5625 4177298.25 316.109985352
574587.8125 4177308 316.510009766
574590.4375 4177309.5 316.649993896
