# .PCD v.7 - Point Cloud Data file format
VERSION .7
FIELDS x y z
SIZE 4 4 4
TYPE F F F
COUNT 1 1 1
WIDTH 124
HEIGHT 1
VIEWPOINT 0 0 0 1 0 0 0
POINTS 124
DATA ascii
574588.75 4177288.75 316.720001221
574589.5625 4177289.25 316.799987793
574590 4177289.25 316.940002441
574587.5625 4177290 316.690002441
574589.625 4177290 316.700012207
574590.0625 4177289.75 316.970001221
574590.875 4177289.75 316.769989014
574591.375 4177289.75 316.820007324
574592.125 4177290 317.059997559
574587.125 4177290.25 316.75
574588.375 4177290.25 316.690002441
574588.875 4177290.5 316.720001221
574589.625 4177290.5 316.730010986
574590.125 4177290.25 317
574590.875 4177290.25 316.940002441
574591.375 4177290.25 317.109985352
574592.1875 4177290.5 316.779998779
574592.625 4177290 317
574587.1875 4177290.75 316.809997559
574588.4375 4177290.75 316.690002441
574588.875 4177291 316.869995117
574589.6875 4177291 316.660003662
574590.1875 4177291 316.950012207
574590.9375 4177290.75 316.910003662
574591.4375 4177290.75 316.970001221
574592.25 4177291 316.839996338
574592.6875 4177290.75 316.940002441
574586.5 4177291.75 316.790008545
574587.1875 4177291.25 316.880004883
574587.6875 4177291.75 316.779998779
574588.4375 4177291.5 316.739990234
574588.9375 4177291.5 316.850006104
574589.75 4177291.5 317.029998779
574590.25 4177291.5 316.850006104
574591 4177291.25 316.899993896
574591.5 4177291.5 316.760009766
574592.3125 4177291.5 316.809997559
574586.5 4177292.25 316.859985352
574587.25 4177292 316.809997559
574588.5 4177292 316.890014648
574589 4177292 316.730010986
574589.75 4177292.25 316.980010986
574590.25 4177292 317.019989014
574591.0625 4177292 316.839996338
574591.5625 4177292 316.910003662
574592.3125 4177292.25 317.160003662
574586.0625 4177292.5 316.820007324
574586.5625 4177293 316.790008545
574587.3125 4177292.5 316.779998779
574587.8125 4177292.75 316.779998779
574588.5625 4177292.5 316.720001221
574589.0625 4177292.75 316.850006104
574589.8125 4177292.75 316.739990234
574590.3125 4177292.5 316.890014648
574591.0625 4177292.5 316.850006104
574591.5625 4177292.5 316.929992676
574587.875 4177293.25 316.739990234
574588.5625 4177293 316.829986572
574589.0625 4177293.25 316.929992676
574589.875 4177293.25 316.799987793
574590.375 4177293.25 316.820007324
574591.125 4177293 316.929992676
574591.625 4177293 316.779998779
574586.1875 4177294 316.910003662
574587.375 4177293.5 316.709991455
574587.4375 4177294.25 316.690002441
574587.875 4177294 316.799987793
574589.125 4177293.75 316.769989014
574589.9375 4177293.75 316.670013428
574590.4375 4177293.75 316.769989014
574591.1875 4177293.75 316.959991455
574591.6875 4177293.75 316.820007324
574586.1875 4177294.75 316.859985352
574587.5 4177294.75 316.809997559
574587.9375 4177294.5 316.869995117
574588.6875 4177294.25 316.75
574589.1875 4177294.5 316.880004883
574589.9375 4177294.5 316.760009766
574590.4375 4177294.25 316.779998779
574591.25 4177294.25 316.839996338
574591.25 4177294.75 316.700012207
574591.75 4177294.25 316.730010986
574586.25 4177295.25 316.820007324
574587.5 4177295.25 316.890014648
574588 4177295 316.910003662
574588.75 4177294.75 316.809997559
574589.25 4177295 316.869995117
574590 4177295 316.839996338
574590.5 4177294.75 316.75
574586.3125 4177295.75 316.720001221
574587.5625 4177295.75 316.940002441
574588.0625 4177295.5 316.720001221
574588.75 4177295.25 316.899993896
574588.8125 4177296 316.690002441
574589.25 4177295.5 316.739990234
574590.0625 4177295.5 316.679992676
574590.5625 4177295.5 316.890014648
574591.25 4177295.25 317.140014648
574586.375 4177296.25 316.720001221
574587.625 4177296.5 316.950012207
574589.3125 4177296 316.850006104
574590.0625 4177296 316.790008545
574590.5625 4177296 317.059997559
574585.125 4177296.75 316.75
574585.625 4177297 316.700012207
574586.375 4177297 316.839996338
574586.875 4177296.75 316.910003662
574587.6875 4177297 316.790008545
574588.125 4177296.75 316.720001221
574588.9375 4177297 316.679992676
574589.375 4177296.75 316.970001221
574590.125 4177296.75 317
574590.625 4177296.5 316.950012207
574590.6875 4177297 316.75
574586.9375 4177297.5 317.040008545
574587.6875 4177297.5 316.820007324
574588.1875 4177297.25 316.769989014
574588.9375 4177297.5 316.850006104
574589.375 4177297.25 317.140014648
574590.1875 4177297.25 317.070007324
574590.75 4177297.75 316.809997559
574589.4375 4177297.75 316.929992676
574590.25 4177297.75 316.950012207
574590.25 4177298.5 316.890014648
