# .PCD v.7 - Point Cloud Data file format
VERSION .7
FIELDS x y z
SIZE 4 4 4
TYPE F F F
COUNT 1 1 1
WIDTH 86
HEIGHT 1
VIEWPOINT 0 0 0 1 0 0 0
POINTS 86
DATA ascii
574575.125 4177340 324.640014648
574574.5 4177340.25 325.130004883
574575.1875 4177340.5 324.640014648
574575.75 4177340.25 325.489990234
574576.375 4177340.5 324.989990234
574577 4177340 324.630004883
574574.5625 4177340.75 324.640014648
574575.1875 4177341 324.839996338
574575.875 4177340.75 324.529998779
574576.4375 4177341 324.950012207
574577 4177340.75 325.410003662
574578.375 4177340.75 323.970001221
574578.9375 4177341.25 324.470001221
574574.6875 4177341.25 323.959991455
574575.3125 4177341.75 324.029998779
574575.875 4177341.25 324.820007324
574576.4375 4177341.5 324.940002441
574577.0625 4177341.25 325.040008545
574577.3125 4177341.75 322.450012207
574577.9375 4177341.75 322.220001221
574578.3125 4177341.25 324.929992676
574578.9375 4177341.75 324.929992676
574579.5 4177341.75 325.220001221
574580.0625 4177341.5 324.980010986
574574.75 4177341.75 323.809997559
574575.375 4177342.25 324.019989014
574575.9375 4177342 324.609985352
574577.4375 4177342.25 321.649993896
574578.375 4177341.75 324.540008545
574578.9375 4177342.25 325.390014648
574579.5 4177342.25 325.899993896
574574.5 4177342.5 327.589996338
574575.0625 4177342.75 327.679992676
574576.75 4177342.5 322.5
574577.5 4177342.75 321.820007324
574577.875 4177342.25 323.739990234
574577.9375 4177343 323.410003662
574578.4375 4177342.5 324.260009766
574579 4177342.75 325.230010986
574579.5625 4177342.75 325.459991455
574580.125 4177342.75 325.410003662
574574.5625 4177343 326.970001221
574575.25 4177343.25 326.429992676
574575.9375 4177343 325.429992676
574576.8125 4177343.25 322.630004883
574577.375 4177343.5 323.440002441
574577.9375 4177343.5 324.290008545
574578.4375 4177343 324.75
574578.5 4177343.5 324.869995117
574579.0625 4177343.25 325.059997559
574579.6875 4177343.5 324.809997559
574580.1875 4177343.25 325.160003662
574574.5 4177343.5 328.170013428
574575.3125 4177344 325.920013428
574576 4177343.5 325.690002441
574576.5625 4177343.75 325.899993896
574577.5 4177344 323
574577.9375 4177344 324.410003662
574578.5625 4177344 324.760009766
574579.125 4177344 324.920013428
574580.25 4177343.75 325.140014648
574574.5 4177344.25 329.019989014
574574.6875 4177344.75 327.410003662
574575.25 4177344.5 327.619995117
574576 4177344.25 325.709991455
574576.6875 4177344.25 324.679992676
574577.375 4177344.5 324.559997559
574578.6875 4177344.5 323.980010986
574574.6875 4177345.25 327.440002441
574575.3125 4177345 326.850006104
574576.0625 4177344.75 325.480010986
574576.125 4177345.25 325.320007324
574576.8125 4177345 324.239990234
574577.4375 4177345 324.220001221
574578.75 4177345.25 323.529998779
574579.3125 4177345 323.670013428
574579.875 4177345 323.970001221
574575.1875 4177345.75 322.089996338
574575.75 4177345.5 322.089996338
574576.375 4177345.75 322.679992676
574576.9375 4177345.5 322.899993896
574577.4375 4177345.75 325.100006104
574578.0625 4177345.75 324.820007324
574578.625 4177345.75 325.089996338
574579.25 4177345.5 324.369995117
574579.75 4177345.75 325.980010986
