# .PCD v.7 - Point Cloud Data file format
VERSION .7
FIELDS x y z
SIZE 4 4 4
TYPE F F F
COUNT 1 1 1
WIDTH 121
HEIGHT 1
VIEWPOINT 0 0 0 1 0 0 0
POINTS 121
DATA ascii
574788.875 4177133.5 321.989990234
574787.5 4177133.75 321.029998779
574787.625 4177134 321.529998779
574788.6875 4177133.75 322.290008545
574788.8125 4177134.25 321.730010986
574788.9375 4177134 322.309997559
574787.5625 4177134.25 320.679992676
574787.75 4177134.25 320.850006104
574788.875 4177134.75 321.570007324
574789 4177134.5 321.869995117
574787.8125 4177135.25 321
574789.0625 4177134.75 321.869995117
574789.0625 4177135.25 321.799987793
574782.25 4177135.5 321.320007324
574782.5 4177135.5 321.179992676
574784.6875 4177136 324.829986572
574784.875 4177135.75 324.779998779
574786.0625 4177135.75 323.880004883
574787.4375 4177135.5 323.350006104
574787.5625 4177135.5 323.720001221
574787.75 4177135.75 320.040008545
574788.8125 4177135.75 322.739990234
574782.3125 4177136 321.390014648
574782.4375 4177136.5 320.720001221
574782.5 4177136.25 321.929992676
574783.375 4177136.5 324.809997559
574783.625 4177136.5 324.619995117
574784.75 4177136.5 324.489990234
574784.9375 4177136.5 324.880004883
574786.125 4177136.25 323.369995117
574787.5 4177136 323.049987793
574787.75 4177136.5 320.339996338
574787.75 4177136.25 322.260009766
574787.875 4177136.25 321.040008545
574788.875 4177136.5 323.329986572
574789 4177136.5 324.029998779
574789.3125 4177136.5 320.390014648
574782.4375 4177137.25 320.950012207
574782.5625 4177136.75 321.760009766
574782.625 4177137.25 321.429992676
574783.5 4177136.75 324.040008545
574783.6875 4177136.75 323.640014648
574784.75 4177137.25 324.929992676
574785 4177136.75 324.299987793
574785.125 4177136.75 322.760009766
574786.125 4177137 324.329986572
574786.25 4177136.75 324.869995117
574786.375 4177137 323.489990234
574787.9375 4177136.75 320.779998779
574788.875 4177137 323.720001221
574789.0625 4177136.75 323.220001221
574789.125 4177137 320.890014648
574789.25 4177137 319.200012207
574789.375 4177137 320.260009766
574790.625 4177137.25 319.119995117
574783.5625 4177137.25 323.75
574783.6875 4177137.25 324.359985352
574783.75 4177137.75 323.920013428
574783.9375 4177137.5 319.769989014
574784 4177137.75 321.670013428
574784.125 4177137.75 320.179992676
574784.875 4177137.75 324.679992676
574785.0625 4177137.75 324.160003662
574786.1875 4177137.75 324.510009766
574786.375 4177137.75 324.519989014
574787.75 4177137.5 321.920013428
574787.9375 4177137.5 321.540008545
574788.0625 4177137.75 320.869995117
574789.375 4177137.75 321.299987793
574782.375 4177138.25 323.329986572
574782.5625 4177138.25 323.529998779
574782.625 4177138 319.549987793
574782.875 4177138.25 319.570007324
574783.625 4177138 324.010009766
574784.875 4177138.25 324.679992676
574785.125 4177138.25 324.489990234
574786.25 4177138.25 324.140014648
574786.4375 4177138.25 321.929992676
574786.4375 4177138 324
574786.6875 4177137.75 321.299987793
574786.75 4177138.5 321.320007324
574787.8125 4177138 321.540008545
574789.1875 4177138.25 321.489990234
574789.375 4177138.25 321.260009766
574790.9375 4177138.25 319.600006104
574782.5625 4177138.75 323.369995117
574782.75 4177138.5 319.309997559
574782.9375 4177138.75 319.690002441
574783.8125 4177138.75 322.380004883
574784 4177139 322.640014648
574785 4177138.75 324.410003662
574785.125 4177139 325.119995117
574785.125 4177138.75 322.420013428
574786.5 4177138.5 321.380004883
574786.75 4177139 321.489990234
574787.875 4177138.5 321.670013428
574788.0625 4177138.5 321.649993896
574789.5 4177138.5 320.679992676
574789.625 4177138.75 319.660003662
574790.6875 4177138.5 319.779998779
574782.875 4177139.5 318.5
574783 4177139.25 319.369995117
574783.0625 4177139.5 318.709991455
574783.8125 4177139.5 322.899993896
574784 4177139.5 323.190002441
574785.1875 4177139.5 322.510009766
574785.375 4177139.25 322.589996338
574786.5625 4177139.25 321.540008545
574786.8125 4177139.5 321.450012207
574788.0625 4177139 321.980010986
574783.125 4177140 318.369995117
574784.0625 4177140 323.470001221
574785.1875 4177140.25 323.040008545
574785.4375 4177139.75 322.579986572
574786.625 4177139.75 321.130004883
574786.875 4177139.75 321.269989014
574783.8125 4177140.25 323.660003662
574785.3125 4177140.5 322.450012207
574785.5 4177140.25 322.209991455
574786.6875 4177140.5 321.739990234
574786.875 4177140.5 321.529998779
