# .PCD v.7 - Point Cloud Data file format
VERSION .7
FIELDS x y z
SIZE 4 4 4
TYPE F F F
COUNT 1 1 1
WIDTH 404
HEIGHT 1
VIEWPOINT 0 0 0 1 0 0 0
POINTS 404
DATA ascii
574796.5625 4177130.5 307.390014648
574797.9375 4177130.25 307.809997559
574798 4177130.75 307.570007324
574796.8125 4177131 307.579986572
574798.0625 4177131.25 307.450012207
574798.1875 4177131 307.570007324
574796.6875 4177131.75 307.760009766
574796.875 4177131.5 307.510009766
574798.25 4177131.5 307.75
574796.75 4177132.25 307.549987793
574796.875 4177132 307.890014648
574798.0625 4177132 307.989990234
574798.3125 4177132 307.649993896
574796.8125 4177133 307.489990234
574796.9375 4177132.5 307.869995117
574797 4177133 307.609985352
574795.375 4177133.5 308.179992676
574795.5625 4177133.25 308.619995117
574796.8125 4177133.5 307.709991455
574797 4177133.5 307.859985352
574798.4375 4177133.5 307.869995117
574795.5 4177134 307.950012207
574795.6875 4177134.25 307.839996338
574796.875 4177134.25 307.649993896
574797.0625 4177134 307.839996338
574798.125 4177134 309.369995117
574794.125 4177134.75 308.339996338
574795.5 4177134.75 308.279998779
574795.75 4177134.75 307.980010986
574796.9375 4177134.75 307.700012207
574797.125 4177134.75 307.899993896
574798.1875 4177134.75 309.380004883
574798.375 4177134.5 309.279998779
574803.9375 4177134.75 307.640014648
574806.8125 4177134.5 308.410003662
574794.3125 4177134.75 308.209991455
574796.9375 4177135.5 308.059997559
574797.125 4177135.25 308.390014648
574798.3125 4177135 308
574798.4375 4177135 309.130004883
574798.5625 4177135 307.809997559
574800 4177135 307.920013428
574802.8125 4177135.25 307.809997559
574804.0625 4177135 309.059997559
574806.75 4177135 307.630004883
574808.0625 4177135 307.609985352
574808.3125 4177135 307.519989014
574792.75 4177135.75 308.899993896
574792.9375 4177135.5 309.130004883
574793.0625 4177135.75 308.160003662
574794.25 4177135.75 307.989990234
574794.4375 4177136 308.309997559
574795.5 4177135.5 309.200012207
574797 4177136 308.049987793
574797.1875 4177135.75 308.130004883
574798.375 4177135.5 307.880004883
574798.625 4177135.5 307.720001221
574801.1875 4177135.75 308.040008545
574801.4375 4177135.5 307.760009766
574802.625 4177135.75 307.690002441
574802.875 4177135.75 307.5
574805.625 4177135.75 307.700012207
574792.875 4177136.25 308.070007324
574793.0625 4177136.25 308.269989014
574794.25 4177136.5 308.029998779
574794.5 4177136.25 307.950012207
574795.6875 4177136.5 307.850006104
574797.0625 4177136.5 307.920013428
574797.25 4177136.25 307.910003662
574798.4375 4177136 307.760009766
574801.25 4177136.5 307.910003662
574801.4375 4177136 307.929992676
574801.5 4177136.5 307.739990234
574802.6875 4177136.25 307.630004883
574802.875 4177136.25 307.619995117
574804.0625 4177136.5 307.700012207
574804.3125 4177136.25 307.760009766
574805.5 4177136.5 307.760009766
574809.5625 4177136.25 307.529998779
574793.125 4177136.75 308.119995117
574794.3125 4177137 308.049987793
574794.5 4177136.75 307.989990234
574795.75 4177137 307.730010986
574795.9375 4177136.75 307.799987793
574797.3125 4177136.75 308.100006104
574802.75 4177137 307.890014648
574802.9375 4177137 308.059997559
574804.125 4177137 307.910003662
574804.3125 4177136.75 307.850006104
574805.5625 4177137.25 307.660003662
574805.75 4177136.75 307.470001221
574806.875 4177136.75 307.809997559
574807.0625 4177136.75 307.589996338
574808.25 4177136.75 307.529998779
574790.25 4177137.75 308.190002441
574793.1875 4177137.5 308.579986572
574794.375 4177137.5 308.019989014
574794.5625 4177137.25 308.019989014
574795.9375 4177137.25 308.260009766
574796 4177137.75 307.920013428
574797.125 4177137.25 308.190002441
574802.75 4177137.5 307.799987793
574803 4177137.5 308.070007324
574804.1875 4177137.5 307.649993896
574804.375 4177137.5 308.010009766
574805.625 4177137.75 307.630004883
574805.75 4177137.25 307.609985352
574805.8125 4177137.75 307.510009766
574806.9375 4177137.25 307.660003662
574807.125 4177137.25 307.660003662
574808.5 4177137.75 307.660003662
574788.875 4177138.25 309.200012207
574789.125 4177138.25 308.739990234
574790.3125 4177138.5 308.359985352
574790.5 4177138 308.399993896
574793 4177138 308.200012207
574793.1875 4177138 308.549987793
574793.25 4177138.25 308.109985352
574794.4375 4177138.25 308.149993896
574794.625 4177138 308.329986572
574795.8125 4177138.25 308.309997559
574796.0625 4177138.25 307.890014648
574802.8125 4177138.25 308.230010986
574803 4177138 307.929992676
574804.25 4177138.25 307.679992676
574804.4375 4177138 307.959991455
574807 4177137.75 307.600006104
574807.1875 4177137.75 307.769989014
574807.25 4177138.25 307.790008545
574808.375 4177137.75 307.510009766
574808.5625 4177138.25 307.679992676
574790.5625 4177138.5 308.220001221
574790.625 4177139 308.309997559
574791.9375 4177139 308.25
574793.0625 4177138.5 308.269989014
574793.3125 4177139 308.279998779
574794.5 4177138.75 308
574794.625 4177138.5 308.320007324
574794.6875 4177139 308.130004883
574795.875 4177139 308.309997559
574796.0625 4177138.75 308.119995117
574802.875 4177138.75 307.929992676
574803.0625 4177138.5 308.170013428
574805.8125 4177138.5 308.070007324
574805.875 4177139 307.899993896
574807 4177138.5 307.619995117
574808.375 4177138.5 307.839996338
574808.625 4177138.75 307.950012207
574789.25 4177139.25 308.649993896
574790.375 4177139 308.809997559
574790.4375 4177139.5 308.239990234
574790.625 4177139.5 308.309997559
574791.75 4177139 308.399993896
574792 4177139.5 308.410003662
574793.125 4177139.25 308.5
574793.375 4177139.5 308.429992676
574794.5625 4177139.5 308.230010986
574794.75 4177139.5 308.260009766
574802.9375 4177139.5 308.100006104
574803.125 4177139 307.989990234
574803.125 4177139.5 308.149993896
574805.6875 4177139 307.970001221
574789.125 4177140 308.420013428
574789.3125 4177139.75 308.369995117
574790.5 4177140.25 308.299987793
574790.6875 4177140 308.329986572
574791.8125 4177139.75 308.269989014
574792.0625 4177140 308.149993896
574793.1875 4177139.75 308.480010986
574793.4375 4177140 308.399993896
574794.5625 4177140 308.299987793
574794.8125 4177140 308.220001221
574795.8125 4177139.75 309.609985352
574796 4177140 308.239990234
574796.1875 4177140 308.440002441
574797.5625 4177139.75 308.239990234
574803.1875 4177140 308.089996338
574789.375 4177140.25 308.200012207
574789.4375 4177140.75 308.299987793
574790.75 4177140.5 308.540008545
574791.8125 4177140.25 308.609985352
574792.125 4177140.5 308.299987793
574793.25 4177140.25 308.130004883
574793.4375 4177140.5 308.329986572
574794.625 4177140.75 308.410003662
574794.8125 4177140.5 308.380004883
574796.25 4177140.5 308.290008545
574797.375 4177140.25 308.380004883
574797.625 4177140.5 308.440002441
574801.8125 4177140.25 308.109985352
574789.4375 4177141.25 308.670013428
574790.5 4177140.75 308.600006104
574790.75 4177141 308.5
574791.875 4177140.75 308.480010986
574792.125 4177141 308.609985352
574793.25 4177141 308.410003662
574793.5 4177141 308.260009766
574796 4177140.75 308.549987793
574796.25 4177141 308.239990234
574797.4375 4177140.75 308.410003662
574797.625 4177141 308.390014648
574789.5 4177141.75 308.609985352
574790.5625 4177141.5 308.540008545
574790.8125 4177141.75 308.730010986
574791.875 4177141.75 309.700012207
574792.1875 4177141.5 308.690002441
574793.375 4177141.5 308.260009766
574796.0625 4177141.25 308.529998779
574796.3125 4177141.5 308.179992676
574797.4375 4177141.5 308.579986572
574797.6875 4177141.5 308.470001221
574789.5 4177142.5 308.959991455
574790.625 4177142 308.859985352
574790.875 4177142.25 308.890014648
574792.1875 4177142.25 309.429992676
574793.375 4177142.25 308.630004883
574793.5625 4177142 308.679992676
574794.75 4177142.5 308.549987793
574796.125 4177142 308.700012207
574796.375 4177142 308.320007324
574797.5 4177142 308.440002441
574797.75 4177142 308.769989014
574799.125 4177142 308.730010986
574799.1875 4177142.5 308.489990234
574800.375 4177142.25 308.429992676
574792 4177143 309.529998779
574792.25 4177142.5 308.660003662
574796.125 4177142.5 308.820007324
574796.375 4177142.5 308.519989014
574797.5625 4177142.75 309
574797.75 4177142.5 308.670013428
574799 4177142.75 308.700012207
574799.25 4177143 308.390014648
574800.375 4177143 308.660003662
574800.5 4177142.75 309.510009766
574790.75 4177143.25 308.739990234
574791 4177143.25 308.600006104
574792.125 4177143.25 308.549987793
574792.3125 4177143 308.480010986
574794.8125 4177143 308.880004883
574796.4375 4177143.25 309.179992676
574796.5 4177143.75 308.700012207
574797.625 4177143.25 308.619995117
574797.8125 4177143 308.790008545
574797.875 4177143.5 308.549987793
574799.0625 4177143.25 308.399993896
574799.25 4177143.5 308.850006104
574800.4375 4177143.5 308.640014648
574788.125 4177144.25 309.010009766
574788.3125 4177144 309.269989014
574789.4375 4177144.25 309.230010986
574790.8125 4177143.75 308.700012207
574791 4177143.75 308.700012207
574791.0625 4177144.25 308.630004883
574792.125 4177144 309.170013428
574792.375 4177143.75 308.899993896
574793.6875 4177143.75 308.920013428
574796.25 4177143.75 308.890014648
574797.6875 4177143.75 308.760009766
574797.9375 4177144.25 308.899993896
574799.125 4177144 308.5
574799.3125 4177144 308.489990234
574800.5 4177144 308.480010986
574800.75 4177144 308.5
574788.375 4177144.5 308.720001221
574790.8125 4177144.5 308.799987793
574791.0625 4177144.75 308.910003662
574793.5625 4177144.75 309.059997559
574799.125 4177144.5 308.760009766
574799.375 4177144.5 308.700012207
574800.5625 4177144.75 308.700012207
574800.75 4177144.5 308.799987793
574788.25 4177145.5 309.029998779
574788.4375 4177145 308.850006104
574790.875 4177145 309.059997559
574792.25 4177145.25 308.980010986
574792.5 4177145.25 309.049987793
574793.75 4177145 309.700012207
574796.3125 4177145 309.339996338
574799.1875 4177145.25 308.739990234
574799.4375 4177145 308.410003662
574792.5625 4177145.75 308.529998779
574796.4375 4177145.5 308.779998779
574796.5625 4177145.5 309.609985352
574797.75 4177145.75 309.459991455
574798 4177145.75 309.290008545
574799.25 4177145.75 308.799987793
574799.4375 4177145.75 308.779998779
574800.8125 4177145.75 309.619995117
574788.5 4177146.25 309.359985352
574795.3125 4177146.5 309.190002441
574796.5 4177146 308.779998779
574796.75 4177146.25 308.470001221
574799.3125 4177146.25 308.640014648
574799.5 4177146.25 308.980010986
574800.6875 4177146.5 308.679992676
574802.25 4177146.25 309.299987793
574788.3125 4177146.75 309.390014648
574788.5 4177146.75 309.440002441
574792.375 4177147 308.929992676
574792.6875 4177146.75 308.609985352
574796.5 4177146.75 309.070007324
574799.3125 4177147 309.160003662
574799.5625 4177146.75 308.730010986
574800.9375 4177146.75 308.730010986
574802.1875 4177147.25 308.730010986
574802.3125 4177146.75 308.980010986
574802.4375 4177147.25 308.690002441
574788.3125 4177147.25 309.739990234
574789.6875 4177147.25 309.329986572
574790 4177147.75 309.239990234
574791.3125 4177147.75 309.679992676
574792.4375 4177147.5 309.019989014
574792.6875 4177147.5 309.190002441
574796.5625 4177147.25 309.079986572
574796.8125 4177147.5 308.890014648
574799.5625 4177147.5 309.440002441
574800.6875 4177147.25 309.510009766
574800.8125 4177147.75 308.940002441
574801 4177147.25 308.739990234
574802.4375 4177147.75 308.660003662
574789.75 4177147.75 309.470001221
574790.0625 4177148.25 309.079986572
574791.125 4177148 309.350006104
574791.375 4177148 309.200012207
574792.75 4177148 309.220001221
574794.0625 4177148 309.260009766
574796.625 4177148 309.019989014
574796.875 4177147.75 308.649993896
574798.0625 4177148 308.589996338
574798.25 4177148 308.989990234
574801.0625 4177147.75 308.980010986
574802.1875 4177147.75 308.940002441
574802.5 4177148.25 308.779998779
574789.8125 4177148.5 309.609985352
574789.875 4177149 309.100006104
574790.0625 4177148.75 309.209991455
574791.1875 4177148.75 309.279998779
574791.375 4177148.75 309.410003662
574792.75 4177148.5 309.140014648
574796.625 4177148.5 309.260009766
574796.9375 4177148.5 308.619995117
574798.0625 4177148.5 308.779998779
574798.25 4177148.5 309.339996338
574798.3125 4177149 308.940002441
574799.5 4177148.75 308.809997559
574799.75 4177148.75 308.769989014
574800.8125 4177148.5 309.630004883
574801.0625 4177148.5 309.600006104
574801.125 4177149 309.260009766
574802.25 4177148.5 308.739990234
574802.5625 4177148.75 308.850006104
574789.9375 4177149.5 309.170013428
574790.125 4177149.25 309.320007324
574791.25 4177149.25 309.420013428
574791.5 4177149.25 309.190002441
574794.1875 4177149 309.029998779
574795.3125 4177149.25 309.489990234
574796.6875 4177149.25 309.25
574796.9375 4177149 309.269989014
574798.375 4177149.5 308.950012207
574799.75 4177149.5 309.119995117
574802.3125 4177149 308.890014648
574802.625 4177149.25 308.809997559
574791.25 4177150 309.600006104
574792.625 4177150 309.589996338
574792.875 4177149.5 309.209991455
574792.9375 4177150 309.109985352
574794.1875 4177149.75 309.450012207
574798.125 4177150 309.589996338
574788.625 4177150.25 309.619995117
574788.875 4177150.5 309.570007324
574789.9375 4177150.25 309.489990234
574792.6875 4177150.5 309.269989014
574792.9375 4177150.75 309.420013428
574794.0625 4177150.75 309.230010986
574794.3125 4177150.75 309.339996338
574795.4375 4177150.5 309.559997559
574788.9375 4177151 309.570007324
574790 4177150.75 309.730010986
574794.125 4177151.25 309.100006104
574794.375 4177151.25 309.109985352
574790.0625 4177151.5 309.649993896
574795.8125 4177151.75 309.140014648
574796.9375 4177151.5 309.450012207
574797.1875 4177151.75 309.279998779
574795.5625 4177152 309.25
574795.875 4177152.25 309.269989014
574795.625 4177152.75 309.309997559
574795.875 4177153 309.25
574797 4177152.75 309.329986572
574795.6875 4177153.25 309.369995117
574795.9375 4177153.5 309.329986572
574795.75 4177154 309.559997559
574796 4177154 309.390014648
574796.0625 4177154.5 309.209991455
574795.8125 4177155 309.480010986
574796.125 4177155 309.170013428
574794.5625 4177156 309.459991455
574794.75 4177155.5 309.529998779
574794.625 4177156.5 309.450012207
574794.875 4177156.5 309.510009766
574795.9375 4177156.25 309.640014648
574794.875 4177157.25 309.579986572
