# .PCD v.7 - Point Cloud Data file format
VERSION .7
FIELDS x y z
SIZE 4 4 4
TYPE F F F
COUNT 1 1 1
WIDTH 1380
HEIGHT 1
VIEWPOINT 0 0 0 1 0 0 0
POINTS 1380
DATA ascii
574781.125 4177263.5 311.989990234
574781.9375 4177263.25 311.829986572
574782.375 4177263.5 311.779998779
574783.1875 4177263.25 311.950012207
574783.625 4177263.5 312.130004883
574784.4375 4177263.25 312.049987793
574784.9375 4177263.5 311.940002441
574785.75 4177263.5 311.980010986
574786.1875 4177263.5 312.019989014
574787.0625 4177263.5 312.010009766
574787.5 4177263.5 311.869995117
574788.3125 4177263.25 311.989990234
574788.75 4177263.25 312.029998779
574789.625 4177263.25 311.829986572
574790.0625 4177263 312.109985352
574790.9375 4177263.5 311.75
574791.375 4177263.25 311.700012207
574792.1875 4177263 311.929992676
574792.625 4177263 311.959991455
574793.5 4177263.25 311.910003662
574793.9375 4177263 311.880004883
574794.8125 4177263.25 311.980010986
574795.3125 4177263.5 311.709991455
574796.125 4177263.25 311.890014648
574796.625 4177263.5 311.839996338
574797.4375 4177263.25 312.040008545
574797.875 4177263.25 311.859985352
574798.75 4177263.25 312.029998779
574799.1875 4177263.25 311.779998779
574800.0625 4177263.5 311.980010986
574800.5 4177263.25 312.070007324
574801.3125 4177263 312.049987793
574801.8125 4177263.25 312.109985352
574802.6875 4177263.25 312.089996338
574803.125 4177263 312.260009766
574803.1875 4177263.5 312
574804 4177263.5 312.290008545
574804.5 4177263 312.109985352
574805.375 4177263 312.220001221
574805.375 4177263.5 312.170013428
574805.8125 4177263.25 312.410003662
574806.6875 4177263 312.290008545
574807.1875 4177263 312.239990234
574808.0625 4177263.25 312.410003662
574808.625 4177263.5 312.160003662
574809.5 4177263.25 312.320007324
574809.9375 4177263.5 312.299987793
574810.875 4177263.5 312.200012207
574811.375 4177263.5 312.100006104
574812.25 4177263.5 312.170013428
574812.75 4177263.5 312.190002441
574813.625 4177263 312.109985352
574814.125 4177263.25 311.899993896
574575.9375 4177263.75 313.820007324
574576.6875 4177264 314.209991455
574577.0625 4177263.75 314.209991455
574577.875 4177264 314.25
574578.25 4177264 314.200012207
574579.0625 4177263.75 314.059997559
574579.5 4177263.75 314.179992676
574580.25 4177264 314.220001221
574580.6875 4177263.75 314.320007324
574581.5 4177263.75 314.149993896
574581.9375 4177264 313.940002441
574582.75 4177263.75 314.200012207
574583.1875 4177264 314.089996338
574584 4177263.75 313.820007324
574584.4375 4177263.75 313.959991455
574585.25 4177264 314.010009766
574585.625 4177263.75 314.119995117
574586.5 4177264 313.839996338
574586.9375 4177263.5 313.940002441
574586.9375 4177264.25 313.880004883
574587.8125 4177264.25 313.690002441
574588.25 4177264 313.649993896
574589.0625 4177263.75 313.489990234
574589.5 4177264 313.489990234
574590.3125 4177263.5 313.739990234
574590.375 4177264.25 313.579986572
574590.8125 4177263.75 313.380004883
574591.6875 4177264 313.399993896
574592.0625 4177263.75 313.529998779
574592.9375 4177263.75 313.420013428
574593.375 4177263.75 313.320007324
574594.6875 4177264 313.25
574595.5625 4177263.75 313.010009766
574596 4177264 313.109985352
574596.8125 4177263.75 313.239990234
574597.3125 4177263.75 313.040008545
574598.1875 4177263.75 313.119995117
574598.625 4177263.75 313.070007324
574599.5 4177263.75 313.029998779
574600 4177264 313.079986572
574600.8125 4177263.75 313.010009766
574601.25 4177264 313.25
574602.125 4177264 312.920013428
574602.5625 4177263.75 313.160003662
574603.4375 4177263.75 312.890014648
574603.875 4177264.25 313.130004883
574604.75 4177264 313.179992676
574605.1875 4177264 313.290008545
574606 4177264 313.269989014
574606.5 4177264 313.239990234
574607.3125 4177264 313.220001221
574607.75 4177263.75 313.040008545
574609.125 4177263.75 312.989990234
574609.9375 4177264 312.950012207
574610.375 4177263.75 313.230010986
574611.25 4177263.75 312.970001221
574611.6875 4177264.25 313.200012207
574612.5625 4177264.25 313.209991455
574613 4177264 313.200012207
574613.8125 4177263.75 313.290008545
574614.25 4177264 313.369995117
574615.125 4177263.75 313.25
574615.5625 4177263.75 313.339996338
574616.4375 4177264 313.260009766
574616.9375 4177264 313.209991455
574617.75 4177263.75 313.170013428
574618.1875 4177263.75 313.179992676
574619.0625 4177263.75 313.190002441
574619.5625 4177264.25 313.029998779
574620.3125 4177263.5 313.209991455
574620.75 4177264 313.399993896
574621.6875 4177264 313.089996338
574622.0625 4177263.5 313.279998779
574622.125 4177264.25 313.109985352
574622.875 4177263.5 313.369995117
574622.9375 4177264.25 313.190002441
574623.3125 4177263.5 313.220001221
574624.1875 4177264 313.410003662
574624.625 4177263.75 313.339996338
574625.5 4177264 313.170013428
574625.9375 4177264 313.239990234
574626.75 4177264 313.309997559
574627.1875 4177264 313.450012207
574628 4177263.75 313.239990234
574628.4375 4177263.75 313.230010986
574629.3125 4177264 312.970001221
574629.6875 4177264.25 313.339996338
574630.5 4177264 313.359985352
574630.9375 4177264 313.029998779
574631.75 4177264 313.339996338
574632.1875 4177263.75 313.170013428
574633 4177264 313.200012207
574633.4375 4177263.75 313.049987793
574634.25 4177264 313.190002441
574634.6875 4177264 313.230010986
574635.5 4177264 313.200012207
574635.9375 4177264 313.299987793
574636.6875 4177263.5 313.450012207
574636.75 4177264.25 313.190002441
574637.1875 4177263.75 313.450012207
574638 4177264 313.390014648
574638.375 4177263.75 313.420013428
574639.25 4177263.75 313.390014648
574639.6875 4177264 313.410003662
574640.5 4177263.75 313.320007324
574640.9375 4177264 313.670013428
574641.8125 4177263.75 313.350006104
574642.25 4177264 313.339996338
574643.0625 4177263.75 313.630004883
574643.5 4177263.75 313.299987793
574644.3125 4177264 313.450012207
574644.75 4177263.75 313.839996338
574645.625 4177264 313.420013428
574646 4177263.75 313.440002441
574646.875 4177264 313.450012207
574647.3125 4177263.75 313.279998779
574648.125 4177264 313.600006104
574648.5625 4177263.5 313.480010986
574649.375 4177263.75 313.640014648
574649.875 4177264 313.299987793
574650.6875 4177263.75 313.380004883
574651.125 4177263.75 313.380004883
574651.9375 4177263.75 313.380004883
574652.3125 4177263.5 313.679992676
574652.375 4177264.25 313.579986572
574653.1875 4177264 313.579986572
574653.625 4177264.25 313.700012207
574654.4375 4177264 313.529998779
574654.875 4177264 313.700012207
574655.6875 4177264 313.429992676
574656.125 4177264 313.510009766
574656.875 4177264.25 313.690002441
574657.3125 4177263.75 313.549987793
574658.125 4177264 313.410003662
574658.5 4177263.75 313.709991455
574659.3125 4177264 313.720001221
574659.6875 4177263.75 313.660003662
574660.5625 4177264 313.559997559
574661 4177264.25 313.559997559
574661.75 4177264 313.820007324
574662.1875 4177264 313.799987793
574662.9375 4177264 313.820007324
574663.375 4177264 313.480010986
574664.125 4177263.75 313.720001221
574664.5625 4177264 313.640014648
574665.3125 4177263.75 313.929992676
574665.75 4177264 313.790008545
574666.5625 4177263.75 313.739990234
574666.9375 4177264 313.839996338
574667.75 4177264 313.660003662
574668.1875 4177264 313.769989014
574668.875 4177263.5 313.829986572
574669.3125 4177263.75 313.859985352
574670.0625 4177263.75 313.910003662
574670.5 4177263.75 313.739990234
574671.25 4177263.75 313.799987793
574671.6875 4177263.75 313.869995117
574672.4375 4177264 314.149993896
574672.8125 4177263.75 313.929992676
574673.625 4177264 313.760009766
574674 4177263.5 313.929992676
574674.75 4177264 313.859985352
574740.5625 4177263.75 313.570007324
574741.375 4177263.5 313.600006104
574742.6875 4177263.75 313.350006104
574743.1875 4177264 313.489990234
574744 4177263.75 313.399993896
574744.4375 4177264 313.269989014
574745.3125 4177263.75 313.170013428
574745.75 4177263.75 313.049987793
574746.5625 4177264 313.260009766
574747 4177263.75 313.029998779
574755.4375 4177263.75 312.899993896
574755.9375 4177264.25 312.700012207
574756.75 4177263.75 312.549987793
574757.25 4177264 312.5
574758 4177263.75 312.720001221
574758.5 4177263.75 312.540008545
574759.3125 4177263.75 312.609985352
574759.75 4177264 312.600006104
574760.5625 4177263.75 312.470001221
574761 4177264 312.630004883
574761.8125 4177263.75 312.660003662
574762.25 4177264 312.649993896
574763.0625 4177263.75 312.350006104
574763.5 4177263.75 312.410003662
574764.3125 4177263.75 312.470001221
574764.75 4177264 312.5
574765.5625 4177263.75 312.480010986
574766 4177264 312.410003662
574766.875 4177264 312.170013428
574767.25 4177264 312.5
574768.125 4177264 312.130004883
574768.5 4177263.75 312.220001221
574769.3125 4177264 312.369995117
574769.75 4177263.5 312.119995117
574770.5625 4177263.75 312.410003662
574771.0625 4177264 312.140014648
574771.875 4177264 312.149993896
574772.3125 4177264 312.059997559
574773.125 4177264 312.339996338
574773.5625 4177264 312.070007324
574774.375 4177264 312.309997559
574774.8125 4177264.25 312.190002441
574775.625 4177263.75 312.290008545
574776 4177263.75 312.459991455
574776.875 4177263.75 312.269989014
574777.3125 4177264.25 312.309997559
574778.1875 4177264 311.970001221
574778.5625 4177263.75 312.140014648
574779.375 4177263.75 312.239990234
574779.4375 4177264.25 311.950012207
574779.875 4177264.25 311.970001221
574780.6875 4177263.75 311.940002441
574781.125 4177264.25 312.149993896
574782 4177263.75 311.850006104
574782.4375 4177264 311.910003662
574783.25 4177263.75 311.820007324
574783.6875 4177264 312.070007324
574784.5 4177264 311.869995117
574785 4177264 311.910003662
574785.8125 4177264 312.089996338
574786.25 4177264 311.989990234
574787.125 4177264.25 312.109985352
574787.5625 4177264 311.859985352
574788.375 4177263.75 311.899993896
574788.875 4177263.75 311.690002441
574789.6875 4177263.75 311.790008545
574790.125 4177263.75 312.200012207
574791 4177264 311.690002441
574791.4375 4177263.75 311.570007324
574792.25 4177263.75 312
574792.6875 4177263.75 311.959991455
574793.5625 4177263.75 311.760009766
574794 4177263.5 311.709991455
574794.0625 4177264.25 311.820007324
574794.875 4177263.75 311.839996338
574795.375 4177264 311.929992676
574796.1875 4177264 311.809997559
574796.625 4177264 311.799987793
574797.5 4177264 312.130004883
574797.9375 4177264 311.790008545
574798.75 4177264 311.940002441
574799.25 4177263.75 311.989990234
574800.0625 4177264 312.040008545
574800.5625 4177264 312
574801.375 4177263.75 311.959991455
574801.875 4177263.75 312.109985352
574802.75 4177263.75 312.209991455
574804.0625 4177264 312.339996338
574804.5 4177263.5 312.190002441
574805.4375 4177264.25 312.380004883
574806.75 4177263.75 312.540008545
574807.25 4177263.5 312.329986572
574807.25 4177264.25 312.190002441
574808.125 4177263.75 312.470001221
574808.625 4177264 312.269989014
574809.5 4177263.75 312.260009766
574810 4177264 312.220001221
574810.875 4177264 312.390014648
574811.4375 4177264 312.029998779
574812.3125 4177264 312.200012207
574812.75 4177264 312.190002441
574813.6875 4177263.75 312.100006104
574814.1875 4177263.75 311.790008545
574575.9375 4177264.5 313.980010986
574576.75 4177264.5 314.079986572
574577.125 4177264.25 313.899993896
574577.875 4177264.5 314.170013428
574578.3125 4177264.75 314.209991455
574579.0625 4177264.5 314.420013428
574579.5 4177264.25 314.089996338
574579.5625 4177264.75 314.029998779
574580.3125 4177264.5 314.040008545
574580.75 4177264.25 313.910003662
574581.5625 4177264.25 314.089996338
574582 4177264.75 314.179992676
574582.75 4177264.5 314.230010986
574583.25 4177264.5 313.980010986
574584.0625 4177264.5 313.859985352
574584.5 4177264.5 313.980010986
574585.3125 4177264.5 314.040008545
574585.6875 4177264.25 314.040008545
574586.5625 4177264.5 313.829986572
574587 4177264.75 313.760009766
574587.875 4177264.75 313.529998779
574588.25 4177264.75 313.790008545
574589.125 4177264.5 313.589996338
574589.5625 4177264.5 313.549987793
574590.4375 4177264.75 313.5
574590.8125 4177264.25 313.480010986
574591.6875 4177264.75 313.420013428
574592.125 4177264.25 313.290008545
574593 4177264.25 313.320007324
574593.4375 4177264.5 313.549987793
574594.25 4177264.25 313.549987793
574594.3125 4177264.75 313.540008545
574594.75 4177264.5 313.470001221
574595.5625 4177264.25 313.070007324
574596.0625 4177264.5 313.230010986
574596.875 4177264.5 313.320007324
574597.375 4177264.25 312.910003662
574598.1875 4177264.5 313.109985352
574598.625 4177264.25 313.239990234
574599.5625 4177264.5 312.950012207
574600 4177264.75 313.269989014
574600.875 4177264.5 312.950012207
574601.3125 4177264.5 313.299987793
574602.1875 4177264.5 312.890014648
574602.625 4177264.25 313.010009766
574603.5 4177264.25 312.869995117
574603.9375 4177264.75 313.070007324
574604.75 4177264.5 313.299987793
574605.1875 4177264.75 313.570007324
574606.0625 4177264.5 312.950012207
574606.5 4177264.5 313.230010986
574607.375 4177264.75 313.290008545
574607.8125 4177264.25 313.149993896
574608.625 4177264.25 313.299987793
574609.125 4177264.5 313.160003662
574610 4177264.75 312.940002441
574610.4375 4177264.25 313.290008545
574610.5 4177264.75 313.100006104
574611.3125 4177264.25 312.920013428
574611.75 4177264.75 313.369995117
574612.5625 4177264.75 313.440002441
574613 4177264.5 313.200012207
574613.8125 4177264.25 313.429992676
574614.3125 4177264.5 313.269989014
574615.1875 4177264.25 313.049987793
574615.625 4177264.25 313.179992676
574616.5 4177264.75 313.290008545
574616.9375 4177264.5 313.179992676
574617.8125 4177264.25 313.010009766
574618.25 4177264.25 313.380004883
574619.0625 4177264.25 313.089996338
574619.5625 4177264.75 313.130004883
574620.375 4177264.25 313.260009766
574620.8125 4177264.5 313.519989014
574621.6875 4177264.75 313.279998779
574622.125 4177264.75 313.160003662
574623 4177264.75 313.279998779
574623.375 4177264.25 313.25
574623.4375 4177264.75 313.279998779
574624.25 4177264.5 313.140014648
574624.6875 4177264.25 313.109985352
574625.5 4177264.5 313.339996338
574626 4177264.75 313.269989014
574626.8125 4177264.5 313.380004883
574627.25 4177264.5 313.450012207
574628.0625 4177264.5 313.220001221
574628.5 4177264.25 313.369995117
574629.3125 4177264.5 313.200012207
574629.75 4177264.75 313.049987793
574630.5625 4177264.5 313.220001221
574631 4177264.5 313.059997559
574631.75 4177264.75 313.380004883
574632.25 4177264.25 313.320007324
574633.0625 4177264.5 313.399993896
574633.5 4177264.25 313.160003662
574634.3125 4177264.5 313.260009766
574634.75 4177264.5 313.160003662
574635.5625 4177264.5 313.149993896
574636 4177264.5 313.190002441
574636.8125 4177264.75 313.239990234
574637.25 4177264.5 313.119995117
574638.0625 4177264.75 313.459991455
574638.4375 4177264.25 313.269989014
574638.5 4177264.75 313.230010986
574639.25 4177264.25 313.410003662
574639.75 4177264.75 313.529998779
574640.5625 4177264.25 313.239990234
574641 4177264.5 313.549987793
574641.8125 4177264.5 313.5
574642.25 4177264.5 313.649993896
574643.125 4177264.5 313.309997559
574643.5625 4177264.25 313.260009766
574644.375 4177264.5 313.390014648
574644.8125 4177264.25 313.390014648
574645.625 4177264.5 313.470001221
574646.0625 4177264.25 313.619995117
574646.9375 4177264.5 313.519989014
574647.3125 4177264.25 313.559997559
574648.1875 4177264.75 313.420013428
574648.625 4177264.25 313.739990234
574648.6875 4177264.75 313.579986572
574649.4375 4177264.25 313.549987793
574649.5 4177264.75 313.350006104
574649.875 4177264.5 313.570007324
574650.75 4177264.25 313.309997559
574651.125 4177264.25 313.390014648
574652 4177264.25 313.299987793
574652.4375 4177264.75 313.570007324
574653.25 4177264.5 313.510009766
574653.6875 4177264.75 313.619995117
574654.5 4177264.5 313.450012207
574654.875 4177264.5 313.619995117
574655.6875 4177264.5 313.660003662
574656.125 4177264.5 313.679992676
574656.9375 4177264.75 313.799987793
574657.375 4177264.5 313.609985352
574658.1875 4177264.75 313.619995117
574658.5625 4177264.25 313.429992676
574659.375 4177264.5 313.720001221
574659.75 4177264.25 313.779998779
574660.5625 4177264.5 313.470001221
574661 4177264.75 313.760009766
574661.75 4177264.5 313.559997559
574662.1875 4177264.5 313.700012207
574663 4177264.5 313.859985352
574663.4375 4177264.75 313.700012207
574664.1875 4177264.25 313.579986572
574664.625 4177264.75 313.779998779
574665.375 4177264.25 313.839996338
574665.875 4177264.5 313.5
574666.5625 4177264.5 313.739990234
574667 4177264.5 313.660003662
574667.8125 4177264.75 313.769989014
574668.1875 4177264.5 313.679992676
574668.9375 4177264.25 313.809997559
574669 4177264.75 313.700012207
574669.375 4177264.5 313.739990234
574670.125 4177264.25 313.779998779
574670.5625 4177264.5 313.920013428
574671.25 4177264.25 314.010009766
574671.6875 4177264.5 313.950012207
574672.4375 4177264.5 314.119995117
574672.875 4177264.25 313.880004883
574673.625 4177264.5 313.769989014
574674 4177264.25 314.109985352
574755.5 4177264.25 312.899993896
574756 4177264.75 312.670013428
574756.8125 4177264.5 312.600006104
574757.25 4177264.5 312.630004883
574758.0625 4177264.5 312.799987793
574758.5 4177264.25 312.869995117
574759.3125 4177264.25 312.730010986
574759.8125 4177264.75 312.549987793
574760.625 4177264.25 312.5
574761.0625 4177264.5 312.589996338
574761.875 4177264.25 312.450012207
574762.3125 4177264.5 312.579986572
574763.125 4177264.25 312.290008545
574763.5625 4177264.25 312.570007324
574764.375 4177264.25 312.299987793
574764.8125 4177264.75 312.600006104
574765.625 4177264.25 312.410003662
574766.0625 4177264.5 312.510009766
574766.9375 4177264.5 312.190002441
574767.3125 4177264.5 312.299987793
574768.1875 4177264.5 312.070007324
574768.5625 4177264.25 312.170013428
574769.375 4177264.5 312.470001221
574769.8125 4177264.25 312.329986572
574770.625 4177264.5 312.390014648
574771.125 4177264.75 312.179992676
574771.9375 4177264.5 312.160003662
574772.375 4177264.75 312.109985352
574773.1875 4177264.5 312.410003662
574773.625 4177264.5 312.160003662
574774.4375 4177264.75 312.160003662
574774.875 4177264.75 312.179992676
574775.6875 4177264.25 312.160003662
574776.0625 4177264.25 312.200012207
574776.125 4177264.75 311.989990234
574776.9375 4177264.5 312.070007324
574777.375 4177264.75 312.25
574778.25 4177264.75 312.059997559
574778.5625 4177264.25 312.290008545
574779.5 4177264.75 312.130004883
574779.9375 4177264.75 311.859985352
574780.6875 4177264.25 312.410003662
574781.1875 4177264.75 312.279998779
574782 4177264.5 311.929992676
574782.5 4177264.75 311.980010986
574783.25 4177264.5 312.190002441
574783.75 4177264.75 311.920013428
574784.5625 4177264.5 311.739990234
574785.0625 4177264.75 311.899993896
574785.875 4177264.75 311.970001221
574786.3125 4177264.5 312
574787.1875 4177264.75 312.040008545
574787.625 4177264.5 312.010009766
574788.4375 4177264.25 312.059997559
574788.875 4177264.25 311.709991455
574789.75 4177264.5 311.730010986
574790.1875 4177264.25 312.010009766
574790.25 4177264.75 311.660003662
574791.0625 4177264.75 311.690002441
574791.5 4177264.25 311.769989014
574792.3125 4177264.25 311.980010986
574792.75 4177264.25 312.019989014
574793.625 4177264.25 311.890014648
574794.125 4177264.75 311.829986572
574794.9375 4177264.5 311.880004883
574795.375 4177264.75 312.010009766
574796.25 4177264.5 311.850006104
574796.6875 4177264.5 311.940002441
574797.5625 4177264.5 311.959991455
574798 4177264.5 311.929992676
574798.8125 4177264.5 311.940002441
574799.3125 4177264.25 311.809997559
574800.125 4177264.5 312.029998779
574800.625 4177264.5 312.149993896
574801.4375 4177264.25 312.019989014
574801.9375 4177264.25 312.230010986
574802.75 4177264.25 312.339996338
574803.25 4177264.25 312.130004883
574803.25 4177264.75 312.160003662
574804.125 4177264.5 312.190002441
574804.5625 4177264.25 312.359985352
574804.625 4177264.75 312.279998779
574805.5 4177264.75 312.369995117
574805.875 4177264.25 312.630004883
574806.8125 4177264.25 312.510009766
574807.3125 4177264.75 312.209991455
574808.1875 4177264.25 312.399993896
574808.6875 4177264.75 312.25
574809.5625 4177264.5 312.410003662
574810 4177264.75 312.649993896
574810.9375 4177264.5 312.299987793
574811.5 4177264.5 312.119995117
574812.375 4177264.75 312.079986572
574812.875 4177264.5 312.049987793
574813.75 4177264.25 311.880004883
574814.25 4177264.25 311.880004883
574576 4177265 314.149993896
574576.75 4177265 314.350006104
574577.125 4177264.75 314.390014648
574577.9375 4177265 314.380004883
574578.375 4177265.25 314.329986572
574579.125 4177265 314.119995117
574579.625 4177265.25 314.119995117
574580.375 4177265 314.179992676
574580.8125 4177265 314.149993896
574581.5625 4177265 314.160003662
574582 4177265.25 314.179992676
574582.8125 4177265 314
574583.25 4177265 313.920013428
574584.125 4177265 313.700012207
574584.5 4177265 314.070007324
574585.375 4177265 313.940002441
574585.75 4177264.75 313.880004883
574586.5625 4177265.25 313.989990234
574587.0625 4177265.25 313.75
574587.875 4177265.25 313.720001221
574588.3125 4177265.25 313.799987793
574589.125 4177265 313.739990234
574589.625 4177265.25 313.709991455
574590.4375 4177265.25 313.730010986
574590.875 4177265 313.589996338
574591.75 4177265.25 313.630004883
574592.1875 4177264.75 313.290008545
574593 4177264.75 313.410003662
574593.0625 4177265.25 313.420013428
574593.4375 4177265 313.709991455
574594.375 4177265.25 313.230010986
574594.75 4177265 313.350006104
574595.625 4177265 312.989990234
574596.0625 4177265 313.329986572
574596.9375 4177265 312.910003662
574597.4375 4177265 313.079986572
574598.25 4177265 312.970001221
574598.6875 4177264.75 313.290008545
574599.5625 4177265 313.029998779
574600.0625 4177265.25 313.320007324
574600.875 4177265 313.200012207
574601.375 4177265 313.089996338
574602.25 4177265 313.140014648
574602.625 4177265 313.140014648
574603.5 4177264.75 312.959991455
574604 4177265.25 313.019989014
574604.8125 4177265 313.190002441
574605.25 4177265.25 313.5
574606.125 4177265.25 313.029998779
574606.5625 4177265.25 313.470001221
574607.4375 4177265.25 313.179992676
574607.875 4177264.75 313.089996338
574608.6875 4177264.75 313.410003662
574608.75 4177265.25 313.399993896
574609.1875 4177265 312.950012207
574610.0625 4177265.25 313.109985352
574610.5 4177265.25 313.109985352
574611.3125 4177264.75 313.109985352
574611.375 4177265.25 313.160003662
574611.8125 4177265.25 313.279998779
574612.6875 4177265.25 312.989990234
574613.0625 4177265 313.350006104
574613.875 4177265 313.540008545
574614.375 4177265 313.269989014
574615.1875 4177264.75 313.079986572
574615.6875 4177264.75 313.299987793
574616.5625 4177265.25 313.25
574617 4177265.25 313.369995117
574617.8125 4177264.75 313.200012207
574617.875 4177265.25 313.260009766
574618.3125 4177265 313.239990234
574619.125 4177264.75 313.220001221
574619.625 4177265.25 313.290008545
574620.4375 4177264.75 313.390014648
574620.5 4177265.25 313.369995117
574620.875 4177265.25 313.299987793
574621.75 4177265.25 313.380004883
574622.1875 4177265.25 313.140014648
574623 4177265.25 313.489990234
574623.5 4177265.25 313.279998779
574624.3125 4177265 313.070007324
574624.75 4177265 313.130004883
574625.5625 4177265 313.429992676
574626 4177265.25 313.369995117
574626.8125 4177265 313.309997559
574627.25 4177265 313.299987793
574628.125 4177265 313.140014648
574628.5 4177264.75 313.359985352
574628.5625 4177265.25 313.309997559
574629.3125 4177265 313.459991455
574629.8125 4177265.25 313.200012207
574630.625 4177265.25 313.299987793
574631.0625 4177265 313.190002441
574631.875 4177265.25 313.019989014
574632.25 4177265 313.390014648
574633.125 4177265 313.200012207
574633.5 4177264.75 313.209991455
574634.3125 4177265.25 313.329986572
574634.8125 4177265.25 313.230010986
574635.625 4177265.25 313.239990234
574636.0625 4177265 313.160003662
574636.875 4177265.25 313.220001221
574637.25 4177265 313.239990234
574638.125 4177265.25 313.420013428
574638.5625 4177265.25 313.380004883
574639.3125 4177264.75 313.399993896
574639.75 4177265.25 313.529998779
574640.5625 4177264.75 313.470001221
574641.0625 4177265 313.290008545
574641.875 4177265 313.540008545
574642.3125 4177265.25 313.839996338
574643.1875 4177265 313.320007324
574643.5625 4177265 313.489990234
574644.4375 4177265 313.440002441
574644.875 4177264.75 313.390014648
574645.6875 4177265 313.619995117
574646.125 4177264.75 313.459991455
574647 4177265 313.339996338
574647.375 4177264.75 313.320007324
574648.25 4177265.25 313.619995117
574648.75 4177265.25 313.480010986
574649.5625 4177265.25 313.410003662
574649.9375 4177265 313.5
574650.75 4177264.75 313.369995117
574650.8125 4177265.25 313.209991455
574651.1875 4177264.75 313.429992676
574652 4177264.75 313.279998779
574652.5 4177265.25 313.609985352
574653.25 4177265 313.709991455
574653.75 4177265.25 313.540008545
574654.5 4177265 313.359985352
574654.9375 4177265 313.649993896
574655.75 4177265.25 313.619995117
574656.1875 4177265 313.779998779
574657 4177265.25 313.760009766
574657.4375 4177265 313.649993896
574658.25 4177265.25 313.450012207
574658.625 4177264.75 313.529998779
574659.4375 4177265 313.709991455
574659.8125 4177265 313.760009766
574660.625 4177265 313.829986572
574661.0625 4177265.25 313.790008545
574661.8125 4177265 313.510009766
574662.25 4177265.25 313.600006104
574663 4177265.25 313.720001221
574663.4375 4177265.25 313.829986572
574664.25 4177264.75 313.660003662
574664.6875 4177265.25 313.779998779
574665.4375 4177265 313.709991455
574665.875 4177265 313.660003662
574666.625 4177265 313.820007324
574667.0625 4177265 313.859985352
574667.875 4177265.25 313.559997559
574668.25 4177265 313.769989014
574669 4177265.25 313.829986572
574669.4375 4177265 313.739990234
574670.1875 4177265 313.720001221
574670.5625 4177265 313.980010986
574671.3125 4177264.75 314.070007324
574671.75 4177265 313.959991455
574672.5 4177265 313.920013428
574672.9375 4177264.75 313.760009766
574673.6875 4177265 313.720001221
574674.0625 4177264.75 314.25
574754.75 4177264.75 312.649993896
574755.5625 4177265 312.829986572
574756.0625 4177265.25 312.720001221
574756.8125 4177265 312.720001221
574757.3125 4177265 312.670013428
574758.125 4177265 312.709991455
574758.5625 4177265 312.779998779
574759.4375 4177265 312.549987793
574759.875 4177265.25 312.540008545
574760.6875 4177264.75 312.510009766
574760.75 4177265.25 312.579986572
574761.125 4177265 312.679992676
574761.9375 4177265 312.429992676
574762.375 4177265 312.559997559
574763.1875 4177265 312.399993896
574763.625 4177265 312.700012207
574764.4375 4177264.75 312.299987793
574764.875 4177265.25 312.440002441
574765.6875 4177265 312.429992676
574766.125 4177265 312.420013428
574766.9375 4177265 312.25
574767.375 4177265 312.260009766
574768.1875 4177265 312.160003662
574768.625 4177264.75 312.279998779
574769.4375 4177265 312.399993896
574769.8125 4177264.75 312.589996338
574770.6875 4177265 312.290008545
574771.1875 4177265.25 312.140014648
574771.9375 4177265 312.290008545
574772.4375 4177265.25 312.170013428
574773.1875 4177265.25 312.410003662
574773.6875 4177265 312.179992676
574774.5 4177265.25 312.100006104
574774.9375 4177265.25 312.140014648
574775.75 4177264.75 312.149993896
574776.1875 4177265.25 311.929992676
574777 4177265 312.119995117
574777.4375 4177265.25 312.329986572
574778.25 4177265.25 311.899993896
574778.625 4177264.75 312.230010986
574778.6875 4177265.25 312.170013428
574779.5625 4177265.25 312.130004883
574780 4177265.25 312.220001221
574780.75 4177265 312.239990234
574781.25 4177265.25 312.089996338
574782.0625 4177265 311.890014648
574782.5625 4177265.25 312.079986572
574783.3125 4177265 311.899993896
574783.8125 4177265.25 311.869995117
574784.625 4177265 311.829986572
574785.125 4177265.25 311.929992676
574785.9375 4177265.25 311.790008545
574786.375 4177265 311.980010986
574787.25 4177265.25 311.869995117
574787.6875 4177265 311.769989014
574788.5 4177265 311.959991455
574788.9375 4177265 311.970001221
574789.8125 4177265 311.869995117
574790.25 4177265.25 311.859985352
574791.125 4177265.25 311.739990234
574791.5 4177265 311.799987793
574792.375 4177264.75 311.850006104
574792.4375 4177265.25 311.850006104
574792.8125 4177264.75 311.989990234
574793.6875 4177264.75 311.75
574794.1875 4177265.25 311.679992676
574795 4177265 311.679992676
574795.4375 4177265.25 311.950012207
574796.3125 4177265 311.890014648
574796.75 4177265.25 311.940002441
574797.625 4177265 311.829986572
574798.0625 4177265 312
574798.875 4177265 312.130004883
574799.3125 4177265 312.200012207
574800.1875 4177265 312.140014648
574800.625 4177265 312.160003662
574801.5 4177264.75 312.029998779
574801.9375 4177265 312.209991455
574802.8125 4177265 312.160003662
574803.3125 4177265.25 312.190002441
574804.1875 4177265 312.190002441
574804.6875 4177265.25 312.299987793
574805.5625 4177265.25 312.399993896
574806 4177264.75 312.079986572
574806.875 4177264.75 312.309997559
574807.375 4177265.25 312.410003662
574808.25 4177265 312.279998779
574808.75 4177265.25 312.320007324
574809.625 4177265 312.420013428
574810.125 4177265.25 312.309997559
574811 4177265.25 312.269989014
574811.5 4177265 311.989990234
574812.4375 4177265.25 311.989990234
574812.9375 4177265 311.929992676
574813.75 4177264.75 311.75
574813.8125 4177265.25 311.839996338
574814.25 4177265 311.799987793
574575.625 4177266 314.149993896
574576 4177265.5 314.399993896
574576.8125 4177265.5 314.130004883
574577.1875 4177265.25 314.239990234
574577.25 4177266 314.179992676
574578 4177265.5 314.359985352
574578.4375 4177265.75 314.190002441
574579.1875 4177265.5 314.010009766
574579.6875 4177265.75 314.049987793
574580.375 4177265.5 314.329986572
574580.875 4177265.5 313.970001221
574581.625 4177265.5 314.429992676
574582.0625 4177265.75 314.149993896
574582.875 4177265.5 314.040008545
574583.3125 4177265.75 314.010009766
574584.125 4177265.5 313.890014648
574584.5625 4177265.5 314.130004883
574585.375 4177265.75 314.019989014
574585.8125 4177265.5 313.739990234
574586.6875 4177265.75 313.649993896
574587.125 4177265.75 313.809997559
574587.9375 4177265.75 313.609985352
574588.375 4177265.75 313.799987793
574589.1875 4177265.5 313.670013428
574589.6875 4177265.75 313.679992676
574590.5 4177265.75 313.440002441
574590.9375 4177265.5 313.529998779
574591.75 4177265.75 313.619995117
574592.25 4177265.5 313.429992676
574592.3125 4177266 313.290008545
574593.125 4177266 313.299987793
574593.5 4177265.5 313.709991455
574594.375 4177265.75 313.320007324
574594.8125 4177265.75 313.25
574595.6875 4177265.5 313.100006104
574596.125 4177265.75 313.209991455
574597 4177265.5 313.059997559
574597.4375 4177265.5 313.190002441
574598.3125 4177265.5 313.190002441
574598.75 4177265.5 313.149993896
574599.625 4177265.5 313.140014648
574600.0625 4177265.75 313.350006104
574600.9375 4177265.5 313.190002441
574601.375 4177265.75 313.279998779
574602.25 4177265.75 313.040008545
574602.6875 4177265.5 313.220001221
574603.5625 4177265.5 313.339996338
574604 4177266 313.450012207
574604.875 4177265.75 313.269989014
574605.3125 4177265.75 313.420013428
574606.1875 4177265.75 313.160003662
574606.625 4177265.75 313.329986572
574607.5 4177265.75 313.279998779
574607.9375 4177265.5 313.049987793
574608.75 4177266 313.299987793
574609.25 4177265.5 313.149993896
574610.0625 4177265.75 313.380004883
574610.5625 4177266 313.369995117
574611.375 4177266 313.309997559
574611.8125 4177265.75 313.260009766
574612.6875 4177265.75 313.170013428
574613.125 4177265.5 313.420013428
574613.9375 4177265.5 313.350006104
574614.4375 4177265.5 313.059997559
574615.25 4177265.5 313.209991455
574615.6875 4177265.5 313.390014648
574616.5625 4177265.75 313.279998779
574618.3125 4177265.5 313.320007324
574619.1875 4177265.25 313.059997559
574620.9375 4177265.75 313.269989014
574621.75 4177265.75 313.380004883
574622.25 4177265.75 313.160003662
574623.0625 4177266 313.410003662
574623.5 4177266 313.200012207
574624.3125 4177265.75 313.399993896
574624.75 4177265.5 313.470001221
574625.625 4177265.5 313.359985352
574626.0625 4177265.75 313.489990234
574626.875 4177265.5 313.339996338
574627.3125 4177265.5 313.359985352
574628.125 4177265.5 313.260009766
574628.625 4177266 313.390014648
574629.375 4177265.75 313.420013428
574629.875 4177265.75 313.230010986
574630.625 4177265.75 313.489990234
574631.0625 4177265.75 313.100006104
574631.875 4177265.75 313.140014648
574632.3125 4177265.5 313.269989014
574633.125 4177265.75 313.059997559
574633.5 4177265.5 313.529998779
574633.5625 4177266 313.5
574634.375 4177265.75 313.290008545
574634.875 4177265.75 313.170013428
574635.625 4177265.75 313.480010986
574636.125 4177265.75 313.279998779
574636.875 4177265.75 313.279998779
574637.3125 4177265.5 313.369995117
574638.125 4177265.75 313.339996338
574638.5625 4177266 313.549987793
574639.375 4177265.25 313.450012207
574639.375 4177266 313.420013428
574639.8125 4177265.75 313.609985352
574640.625 4177265.5 313.450012207
574641.0625 4177265.75 313.429992676
574641.9375 4177265.5 313.299987793
574642.375 4177265.75 313.429992676
574643.25 4177265.5 313.119995117
574643.625 4177265.5 313.290008545
574644.4375 4177265.5 313.529998779
574644.9375 4177265.5 313.220001221
574645.75 4177265.5 313.369995117
574646.1875 4177265.5 313.410003662
574647 4177265.75 313.359985352
574647.4375 4177265.5 313.429992676
574647.5 4177266 313.269989014
574648.3125 4177265.75 313.559997559
574648.75 4177265.75 313.480010986
574649.5625 4177266 313.640014648
574650 4177265.5 313.350006104
574650.875 4177266 313.380004883
574651.25 4177265.5 313.390014648
574651.3125 4177266 313.279998779
574652.0625 4177265.5 313.359985352
574652.5625 4177265.75 313.359985352
574653.3125 4177265.5 313.600006104
574653.8125 4177265.75 313.410003662
574654.5625 4177265.5 313.450012207
574655 4177265.75 313.660003662
574655.8125 4177265.75 313.709991455
574656.25 4177265.75 313.600006104
574657.0625 4177265.75 313.670013428
574657.4375 4177265.5 313.630004883
574658.25 4177265.75 313.649993896
574658.6875 4177265.5 313.579986572
574659.5 4177265.5 313.359985352
574659.875 4177265.5 313.630004883
574660.625 4177265.75 313.920013428
574661.125 4177265.75 313.679992676
574661.875 4177265.5 313.489990234
574662.3125 4177265.75 313.829986572
574663.0625 4177265.75 313.760009766
574663.5 4177265.75 313.640014648
574664.25 4177265.5 313.679992676
574664.75 4177265.75 313.690002441
574665.5 4177265.5 313.769989014
574665.9375 4177265.75 313.839996338
574666.6875 4177265.5 313.589996338
574667.0625 4177265.5 313.910003662
574667.875 4177265.75 313.649993896
574668.3125 4177265.5 313.820007324
574669.0625 4177266 313.739990234
574669.5 4177265.5 313.649993896
574670.25 4177265.5 313.920013428
574670.625 4177265.5 314.019989014
574671.375 4177265.25 313.929992676
574671.4375 4177266 313.989990234
574671.8125 4177265.5 313.739990234
574672.5625 4177265.75 313.940002441
574672.9375 4177265.5 313.899993896
574673.6875 4177265.75 314.260009766
574674.0625 4177265.25 314.290008545
574754.375 4177266 312.779998779
574754.75 4177265.5 312.940002441
574754.8125 4177266 312.799987793
574755.625 4177265.5 312.579986572
574756.0625 4177265.75 312.970001221
574756.875 4177265.5 312.739990234
574757.375 4177265.75 312.630004883
574758.1875 4177265.5 312.859985352
574758.625 4177265.5 312.5
574759.4375 4177265.5 312.790008545
574759.9375 4177265.75 312.630004883
574760.75 4177266 312.739990234
574761.1875 4177265.75 312.720001221
574762 4177265.5 312.470001221
574762.4375 4177265.75 312.570007324
574763.25 4177265.5 312.670013428
574763.6875 4177265.5 312.339996338
574764.5 4177265.5 312.429992676
574765 4177265.75 312.209991455
574765.75 4177265.5 312.5
574766.1875 4177265.5 312.559997559
574767 4177265.75 312.459991455
574767.4375 4177265.5 312.059997559
574768.25 4177265.5 312.220001221
574768.6875 4177265.25 312.100006104
574768.75 4177266 312.149993896
574769.5 4177265.5 312.339996338
574769.875 4177265.5 312.760009766
574770 4177266 312.260009766
574770.75 4177265.5 312.209991455
574771.1875 4177265.75 312.459991455
574772 4177265.75 312.239990234
574772.5 4177265.75 312.25
574773.25 4177265.75 312.390014648
574773.75 4177265.75 312.040008545
574774.5625 4177265.75 312.119995117
574775 4177265.75 312.149993896
574775.75 4177265.5 312.109985352
574776.25 4177266 312.190002441
574777.0625 4177265.5 312
574777.5 4177265.75 312.239990234
574778.3125 4177265.75 311.989990234
574778.75 4177266 312.309997559
574779.625 4177266 312.040008545
574780.0625 4177265.75 312.119995117
574780.8125 4177265.5 311.959991455
574781.3125 4177265.75 311.820007324
574782.125 4177265.5 312.130004883
574782.625 4177265.75 311.890014648
574783.375 4177265.5 311.920013428
574783.875 4177265.75 311.820007324
574784.6875 4177265.5 311.850006104
574785.1875 4177265.75 311.820007324
574786 4177265.75 311.799987793
574786.4375 4177265.75 312.010009766
574787.25 4177265.75 312.130004883
574787.75 4177265.5 311.559997559
574788.5625 4177265.5 311.880004883
574789 4177265.5 311.950012207
574789.875 4177265.5 311.850006104
574790.3125 4177266 311.769989014
574791.1875 4177265.75 311.890014648
574791.5625 4177265.5 311.739990234
574792.4375 4177266 312.079986572
574792.875 4177265.5 311.980010986
574792.9375 4177266 311.730010986
574793.6875 4177265.5 311.890014648
574794.25 4177265.75 311.75
574795 4177265.5 311.910003662
574795.5 4177265.75 312.010009766
574796.3125 4177265.5 311.920013428
574796.8125 4177265.75 312.059997559
574797.625 4177265.5 311.959991455
574798.125 4177265.5 311.820007324
574798.9375 4177265.5 312.070007324
574799.375 4177265.5 312.160003662
574800.25 4177265.75 312.029998779
574800.6875 4177265.5 312.239990234
574801.5625 4177265.5 312.119995117
574802 4177265.5 312.160003662
574802.875 4177265.5 312.369995117
574803.375 4177266 312.299987793
574804.25 4177265.75 312.350006104
574804.75 4177265.75 312.239990234
574805.5625 4177266 312.559997559
574806 4177265.5 312.640014648
574806.875 4177265.25 312.369995117
574807.4375 4177265.75 312.299987793
574808.3125 4177265.5 312.25
574808.8125 4177265.75 312.260009766
574809.6875 4177265.5 312.540008545
574810.1875 4177265.75 312.079986572
574811.0625 4177265.75 312.429992676
574811.5625 4177265.75 312.200012207
574812.4375 4177265.75 312.179992676
574812.9375 4177265.75 312
574813.875 4177266 311.720001221
574814.3125 4177265.5 311.709991455
574575.6875 4177266.5 314.220001221
574576.0625 4177266.25 314.279998779
574576.875 4177266.25 314.049987793
574577.3125 4177266.5 314.130004883
574578.0625 4177266.25 314.140014648
574578.4375 4177266.25 314.290008545
574579.25 4177266 314.100006104
574579.6875 4177266.5 314.190002441
574580.4375 4177266.25 314.079986572
574580.875 4177266 314.140014648
574581.6875 4177266 314.269989014
574582.125 4177266.25 314.299987793
574582.9375 4177266 313.920013428
574583.375 4177266.25 313.880004883
574584.1875 4177266.25 314.179992676
574584.625 4177266.25 314.049987793
574585.4375 4177266.25 314.049987793
574585.875 4177266 313.779998779
574586.6875 4177266.25 313.739990234
574587.125 4177266.5 313.929992676
574588 4177266.5 313.739990234
574588.4375 4177266.25 313.920013428
574589.25 4177266 313.519989014
574589.6875 4177266.25 313.679992676
574590.5625 4177266.5 313.429992676
574591 4177266 313.640014648
574591.8125 4177266.25 313.649993896
574593.125 4177266.5 313.399993896
574593.5625 4177266 313.260009766
574594.4375 4177266.5 313.260009766
574594.875 4177266.25 313.059997559
574595.75 4177266 313.130004883
574596.1875 4177266.25 313.179992676
574597 4177266 313.200012207
574597.5 4177266 313.239990234
574598.3125 4177266 313.290008545
574598.8125 4177266 313.140014648
574598.875 4177266.5 313.119995117
574599.6875 4177266 313.029998779
574600.1875 4177266.25 313.010009766
574601 4177266.25 313.299987793
574601.5 4177266.25 313.070007324
574602.3125 4177266.25 313.369995117
574602.75 4177266 313.309997559
574603.5625 4177266 313.429992676
574604.0625 4177266.5 313.339996338
574604.9375 4177266.25 313.179992676
574605.375 4177266.25 313.059997559
574606.25 4177266.25 313.089996338
574606.6875 4177266.25 313.329986572
574607.5 4177266.5 313.410003662
574607.9375 4177266 313.100006104
574608.8125 4177266.5 313.390014648
574609.25 4177266 313.269989014
574610.125 4177266.5 313.459991455
574610.625 4177266.5 313.329986572
574611.4375 4177266.5 313.209991455
574611.875 4177266.5 313.369995117
574621.8125 4177266.5 313.320007324
574622.25 4177266.5 313.429992676
574623.125 4177266.5 313.200012207
574623.5625 4177266.5 313.089996338
574624.375 4177266.25 313.390014648
574624.8125 4177266 313.5
574625.6875 4177266.25 313.320007324
574626.125 4177266.25 313.320007324
574626.9375 4177266.25 313.160003662
574627.375 4177266.25 313.5
574628.1875 4177266 313.190002441
574628.625 4177266.5 313.399993896
574629.5 4177266.25 313.019989014
574629.875 4177266.5 313.260009766
574630.6875 4177266.25 313.589996338
574631.125 4177266.25 313.320007324
574631.9375 4177266.25 313.239990234
574632.375 4177266 313.309997559
574633.1875 4177266.25 313.290008545
574633.625 4177266.5 313.489990234
574634.4375 4177266.25 313.269989014
574634.875 4177266.25 313.260009766
574635.6875 4177266.25 313.589996338
574636.125 4177266.25 313.339996338
574636.9375 4177266.5 313.320007324
574637.375 4177266.25 313.470001221
574638.1875 4177266.25 313.109985352
574638.625 4177266.5 313.540008545
574639.4375 4177266.5 313.410003662
574639.875 4177266.5 313.459991455
574640.6875 4177266 313.529998779
574641.125 4177266.25 313.5
574642 4177266 313.410003662
574642.4375 4177266.25 313.260009766
574643.25 4177266 313.290008545
574643.6875 4177266 313.339996338
574644.5 4177266.25 313.600006104
574644.9375 4177266 313.329986572
574645.8125 4177266.25 313.359985352
574646.25 4177266 313.359985352
574647.0625 4177266.25 313.540008545
574647.5625 4177266.5 313.25
574648.3125 4177266.25 313.510009766
574648.8125 4177266.5 313.470001221
574649.625 4177266.5 313.619995117
574650.0625 4177266.25 313.459991455
574650.875 4177266.5 313.440002441
574652.125 4177266 313.390014648
574652.5625 4177266.5 313.390014648
574653.375 4177266.25 313.660003662
574653.8125 4177266.5 313.589996338
574654.625 4177266.25 313.359985352
574655.0625 4177266.25 313.630004883
574655.875 4177266.25 313.579986572
574656.3125 4177266.25 313.359985352
574657.125 4177266.5 313.450012207
574657.5 4177266 313.600006104
574658.3125 4177266.25 313.480010986
574658.75 4177266 313.450012207
574659.5 4177266.25 313.489990234
574659.875 4177266 313.690002441
574660.6875 4177266.25 313.679992676
574661.1875 4177266.5 313.649993896
574661.9375 4177266.25 313.589996338
574662.375 4177266.25 313.730010986
574663.125 4177266.25 313.829986572
574663.5625 4177266.5 313.570007324
574664.3125 4177266 313.779998779
574664.75 4177266.25 313.649993896
574665.5 4177266 313.609985352
574666 4177266.25 313.769989014
574666.75 4177266 313.459991455
574667.125 4177266.25 313.940002441
574667.9375 4177266.25 313.589996338
574668.375 4177266.25 313.649993896
574669.125 4177266.5 313.660003662
574669.5 4177266 313.660003662
574670.25 4177266 313.850006104
574670.6875 4177266 313.929992676
574671.4375 4177266.5 314.070007324
574671.875 4177266 313.809997559
574672.625 4177266.25 314.059997559
574673 4177266 313.820007324
574754.4375 4177266.5 312.880004883
574754.875 4177266.5 312.850006104
574755.6875 4177266 312.730010986
574756.125 4177266.5 312.700012207
574756.9375 4177266.25 312.769989014
574757.4375 4177266.25 312.540008545
574758.25 4177266.25 312.709991455
574758.6875 4177266 312.660003662
574759.5 4177266 312.649993896
574760 4177266.25 312.440002441
574760.8125 4177266.5 312.690002441
574761.25 4177266.25 312.690002441
574762.0625 4177266 312.589996338
574762.5 4177266.25 312.540008545
574763.3125 4177266 312.660003662
574763.75 4177266 312.529998779
574764.5 4177266 312.519989014
574765 4177266.25 312.579986572
574765.75 4177266 312.589996338
574766.25 4177266.25 312.470001221
574767.0625 4177266.25 312.179992676
574767.5 4177266 312.029998779
574768.3125 4177266.25 312.380004883
574768.75 4177266.5 312.309997559
574769.5625 4177266.25 312.230010986
574770.0625 4177266.5 312.160003662
574770.8125 4177266 312.329986572
574771.25 4177266.5 312.600006104
574772.0625 4177266.25 312.359985352
574772.5625 4177266.25 312.170013428
574773.3125 4177266.25 312.450012207
574773.8125 4177266.25 312.170013428
574774.625 4177266.25 312.100006104
574775.0625 4177266.5 312.299987793
574775.8125 4177266 312.140014648
574776.3125 4177266.5 312.269989014
574777.0625 4177266 312.089996338
574777.5625 4177266.5 312.209991455
574778.375 4177266.5 312.429992676
574778.8125 4177266.5 312.019989014
574779.6875 4177266.5 311.980010986
574780.0625 4177266.5 312.209991455
574780.875 4177266 312.220001221
574781.375 4177266.25 311.920013428
574782.1875 4177266.25 312.070007324
574782.6875 4177266.25 311.790008545
574783.4375 4177266 311.859985352
574783.9375 4177266.25 311.859985352
574784.75 4177266.25 311.899993896
574785.25 4177266.25 311.880004883
574786.0625 4177266.25 311.839996338
574786.5 4177266.25 312.079986572
574787.3125 4177266.5 312.119995117
574787.75 4177266.25 311.989990234
574788.625 4177266 311.720001221
574789.0625 4177266 311.809997559
574789.875 4177266.25 311.980010986
574790.375 4177266.5 311.890014648
574791.1875 4177266.5 312.059997559
574791.625 4177266 311.649993896
574792.5 4177266.5 312.059997559
574793 4177266.5 311.859985352
574793.75 4177266 312.089996338
574794.25 4177266.5 311.850006104
574795.0625 4177266.25 312.160003662
574795.5625 4177266.25 311.989990234
574796.375 4177266.25 312.359985352
574796.8125 4177266.25 312.260009766
574797.6875 4177266.25 311.980010986
574798.125 4177266.25 312.049987793
574799 4177266.25 312.100006104
574799.4375 4177266 312.170013428
574800.3125 4177266.25 312.059997559
574800.75 4177266.25 312.339996338
574801.5625 4177266 312.070007324
574801.625 4177266.5 312.220001221
574802.0625 4177266 312.179992676
574802.9375 4177266 312.390014648
574803.4375 4177266.5 312.040008545
574804.25 4177266.25 312.359985352
574804.75 4177266.5 312.25
574805.625 4177266.5 312.549987793
574806.0625 4177266 312.480010986
574806.9375 4177266 312.459991455
574807 4177266.5 312.549987793
574807.5 4177266.5 312.489990234
574808.3125 4177266 312.470001221
574808.8125 4177266.25 312.410003662
574809.6875 4177266.25 312.519989014
574810.25 4177266.25 312.279998779
574811.125 4177266.25 312.190002441
574811.625 4177266.25 312.309997559
574812.5 4177266.5 312.230010986
574813 4177266.25 311.940002441
574813.9375 4177266.5 311.809997559
574814.375 4177266 311.660003662
574575.75 4177267 314.179992676
574576.125 4177266.75 314.109985352
574576.875 4177266.75 314.200012207
574577.3125 4177267 314.190002441
574578.125 4177266.75 313.950012207
574578.5 4177267 314.269989014
574579.25 4177266.5 314.109985352
574579.75 4177267 313.940002441
574580.5 4177266.75 314.029998779
574580.9375 4177266.75 314.269989014
574581.75 4177266.75 314.239990234
574582.1875 4177267 314.029998779
574582.9375 4177266.75 313.970001221
574583.4375 4177266.75 313.959991455
574584.25 4177266.75 313.970001221
574584.625 4177266.75 314.079986572
574585.5 4177266.75 313.779998779
574585.875 4177266.5 313.910003662
574586.75 4177266.75 313.760009766
574587.1875 4177267 313.799987793
574588 4177267 313.700012207
574588.5 4177267 313.700012207
574589.3125 4177266.75 313.420013428
574589.75 4177266.75 313.709991455
574590.625 4177267 313.410003662
574591 4177266.5 313.529998779
574591.875 4177267 313.579986572
574592.3125 4177266.5 313.489990234
574592.375 4177267 313.429992676
574593.1875 4177267 313.429992676
574593.625 4177266.75 313.149993896
574594.5 4177267 313.260009766
574594.9375 4177266.75 313.100006104
574595.75 4177266.5 313.149993896
574596.25 4177266.75 313.329986572
574597.0625 4177266.75 313.339996338
574597.5625 4177266.75 313.269989014
574598.375 4177266.75 313.329986572
574598.875 4177267 313.130004883
574599.6875 4177266.75 313.260009766
574600.1875 4177267 313.299987793
574601.0625 4177266.75 313.070007324
574601.5 4177266.75 313.109985352
574602.375 4177266.75 313.079986572
