# .PCD v.7 - Point Cloud Data file format
VERSION .7
FIELDS x y z
SIZE 4 4 4
TYPE F F F
COUNT 1 1 1
WIDTH 210
HEIGHT 1
VIEWPOINT 0 0 0 1 0 0 0
POINTS 210
DATA ascii
574695 4177249.25 325.079986572
574695.0625 4177250 325.570007324
574695.5 4177249.75 325.209991455
574694.1875 4177250.5 326.029998779
574695.0625 4177250.5 325.660003662
574695.5 4177250.5 325.690002441
574696.375 4177250.5 325.470001221
574693.8125 4177251 326.119995117
574694.25 4177251.25 325.940002441
574695.125 4177251.25 326.160003662
574695.5 4177251 325.760009766
574696.375 4177251.25 325.850006104
574696.8125 4177251 325.600006104
574697.75 4177251.25 325.290008545
574693.875 4177251.75 326.200012207
574694.3125 4177251.75 325.980010986
574695.125 4177251.75 326.279998779
574695.5625 4177251.75 326.160003662
574696.4375 4177251.75 325.910003662
574696.875 4177251.5 325.790008545
574697.75 4177251.75 325.450012207
574698.1875 4177251.5 325.220001221
574692.75 4177252.5 325.269989014
574693.0625 4177252.25 326.269989014
574693.9375 4177252.25 326.019989014
574694.375 4177252.25 325.920013428
574695.1875 4177252.25 326.309997559
574695.625 4177252.25 326.220001221
574696.5 4177252.25 325.970001221
574696.9375 4177252.25 325.859985352
574697.8125 4177252.25 325.559997559
574698.25 4177252.25 325.769989014
574699.125 4177252.25 325.350006104
574692.75 4177253 325.420013428
574693.125 4177252.75 325.989990234
574694 4177252.75 325.839996338
574694.4375 4177252.75 325.850006104
574695.25 4177252.75 326.200012207
574695.625 4177252.75 326.359985352
574696.5 4177252.75 326.040008545
574696.9375 4177252.75 325.940002441
574697.8125 4177253 325.790008545
574698.25 4177252.75 326.010009766
574699.125 4177253 325.799987793
574699.5625 4177252.5 325.239990234
574700.5 4177252.75 324.619995117
574692.875 4177253.5 324.630004883
574693.1875 4177253.25 325.690002441
574694.0625 4177253.25 325.859985352
574694.4375 4177253.25 325.779998779
574695.3125 4177253.5 326.070007324
574695.6875 4177253.25 326.309997559
574696.5625 4177253.5 326.119995117
574697 4177253.25 326.019989014
574697.875 4177253.5 325.970001221
574698.25 4177253.5 326.290008545
574699.1875 4177253.5 325.809997559
574699.625 4177253 325.559997559
574700.5 4177253.5 325.450012207
574701 4177253.5 325.230010986
574693.25 4177253.75 325.230010986
574694.125 4177253.75 325.329986572
574694.5625 4177253.75 325.380004883
574695.375 4177254 325.779998779
574695.75 4177253.75 326.010009766
574696.625 4177254 326.059997559
574697.0625 4177254 326.220001221
574697.9375 4177254 326.079986572
574698.3125 4177254 326.309997559
574699.25 4177254 326.029998779
574699.625 4177253.75 325.959991455
574700.5625 4177254 325.549987793
574701 4177254 325.660003662
574701.9375 4177254 325.380004883
574694.1875 4177254.25 324.880004883
574694.625 4177254.5 325.309997559
574695.4375 4177254.5 325.489990234
574695.8125 4177254.5 325.679992676
574696.6875 4177254.5 326.079986572
574697.0625 4177254.5 326.119995117
574697.9375 4177254.5 326.25
574698.375 4177254.5 326.179992676
574699.25 4177254.75 326.160003662
574699.6875 4177254.25 326.109985352
574700.5625 4177254.5 325.899993896
574701.0625 4177254.75 325.920013428
574701.9375 4177254.75 325.799987793
574702.375 4177254.25 325.119995117
574703.375 4177254.75 324.5
574695.5 4177255 325.410003662
574695.9375 4177255 325.309997559
574696.75 4177255 325.700012207
574697.1875 4177255 325.730010986
574698 4177255.25 326.140014648
574698.4375 4177255 325.880004883
574699.3125 4177255.25 325.950012207
574699.6875 4177254.75 326.230010986
574700.625 4177255.25 326.100006104
574701.0625 4177255.25 326.130004883
574702 4177255.25 326.029998779
574702.4375 4177254.75 325.450012207
574703.375 4177255.25 325.470001221
574696 4177255.5 325.089996338
574696.8125 4177255.5 325.260009766
574697.25 4177255.5 325.760009766
574698.0625 4177255.75 325.660003662
574698.5 4177255.5 325.730010986
574699.375 4177255.75 325.769989014
574699.75 4177255.5 326.029998779
574700.6875 4177255.75 326.190002441
574701.125 4177255.75 326.25
574702 4177255.75 326.190002441
574702.4375 4177255.5 325.910003662
574703.375 4177256 325.760009766
574703.8125 4177255.25 325.279998779
574696.875 4177256 324.739990234
574697.25 4177256 325.799987793
574698.125 4177256.25 325.670013428
574698.5625 4177256 325.559997559
574699.4375 4177256.25 326.160003662
574699.8125 4177256 326
574699.875 4177256.5 325.850006104
574700.75 4177256.25 325.850006104
574701.1875 4177256.5 326.279998779
574702.0625 4177256.5 326.140014648
574702.5 4177256 325.910003662
574703.4375 4177256.5 325.890014648
574703.8125 4177256 325.75
574704.75 4177256 325.230010986
574705.25 4177256.5 325.320007324
574697.375 4177256.5 325.230010986
574698.1875 4177256.75 325.399993896
574698.625 4177256.75 325.279998779
574699.5 4177256.75 325.489990234
574699.9375 4177257 325.829986572
574700.8125 4177256.75 325.820007324
574701.25 4177257 326.149993896
574702.125 4177257 326.160003662
574702.5625 4177256.5 326.010009766
574703.4375 4177257 326.170013428
574703.875 4177256.5 325.989990234
574704.8125 4177256.75 325.600006104
574705.3125 4177257 325.470001221
574706.1875 4177256.5 325.079986572
574706.625 4177257 325.070007324
574698.6875 4177257.25 325.089996338
574699.5625 4177257.5 325.359985352
574700 4177257.5 325.660003662
574700.8125 4177257.5 325.890014648
574701.25 4177257.5 326.209991455
574702.125 4177257.5 326.149993896
574702.5625 4177257.25 326.230010986
574703.5 4177257.75 326.149993896
574703.9375 4177257.25 325.920013428
574704 4177257.75 325.910003662
574704.8125 4177257.25 326.269989014
574705.3125 4177257.75 325.670013428
574706.1875 4177257.25 325.510009766
574706.6875 4177257.5 325.519989014
574699.625 4177258 325.070007324
574700.0625 4177258 325.200012207
574700.875 4177258 325.769989014
574701.375 4177258 325.920013428
574702.25 4177258 325.850006104
574702.625 4177257.75 326.070007324
574702.6875 4177258.25 326.010009766
574703.5625 4177258.25 326.190002441
574704 4177258.25 325.829986572
574704.8125 4177258 326.510009766
574706.25 4177257.75 325.730010986
574706.6875 4177258.25 325.769989014
574707.5625 4177257.75 325.399993896
574700.9375 4177258.5 325.529998779
574701.4375 4177258.5 325.75
574702.25 4177258.5 325.799987793
574702.75 4177258.75 325.519989014
574703.625 4177258.75 325.950012207
574704.0625 4177258.75 326.049987793
574704.875 4177258.5 326.429992676
574705.3125 4177258.25 326.170013428
574705.375 4177258.75 326.130004883
574706.25 4177258.5 325.959991455
574706.75 4177258.75 325.980010986
574707.625 4177258.5 325.589996338
574701.5 4177259 325.290008545
574702.375 4177259 325.339996338
574702.8125 4177259.25 325.619995117
574703.6875 4177259.25 325.700012207
574704.125 4177259.25 325.660003662
574704.9375 4177259 326.089996338
574705.4375 4177259.5 326.109985352
574706.3125 4177259 325.839996338
574706.75 4177259.25 326.070007324
574702.4375 4177259.75 325.179992676
574702.875 4177260 325.350006104
574703.75 4177259.75 325.510009766
574704.1875 4177260 325.630004883
574705 4177259.5 325.940002441
574705.0625 4177260 326.040008545
574705.5 4177260 325.959991455
574706.3125 4177259.5 326.190002441
574703.8125 4177260.25 325.309997559
574704.25 4177260.5 325.510009766
574705.125 4177260.5 325.859985352
574705.5625 4177260.5 326.079986572
574706.375 4177260 325.980010986
574704.3125 4177261 325.230010986
574705.1875 4177261.25 325.709991455
574705.625 4177261 325.649993896
574705.25 4177261.75 325.179992676
