# .PCD v.7 - Point Cloud Data file format
VERSION .7
FIELDS x y z
SIZE 4 4 4
TYPE F F F
COUNT 1 1 1
WIDTH 61
HEIGHT 1
VIEWPOINT 0 0 0 1 0 0 0
POINTS 61
DATA ascii
574722.5 4177233.25 320
574720.0625 4177234.25 320.160003662
574720.375 4177233.75 320.160003662
574721.3125 4177234.25 319.619995117
574721.6875 4177233.75 319.660003662
574722.5625 4177233.75 319.670013428
574722.9375 4177233.75 319.760009766
574721.4375 4177234.75 319.320007324
574721.6875 4177234.25 319.940002441
574721.75 4177234.75 319.380004883
574722.625 4177234.5 319.660003662
574723 4177234.25 319.790008545
574723.875 4177234.5 319.570007324
574719.25 4177235 320.529998779
574720.1875 4177235.25 319.420013428
574721.8125 4177235.25 319.75
574722.6875 4177235 319.720001221
574723 4177235 319.839996338
574723.9375 4177235 319.700012207
574724.3125 4177234.75 319.390014648
574720.25 4177235.75 319.470001221
574720.625 4177235.5 319.320007324
574720.6875 4177236 319.089996338
574721.875 4177236 319.859985352
574723.125 4177235.5 319.609985352
574724 4177235.75 319.700012207
574724.375 4177235.5 319.559997559
574721.5625 4177236.5 319.5
574721.9375 4177236.5 319.549987793
574722.75 4177236 319.609985352
574723.1875 4177236 319.440002441
574723.1875 4177236.5 319.570007324
574719.0625 4177237 320.059997559
574719.5 4177236.5 318.859985352
574720.75 4177237.25 319.839996338
574722 4177237 319.630004883
574723.25 4177237 319.579986572
574719.125 4177237.5 319.730010986
574719.4375 4177237.25 320.130004883
574720.375 4177237.5 319.910003662
574721.5625 4177237.25 320.549987793
574722 4177237.5 319.760009766
574722.875 4177237.25 319.619995117
574719.1875 4177238 319.489990234
574719.5625 4177237.75 319.609985352
574720.4375 4177238 319.700012207
574720.75 4177237.75 320.119995117
574720.875 4177238.25 319.470001221
574721.6875 4177238.25 319.630004883
574722.125 4177238 319.390014648
574719.25 4177238.5 319.720001221
574719.625 4177238.25 319.619995117
574719.6875 4177239 319.529998779
574720.5 4177238.75 319.559997559
574720.875 4177238.75 319.709991455
574721.75 4177238.75 319.660003662
574722.125 4177238.75 319.480010986
574720.5625 4177239.25 319.760009766
574720.9375 4177239.5 319.760009766
574721.8125 4177239.25 319.850006104
574721 4177240 319.399993896
