# .PCD v.7 - Point Cloud Data file format
VERSION .7
FIELDS x y z
SIZE 4 4 4
TYPE F F F
COUNT 1 1 1
WIDTH 688
HEIGHT 1
VIEWPOINT 0 0 0 1 0 0 0
POINTS 688
DATA ascii
574599.8125 4177118.25 310.799987793
574600.9375 4177118 310.869995117
574601.125 4177118 310.799987793
574602.125 4177118.25 310.630004883
574602.25 4177118.25 310.920013428
574602.25 4177118 310.880004883
574602.25 4177118 310.850006104
574602.4375 4177118 310.619995117
574602.4375 4177118.25 310.459991455
574603.5 4177118 310.809997559
574603.5625 4177118.25 310.779998779
574603.625 4177118 310.720001221
574603.75 4177118.25 310.700012207
574604.8125 4177118 310.760009766
574605 4177118 310.559997559
574605.0625 4177118.25 310.859985352
574605.1875 4177118.25 310.850006104
574605.1875 4177117.75 310.809997559
574606.125 4177118 310.600006104
574606.3125 4177118.25 310.709991455
574606.5625 4177118.25 310.790008545
574606.5625 4177118 310.660003662
574606.625 4177118 310.75
574607.625 4177118 310.779998779
574607.9375 4177118.25 310.829986572
574608 4177118 310.679992676
574608 4177117.75 310.489990234
574608 4177118.25 310.709991455
574608.0625 4177118 310.709991455
574608.75 4177118 310.579986572
574608.875 4177118 310.660003662
574609.375 4177118.25 310.670013428
574609.375 4177118 310.579986572
574609.5 4177118.25 310.850006104
574609.5 4177118 310.859985352
574610 4177117.75 310.549987793
574610.0625 4177118.5 310.660003662
574610.125 4177117.75 310.690002441
574610.1875 4177118.25 310.630004883
574610.8125 4177118.5 310.690002441
574610.8125 4177118 310.730010986
574610.8125 4177118 310.540008545
574610.875 4177118.5 310.549987793
574610.875 4177118 310.350006104
574611.3125 4177118.25 310.290008545
574611.5 4177118 310.369995117
574612.25 4177118.25 310.820007324
574612.25 4177118 310.75
574612.3125 4177118.25 310.450012207
574612.375 4177118 310.660003662
574612.5625 4177118.25 310.600006104
574612.75 4177118.25 310.279998779
574613.6875 4177118.25 310.570007324
574613.6875 4177118 310.380004883
574613.75 4177118.5 310.5
574613.75 4177118 310.380004883
574613.875 4177118 310.470001221
574614 4177118 310.359985352
574615 4177118.25 310.299987793
574615.0625 4177118 310.559997559
574615.0625 4177118.5 310.329986572
574615.125 4177118 310.410003662
574615.1875 4177118 310.040008545
574615.3125 4177118.25 310.420013428
574616.375 4177118.25 310.470001221
574616.375 4177118 310.329986572
574616.4375 4177117.75 310.070007324
574616.4375 4177118.25 310.299987793
574616.4375 4177117.75 310.390014648
574616.5625 4177118 310.079986572
574617.625 4177118.25 310.510009766
574617.625 4177118.25 310.25
574617.625 4177117.75 310.200012207
574617.625 4177118 310.390014648
574617.6875 4177118.25 310.470001221
574617.75 4177118 310.450012207
574617.8125 4177118 310.309997559
574617.8125 4177118.5 310.399993896
574618.875 4177118 310.230010986
574618.9375 4177118.25 310.380004883
574618.9375 4177118 310.329986572
574619 4177118.25 310.329986572
574619 4177118 310.350006104
574619.0625 4177118.25 310.010009766
574620.125 4177118 310.290008545
574620.1875 4177118.25 310.380004883
574620.25 4177117.75 310.600006104
574620.25 4177118.25 310.369995117
574620.3125 4177118 310.160003662
574620.3125 4177118 310.339996338
574621.375 4177118 310.170013428
574621.5 4177118.5 310.519989014
574621.5 4177118 310.450012207
574621.5 4177118 310.380004883
574621.5625 4177118.25 310.339996338
574621.5625 4177118.5 310.220001221
574622.625 4177118 310.309997559
574622.75 4177118.25 310.489990234
574622.75 4177117.75 310.570007324
574622.75 4177118 310.660003662
574622.8125 4177118.25 310.510009766
574622.8125 4177118.25 310.600006104
574622.8125 4177118 310.440002441
574623.875 4177118 310.329986572
574624 4177118.25 310.790008545
574624 4177118 310.600006104
574624.0625 4177118.25 310.559997559
574624.0625 4177118 310.609985352
574625.125 4177118.25 310.519989014
574625.1875 4177118.25 310.570007324
574625.1875 4177118 310.660003662
574625.25 4177118.25 310.679992676
574625.25 4177118.25 310.470001221
574626.375 4177118.25 310.649993896
574626.4375 4177118.25 310.720001221
574626.4375 4177118 310.660003662
574626.5 4177118.25 310.559997559
574626.5 4177118 310.769989014
574626.5 4177118 310.380004883
574626.5625 4177118.5 310.440002441
574627.6875 4177118.25 310.720001221
574627.6875 4177118 310.640014648
574627.75 4177118.25 310.760009766
574627.75 4177118 310.690002441
574627.8125 4177118.25 310.649993896
574628.875 4177118.25 310.619995117
574629.0625 4177118.25 310.660003662
574630.1875 4177118 310.450012207
574630.25 4177118 310.739990234
574630.3125 4177118.25 310.600006104
574631.625 4177118 310.600006104
574632.75 4177118 310.600006104
574632.875 4177118 310.549987793
574634 4177118.25 310.730010986
574634.125 4177118 310.679992676
574599.875 4177118.75 310.940002441
574601.1875 4177118.5 310.670013428
574601.1875 4177118.75 310.570007324
574602.1875 4177118.5 310.940002441
574602.25 4177118.75 310.859985352
574602.5 4177119 310.700012207
574603.5625 4177118.5 310.739990234
574603.625 4177118.75 310.850006104
574603.6875 4177118.5 310.890014648
574603.75 4177118.75 310.820007324
574604.875 4177118.5 310.589996338
574605 4177119 310.579986572
574605.0625 4177118.5 310.450012207
574605.0625 4177118.5 310.720001221
574605.125 4177118.75 310.869995117
574606.1875 4177118.5 310.75
574606.375 4177118.75 310.75
574606.5 4177118.5 310.839996338
574606.5625 4177118.75 310.779998779
574606.625 4177118.5 310.589996338
574607.6875 4177118.5 310.459991455
574607.6875 4177119 310.470001221
574607.9375 4177119 310.690002441
574607.9375 4177118.5 310.649993896
574608 4177119 310.709991455
574608 4177118.75 310.730010986
574608.75 4177118.5 310.790008545
574608.9375 4177119 310.589996338
574609.3125 4177118.75 310.700012207
574609.375 4177118.5 310.579986572
574609.375 4177119 310.480010986
574609.4375 4177118.5 310.739990234
574610.0625 4177119 310.790008545
574610.25 4177118.75 310.679992676
574610.8125 4177118.75 310.760009766
574610.8125 4177119 310.790008545
574610.875 4177118.75 310.690002441
574611.375 4177119 310.510009766
574611.5 4177118.5 310.440002441
574612.1875 4177119 310.489990234
574612.25 4177118.75 310.649993896
574612.25 4177119 310.589996338
574612.3125 4177118.75 310.320007324
574612.625 4177118.75 310.700012207
574612.8125 4177118.75 310.600006104
574613.625 4177119 310.510009766
574613.625 4177118.5 310.660003662
574613.75 4177118.75 310.739990234
574613.9375 4177118.5 310.380004883
574614.0625 4177118.5 310.529998779
574614.0625 4177118.75 310.390014648
574615 4177118.75 310.380004883
574615 4177118.5 310.410003662
574615.0625 4177119 310.589996338
574615.0625 4177118.75 310.529998779
574615.1875 4177118.5 310.309997559
574615.375 4177118.75 310.350006104
574616.3125 4177119 310.670013428
574616.3125 4177118.75 310.420013428
574616.3125 4177118.5 310.390014648
574616.375 4177118.75 310.459991455
574616.375 4177118.5 310.230010986
574616.4375 4177118.5 310.209991455
574616.5625 4177118.5 310.369995117
574616.625 4177119 310.320007324
574617.5625 4177118.75 310.279998779
574617.625 4177118.75 310.720001221
574617.625 4177119 310.5
574617.6875 4177118.75 310.390014648
574617.6875 4177118.5 310.119995117
574617.875 4177118.75 310.260009766
574618.875 4177118.5 310.679992676
574618.9375 4177118.75 310.480010986
574618.9375 4177119 310.380004883
574618.9375 4177118.75 310.369995117
574619.0625 4177118.75 310.339996338
574620.1875 4177119 310.589996338
574620.1875 4177118.5 310.299987793
574620.1875 4177118.75 310.410003662
574620.1875 4177118.5 310.369995117
574620.25 4177119 310.369995117
574620.25 4177118.75 310.390014648
574620.3125 4177118.5 310.359985352
574621.4375 4177118.75 310.369995117
574621.4375 4177119 310.579986572
574621.4375 4177118.75 310.589996338
574621.5 4177118.75 310.660003662
574621.5625 4177118.5 310.440002441
574621.5625 4177119 310.369995117
574622.6875 4177118.75 310.630004883
574622.6875 4177118.75 310.459991455
574622.75 4177118.5 310.459991455
574622.75 4177118.75 310.570007324
574622.8125 4177118.5 310.640014648
574622.8125 4177118.75 310.649993896
574623.875 4177118.75 310.799987793
574624 4177118.5 310.549987793
574624.0625 4177118.5 310.540008545
574625.1875 4177118.5 310.690002441
574625.1875 4177119 310.739990234
574625.1875 4177118.75 310.709991455
574625.3125 4177118.75 310.739990234
574626.375 4177118.5 310.769989014
574626.4375 4177118.75 310.690002441
574626.5625 4177118.75 310.5
574630.1875 4177118.5 310.75
574630.375 4177118.75 310.739990234
574602.3125 4177119.25 310.720001221
574602.5 4177119.25 310.559997559
574603.5 4177119.5 310.799987793
574603.5625 4177119.5 310.880004883
574603.625 4177119.25 310.859985352
574603.625 4177119 310.910003662
574603.8125 4177119.25 310.75
574604.9375 4177119 310.589996338
574605 4177119.25 310.859985352
574605 4177119 310.760009766
574605.0625 4177119.5 310.820007324
574605.0625 4177119 310.760009766
574605.0625 4177119.25 310.720001221
574605.125 4177119.5 310.839996338
574606.25 4177119 310.559997559
574606.4375 4177119.25 310.630004883
574606.4375 4177119.25 310.739990234
574606.5 4177119 310.570007324
574606.5625 4177119.25 310.910003662
574606.5625 4177119 310.640014648
574607.5625 4177119.25 310.589996338
574607.75 4177119.5 310.679992676
574607.875 4177119.5 310.779998779
574607.875 4177119.25 310.690002441
574607.9375 4177119.25 310.700012207
574608.8125 4177119 310.679992676
574609 4177119.5 310.739990234
574609.3125 4177119.5 310.609985352
574609.3125 4177119 310.679992676
574609.375 4177119.5 310.769989014
574609.375 4177119.25 310.600006104
574610.125 4177119.5 310.809997559
574610.25 4177119.25 310.790008545
574610.75 4177119.5 310.529998779
574610.75 4177119.25 310.640014648
574610.75 4177119 310.429992676
574610.8125 4177119.25 310.540008545
574611.4375 4177119.5 310.619995117
574611.5625 4177119 310.350006104
574611.5625 4177119.5 310.700012207
574612.1875 4177119.25 310.420013428
574612.1875 4177119.5 310.700012207
574612.25 4177119.5 310.640014648
574612.25 4177119.25 310.730010986
574612.6875 4177119.25 310.739990234
574612.8125 4177119.25 310.559997559
574613.5625 4177119.5 310.410003662
574613.5625 4177119.25 310.399993896
574613.6875 4177119.25 310.730010986
574613.6875 4177119 310.559997559
574613.9375 4177119.25 310.470001221
574614.125 4177119.25 310.309997559
574614.9375 4177119.5 310.690002441
574614.9375 4177119.25 310.619995117
574615 4177119 310.410003662
574615 4177119.5 310.739990234
574615 4177119.25 310.679992676
574615.25 4177119 310.25
574615.375 4177119 310.390014648
574616.25 4177119.5 310.619995117
574616.3125 4177119.25 310.779998779
574616.375 4177119 310.75
574616.5 4177119 310.410003662
574616.625 4177119.5 310.5
574617.5625 4177119.25 310.790008545
574617.5625 4177119.25 310.489990234
574617.625 4177119.5 310.649993896
574617.625 4177119.25 310.559997559
574617.75 4177119 310.170013428
574617.875 4177119.25 310.510009766
574618.875 4177119.5 310.679992676
574618.9375 4177119.25 310.549987793
574618.9375 4177119.25 310.519989014
574619.125 4177119.25 310.380004883
574620.1875 4177119.25 310.820007324
574620.1875 4177119.25 310.670013428
574620.1875 4177119.5 310.75
574620.1875 4177119.25 310.559997559
574620.375 4177119 310.5
574620.375 4177119.5 310.579986572
574621.4375 4177119.5 310.679992676
574621.4375 4177119.25 310.549987793
574621.5 4177119.5 310.75
574621.5 4177119.25 310.640014648
574621.5 4177119 310.619995117
574621.625 4177119.5 310.649993896
574622.6875 4177119.25 310.670013428
574622.6875 4177119.25 310.779998779
574622.6875 4177119 310.700012207
574622.75 4177119 310.700012207
574622.875 4177119.25 310.600006104
574623.9375 4177119.25 310.630004883
574623.9375 4177119.25 310.720001221
574624.125 4177119 310.630004883
574625.3125 4177119 310.709991455
574626.4375 4177119.25 310.739990234
574626.4375 4177119.25 310.760009766
574626.625 4177119.5 310.760009766
574602 4177119.75 310.739990234
574602.0625 4177120 310.929992676
574602.375 4177119.75 310.880004883
574602.5625 4177119.75 310.779998779
574603.5 4177119.75 310.890014648
574603.5625 4177119.75 310.799987793
574603.6875 4177119.75 310.839996338
574603.8125 4177119.75 310.760009766
574604.9375 4177120 310.809997559
574605 4177119.75 310.910003662
574605 4177119.5 310.579986572
574605 4177120 310.859985352
574605.125 4177120 310.890014648
574606.25 4177119.5 310.709991455
574606.375 4177120.25 310.790008545
574606.4375 4177119.75 310.760009766
574606.4375 4177119.75 310.700012207
574606.4375 4177119.75 310.869995117
574606.5 4177120 310.739990234
574606.5 4177119.75 310.570007324
574607.5625 4177120 310.890014648
574607.75 4177120 310.890014648
574607.8125 4177119.75 310.570007324
574607.8125 4177120 310.859985352
574608.875 4177119.5 310.790008545
574609 4177120 310.779998779
574609.25 4177120 310.820007324
574609.25 4177119.75 310.739990234
574609.25 4177119.75 310.600006104
574609.3125 4177120 310.820007324
574609.3125 4177119.75 310.760009766
574610.1875 4177120 310.790008545
574610.3125 4177119.75 310.720001221
574610.3125 4177120.25 310.730010986
574610.6875 4177120 310.470001221
574610.6875 4177119.75 310.739990234
574610.75 4177119.75 310.730010986
574610.8125 4177119.5 310.660003662
574611.4375 4177120.25 310.760009766
574611.625 4177120 310.559997559
574612.125 4177120 310.649993896
574612.125 4177119.75 310.769989014
574612.1875 4177120 310.470001221
574612.6875 4177120 310.75
574612.875 4177119.5 310.380004883
574612.875 4177120.25 310.609985352
574613.5625 4177120 310.549987793
574613.5625 4177119.75 310.600006104
574613.625 4177120 310.649993896
574613.625 4177119.5 310.670013428
574614 4177119.75 310.369995117
574614.125 4177119.75 310.579986572
574614.9375 4177120 310.75
574614.9375 4177119.75 310.720001221
574615 4177119.75 310.640014648
574615.25 4177119.75 310.429992676
574615.4375 4177119.5 310.529998779
574615.4375 4177120 310.429992676
574616.25 4177119.75 310.779998779
574616.3125 4177120 310.609985352
574616.5 4177119.75 310.559997559
574616.6875 4177119.75 310.510009766
574617.5625 4177119.5 310.779998779
574617.5625 4177120.25 310.739990234
574617.5625 4177120 310.649993896
574617.75 4177119.75 310.420013428
574617.9375 4177119.75 310.570007324
574618.8125 4177120 310.5
574619 4177119.75 310.660003662
574619.1875 4177119.75 310.600006104
574620.125 4177119.75 310.799987793
574620.1875 4177120 310.730010986
574620.1875 4177119.75 310.75
574620.4375 4177120 310.709991455
574621.375 4177120 310.779998779
574621.375 4177119.75 310.779998779
574621.5 4177119.75 310.690002441
574621.625 4177120 310.709991455
574622.625 4177120 310.799987793
574622.6875 4177119.75 310.769989014
574622.9375 4177119.75 310.549987793
574624 4177119.75 310.739990234
574602.4375 4177120.25 310.929992676
574602.5625 4177120.25 310.799987793
574603.4375 4177120.5 310.809997559
574603.4375 4177120.25 310.600006104
574603.75 4177120.25 310.679992676
574603.875 4177120.5 310.929992676
574604.875 4177120.75 310.809997559
574604.9375 4177120.5 310.820007324
574605 4177120.5 310.880004883
574605 4177120.25 310.600006104
574605.1875 4177120.5 310.910003662
574606.375 4177120.75 310.619995117
574606.375 4177120.75 310.859985352
574606.375 4177120.5 310.769989014
574606.4375 4177120.5 310.760009766
574606.5 4177120.25 310.910003662
574606.5 4177120.75 310.839996338
574607.625 4177120.5 310.809997559
574607.75 4177120.75 310.859985352
574607.8125 4177120.5 310.649993896
574607.8125 4177120.5 310.799987793
574607.8125 4177120.25 310.720001221
574607.875 4177120.5 310.839996338
574608.875 4177120.25 310.850006104
574608.9375 4177120.75 310.579986572
574609.0625 4177120.25 310.649993896
574609.25 4177120.75 310.559997559
574610.25 4177120.75 310.739990234
574610.375 4177120.75 310.769989014
574610.625 4177120.75 310.700012207
574610.625 4177120.5 310.619995117
574610.6875 4177120.25 310.679992676
574610.6875 4177120.75 310.660003662
574610.75 4177120.25 310.609985352
574611.5 4177120.75 310.809997559
574611.625 4177120.5 310.609985352
574612.0625 4177120.75 310.880004883
574612.0625 4177120.5 310.75
574612.125 4177120.25 310.579986572
574612.1875 4177120.5 310.809997559
574612.1875 4177120.25 310.579986572
574612.75 4177120.5 310.660003662
574612.9375 4177120.75 310.700012207
574613.5 4177120.75 310.609985352
574613.5 4177120.5 310.630004883
574613.5 4177120.25 310.470001221
574613.5625 4177120.25 310.640014648
574614.1875 4177120.25 310.619995117
574614.25 4177120.75 310.489990234
574614.875 4177120.5 310.769989014
574614.875 4177120.25 310.679992676
574614.9375 4177120.75 310.809997559
574614.9375 4177120.5 310.769989014
574615.3125 4177120.25 310.510009766
574615.5 4177120.5 310.570007324
574616.1875 4177120.5 310.570007324
574616.25 4177120.25 310.850006104
574616.25 4177120.5 310.760009766
574616.25 4177120.25 310.779998779
574616.5625 4177120.25 310.459991455
574616.75 4177120.25 310.609985352
574617.4375 4177120.75 310.609985352
574617.5 4177120.5 310.600006104
574617.5 4177120.25 310.529998779
574617.8125 4177120.25 310.600006104
574617.9375 4177120.25 310.630004883
574618.75 4177120.25 310.829986572
574619.0625 4177120.5 310.730010986
574619.1875 4177120.25 310.609985352
574619.25 4177120.75 310.660003662
574620.125 4177120.75 310.690002441
574620.25 4177120.5 310.779998779
574621.4375 4177120.5 310.779998779
574621.5 4177120.5 310.739990234
574621.6875 4177120.25 310.630004883
574622.8125 4177120.5 310.760009766
574622.9375 4177120.25 310.769989014
574624.25 4177120.5 310.769989014
574602.625 4177120.75 310.670013428
574603.375 4177120.75 310.869995117
574603.75 4177120.75 310.790008545
574603.8125 4177121.25 310.709991455
574603.9375 4177121 310.859985352
574604.875 4177121.25 310.829986572
574604.875 4177121 310.850006104
574604.9375 4177121.25 310.899993896
574604.9375 4177121 310.850006104
574605.0625 4177120.75 310.730010986
574605.25 4177121 310.809997559
574606.375 4177121 310.890014648
574606.375 4177121.25 310.829986572
574606.4375 4177120.75 310.839996338
574606.4375 4177121.25 310.660003662
574606.5625 4177121 310.820007324
574607.6875 4177121 310.760009766
574607.75 4177121 310.899993896
574607.8125 4177121.25 310.899993896
574607.8125 4177121 310.899993896
574609.0625 4177120.75 310.829986572
574609.125 4177121.25 310.600006104
574609.1875 4177120.75 310.739990234
574610.25 4177121.25 310.760009766
574610.4375 4177121.25 310.890014648
574610.625 4177121.25 310.850006104
574610.625 4177121 310.790008545
574610.6875 4177121 310.799987793
574611.5 4177121.25 310.859985352
574611.6875 4177121 310.709991455
574612.0625 4177121.25 310.700012207
574612.0625 4177121 310.839996338
574612.125 4177121.25 310.779998779
574612.125 4177121 310.850006104
574612.8125 4177121 310.640014648
574613.4375 4177121.25 310.760009766
574613.5 4177121 310.760009766
574614.0625 4177121 310.679992676
574614.25 4177121.25 310.5
574614.8125 4177121 310.630004883
574614.8125 4177121.25 310.850006104
574614.875 4177120.75 310.739990234
574614.875 4177121.25 310.799987793
574614.875 4177121 310.670013428
574615.3125 4177121 310.779998779
574615.5 4177121 310.820007324
574616.1875 4177120.75 310.760009766
574616.1875 4177121.25 310.839996338
574616.25 4177121 310.720001221
574616.25 4177120.75 310.700012207
574616.5625 4177120.75 310.829986572
574616.75 4177121 310.790008545
574617.4375 4177121 310.739990234
574617.875 4177121 310.679992676
574618 4177120.75 310.75
574619.25 4177121.25 310.679992676
574620.3125 4177121 310.779998779
574603.4375 4177121.5 310.920013428
574604 4177121.5 310.850006104
574604.8125 4177121.5 310.760009766
574605.25 4177121.25 310.799987793
574605.3125 4177121.75 310.899993896
574606.3125 4177121.75 310.910003662
574606.3125 4177121.5 310.829986572
574606.375 4177121.75 310.880004883
574606.375 4177121.5 310.899993896
574606.625 4177121.5 310.820007324
574607.75 4177121.75 310.609985352
574607.875 4177121.5 310.820007324
574607.875 4177122 310.880004883
574609 4177122 310.899993896
574609.125 4177122 310.850006104
574609.1875 4177122 310.690002441
574609.1875 4177121.75 310.739990234
574609.1875 4177121.75 310.809997559
574609.25 4177121.5 310.859985352
574610.4375 4177121.5 310.850006104
574610.5625 4177122 310.829986572
574610.5625 4177121.75 310.859985352
574610.625 4177121.75 310.890014648
574611.75 4177121.5 310.769989014
574612 4177122 310.720001221
574612 4177121.75 310.679992676
574612 4177121.5 310.670013428
574613 4177121.75 310.859985352
574613.4375 4177121.5 310.790008545
574613.5 4177121.5 310.829986572
574614.125 4177121.5 310.709991455
574614.3125 4177121.75 310.609985352
574614.8125 4177121.75 310.820007324
574614.8125 4177121.5 310.839996338
574614.8125 4177121.75 310.839996338
574614.875 4177121.5 310.75
574615.375 4177121.5 310.820007324
574615.5625 4177121.5 310.630004883
574616.125 4177121.75 310.820007324
574616.625 4177121.5 310.769989014
574616.8125 4177121.25 310.760009766
574619.3125 4177121.75 310.809997559
574604 4177122 310.809997559
574605.375 4177122.25 310.75
574606.25 4177122.5 310.809997559
574606.3125 4177122.25 310.899993896
574606.3125 4177122 310.809997559
574606.625 4177122 310.690002441
574606.6875 4177122.5 310.739990234
574607.625 4177122.5 310.820007324
574607.625 4177122.25 310.839996338
574607.6875 4177122 310.880004883
574607.75 4177122.25 310.809997559
574609.0625 4177122.5 310.799987793
574609.0625 4177122.25 310.890014648
574609.125 4177122.25 310.790008545
574609.125 4177122.25 310.880004883
574609.125 4177122.25 310.779998779
574610.5 4177122 310.799987793
574610.5 4177122.25 310.799987793
574610.5625 4177122.25 310.660003662
574610.625 4177122 310.799987793
574611.75 4177122 310.850006104
574611.8125 4177122.5 310.799987793
574612 4177122.5 310.869995117
574612 4177122.25 310.820007324
574613.0625 4177122 310.790008545
574614.3125 4177122.25 310.790008545
574614.75 4177122.25 310.809997559
574614.75 4177122.25 310.779998779
574614.75 4177122 310.709991455
574614.75 4177122.5 310.809997559
574614.8125 4177122.25 310.799987793
574614.8125 4177122 310.769989014
574615.4375 4177122 310.690002441
574616.0625 4177122.25 310.850006104
574603.9375 4177123 310.869995117
574604.125 4177123 310.75
574605.375 4177122.75 310.829986572
574606.1875 4177122.75 310.859985352
574606.1875 4177122.75 310.730010986
574606.25 4177122.75 310.899993896
574606.75 4177123 310.859985352
574607.6875 4177122.5 310.869995117
574609.0625 4177123 310.790008545
574609.0625 4177122.75 310.829986572
574609.0625 4177123 310.850006104
574609.125 4177122.75 310.709991455
574609.125 4177122.5 310.739990234
574610.5 4177122.75 310.799987793
574610.5 4177122.5 310.790008545
574610.5 4177122.5 310.880004883
574610.5625 4177123 310.760009766
574611.6875 4177123 310.850006104
574611.8125 4177123 310.790008545
574611.9375 4177122.5 310.709991455
574612.9375 4177122.75 310.829986572
574613.125 4177122.5 310.679992676
574613.125 4177123 310.730010986
574613.3125 4177122.75 310.75
574614.75 4177122.75 310.820007324
574604.125 4177123.5 310.910003662
574604.6875 4177123.5 310.899993896
574605.3125 4177123.75 310.850006104
574605.4375 4177123.25 310.859985352
574606.5625 4177123.5 310.799987793
574607.5625 4177123.25 310.839996338
574610.4375 4177123.25 310.839996338
574610.5 4177123.5 310.869995117
574610.5 4177123.25 310.869995117
574610.625 4177123.5 310.799987793
574611.75 4177123.5 310.790008545
574604 4177124.25 310.880004883
574605.5 4177123.75 310.809997559
574606.125 4177124 310.779998779
574606.1875 4177124 310.910003662
574606.1875 4177123.75 310.850006104
574606.8125 4177124 310.850006104
574608.0625 4177123.75 310.869995117
574609 4177124 310.869995117
574609 4177123.75 310.880004883
574609.375 4177124.25 310.839996338
574610.4375 4177124.25 310.859985352
574611.75 4177124 310.880004883
574611.9375 4177123.75 310.790008545
574607.5625 4177124.25 310.890014648
574607.9375 4177124.5 310.769989014
574608.125 4177124.25 310.869995117
574608.9375 4177124.5 310.890014648
574610.4375 4177124.5 310.869995117
574609.4375 4177125 310.720001221
