# .PCD v.7 - Point Cloud Data file format
VERSION .7
FIELDS x y z
SIZE 4 4 4
TYPE F F F
COUNT 1 1 1
WIDTH 66
HEIGHT 1
VIEWPOINT 0 0 0 1 0 0 0
POINTS 66
DATA ascii
574780.8125 4177136 308.170013428
574781 4177136 308.410003662
574782.3125 4177136 308.470001221
574780.8125 4177136.5 308.329986572
574781 4177136.5 308.519989014
574782.125 4177136.25 308.429992676
574782.375 4177136.5 308.399993896
574781.0625 4177137 308.75
574782.1875 4177136.75 308.299987793
574782.375 4177137 308.450012207
574782.25 4177137.25 308.339996338
574782.4375 4177137.5 308.350006104
574783.5625 4177137.5 308.450012207
574782.25 4177138 308.549987793
574782.5 4177138 308.429992676
574783.625 4177138 308.380004883
574781 4177138.5 308.679992676
574781.1875 4177138.75 309.140014648
574782.3125 4177138.5 308.709991455
574782.5625 4177138.5 308.470001221
574783.6875 4177138.5 308.450012207
574783.8125 4177138.5 308.799987793
574783.9375 4177139 308.390014648
574785.1875 4177139 308.730010986
574781.0625 4177139 308.630004883
574781.25 4177139 308.609985352
574782.375 4177139.25 308.670013428
574782.5625 4177139 308.589996338
574782.625 4177139.5 308.480010986
574783.6875 4177139.25 309.160003662
574785.0625 4177139.25 308.769989014
574785.25 4177139.5 308.709991455
574786.375 4177139.5 308.700012207
574786.5625 4177139.25 308.649993896
574787.6875 4177139.5 308.700012207
574781.0625 4177139.75 308.679992676
574782.4375 4177139.75 308.529998779
574782.6875 4177140 308.540008545
574783.75 4177139.75 308.739990234
574784 4177140 308.820007324
574785.3125 4177139.75 308.459991455
574786.4375 4177140 308.690002441
574786.625 4177139.75 308.570007324
574781.125 4177140.25 308.709991455
574781.3125 4177140.25 309
574781.375 4177140.75 308.640014648
574782.5 4177140.25 308.480010986
574782.75 4177140.5 308.549987793
574783.8125 4177140.5 308.929992676
574784.0625 4177140.5 308.730010986
574785.125 4177140.5 308.989990234
574785.375 4177140.5 308.579986572
574786.5 4177140.5 308.510009766
574786.6875 4177140.25 308.519989014
574781.1875 4177140.75 308.779998779
574781.4375 4177141.25 308.660003662
574782.5 4177141 308.890014648
574783.875 4177141 309.070007324
574784.0625 4177141 308.690002441
574781.25 4177141.5 308.760009766
574781.5 4177141.75 308.779998779
574782.5625 4177141.75 309.489990234
574782.75 4177141.75 309.320007324
574786.75 4177141.5 309.089996338
574781.3125 4177142 308.899993896
574781.5625 4177142.25 308.720001221
