# .PCD v.7 - Point Cloud Data file format
VERSION .7
FIELDS x y z
SIZE 4 4 4
TYPE F F F
COUNT 1 1 1
WIDTH 67
HEIGHT 1
VIEWPOINT 0 0 0 1 0 0 0
POINTS 67
DATA ascii
574781.9375 4177164 309.799987793
574783.25 4177164 309.670013428
574783.5 4177163.75 309.660003662
574782 4177164.5 309.75
574783.5625 4177164.25 309.700012207
574784.625 4177164.75 309.730010986
574784.9375 4177164.75 309.679992676
574786.25 4177164.75 309.700012207
574782.25 4177165 309.739990234
574783.625 4177165 309.619995117
574786 4177164.75 309.679992676
574785 4177166 309.769989014
574786.0625 4177166 309.519989014
574786.3125 4177165.75 309.660003662
574786.125 4177166.5 309.579986572
574786.375 4177166.5 309.690002441
574787.6875 4177166.25 309.630004883
574789 4177166.25 309.75
574786.4375 4177167 309.679992676
574787.5 4177166.75 309.690002441
574787.75 4177166.75 309.529998779
574787.5 4177167.25 309.709991455
574787.8125 4177167.5 309.670013428
574787.5625 4177167.75 309.630004883
574787.875 4177168 309.720001221
574788.875 4177168 309.730010986
574790.25 4177168 309.720001221
574790.5 4177168.25 309.660003662
574787.875 4177168.5 309.630004883
574789 4177168.5 309.570007324
574790.25 4177168.5 309.720001221
574790.5625 4177168.75 309.609985352
574791.9375 4177169 309.720001221
574789 4177169 309.670013428
574790.625 4177169.5 309.640014648
574790.375 4177169.75 309.660003662
574790.6875 4177170 309.700012207
574793.0625 4177170 309.670013428
574790.75 4177170.5 309.700012207
574792.0625 4177170.5 309.690002441
574791.8125 4177170.75 309.670013428
574793.1875 4177171 309.579986572
574793.4375 4177171 309.609985352
574791.875 4177171.5 309.730010986
574792.1875 4177171.75 309.559997559
574793.5 4177171.5 309.679992676
574794.625 4177172.5 309.660003662
574796.3125 4177172.5 309.649993896
574793.625 4177172.5 309.720001221
574794.6875 4177173 309.649993896
574794.9375 4177172.5 309.690002441
574795 4177173 309.679992676
574796.375 4177173 309.600006104
574797.4375 4177172.75 309.660003662
574794.75 4177173.5 309.720001221
574796.0625 4177173.25 309.670013428
574796.4375 4177173.5 309.660003662
574794.8125 4177174.25 309.679992676
574796.125 4177173.75 309.440002441
574796.1875 4177174.25 309.489990234
574796.25 4177175 309.529998779
574797.625 4177175 309.489990234
574799 4177175.25 309.609985352
574799.3125 4177175.25 309.540008545
574799.0625 4177175.75 309.609985352
574797.75 4177176.25 309.660003662
574798.0625 4177177 309.640014648
