# .PCD v.7 - Point Cloud Data file format
VERSION .7
FIELDS x y z
SIZE 4 4 4
TYPE F F F
COUNT 1 1 1
WIDTH 1375
HEIGHT 1
VIEWPOINT 0 0 0 1 0 0 0
POINTS 1375
DATA ascii
574705.625 4177225.75 319.619995117
574706.5 4177225.5 320.119995117
574706.875 4177225.75 320.049987793
574707.8125 4177225.75 320.109985352
574708.1875 4177225.75 320.260009766
574709.125 4177225.75 319.559997559
574709.5 4177225.75 319.529998779
574710.4375 4177225.5 319.630004883
574710.75 4177225.5 320.040008545
574674.625 4177226.5 320.559997559
574675 4177226.25 320.399993896
574675.875 4177226.5 320.269989014
574677.4375 4177226 319.890014648
574678.3125 4177226.25 320.399993896
574678.6875 4177226 320.410003662
574679.5625 4177226.5 320.420013428
574679.875 4177226.25 320.570007324
574680.75 4177226.5 320.809997559
574681.125 4177226.25 320.690002441
574681.9375 4177226 320.980010986
574682.3125 4177226.25 320.950012207
574683.25 4177226.5 320.880004883
574683.625 4177226.25 320.730010986
574684.875 4177226 320.730010986
574685.8125 4177226 320.459991455
574686.1875 4177226 320.700012207
574687.125 4177226.5 320.440002441
574687.5 4177226.25 320.359985352
574688.375 4177226 320.399993896
574688.75 4177226.25 320.309997559
574689.6875 4177226.25 320.220001221
574690 4177226.25 320.200012207
574690.9375 4177226.25 320.109985352
574692.1875 4177226.5 320.269989014
574692.5625 4177226.25 320.179992676
574693.5 4177226.5 319.589996338
574693.8125 4177226.25 319.970001221
574696 4177226 319.760009766
574696.375 4177226.25 320.309997559
574697.3125 4177226 319.910003662
574697.625 4177226 320.359985352
574697.6875 4177226.5 319.970001221
574698.625 4177226 319.940002441
574699 4177226.5 320.109985352
574700.3125 4177226 319.910003662
574701.25 4177226.25 319.809997559
574702.625 4177226.5 319.829986572
574703.9375 4177226.5 319.820007324
574705.25 4177226 319.820007324
574705.6875 4177226.25 319.510009766
574706.5625 4177226 319.700012207
574706.9375 4177226.5 319.950012207
574707.875 4177226.25 320.200012207
574708.3125 4177226.25 319.410003662
574709.1875 4177226.25 319.790008545
574709.5625 4177226.25 319.630004883
574710.4375 4177226.25 320.179992676
574710.8125 4177226 319.820007324
574674.6875 4177227 320.519989014
574675 4177226.75 320.529998779
574675.9375 4177227 320.119995117
574677.125 4177226.5 319.970001221
574677.5 4177226.5 320.100006104
574678.3125 4177226.75 320.459991455
574678.75 4177226.5 320.239990234
574679.5625 4177227 320.470001221
574679.875 4177226.75 320.690002441
574680.8125 4177227 320.730010986
574681.125 4177226.75 320.760009766
574682 4177226.75 320.820007324
574682.375 4177227 320.910003662
574683.3125 4177227 320.929992676
574683.625 4177226.75 320.809997559
574684.5 4177226.5 320.970001221
574684.5625 4177227 320.850006104
574684.9375 4177226.75 320.600006104
574685.8125 4177226.75 320.709991455
574686.25 4177226.75 320.75
574687.125 4177227 320.779998779
574687.5625 4177226.75 320.429992676
574688.4375 4177226.5 320.359985352
574688.75 4177226.75 320.450012207
574689.6875 4177226.75 320.489990234
574690.0625 4177227 320.149993896
574691 4177226.75 320.149993896
574691.3125 4177226.75 320.230010986
574692.3125 4177227 319.850006104
574692.625 4177226.75 320.160003662
574693.875 4177226.75 320.130004883
574694.75 4177226.5 319.950012207
574694.8125 4177227.25 319.690002441
574696.0625 4177226.75 320.260009766
574696.4375 4177226.75 319.670013428
574697.3125 4177226.75 320.279998779
574697.75 4177227 320
574698.625 4177226.75 320.070007324
574699.9375 4177226.75 320.559997559
574700.3125 4177226.75 320.75
574701.3125 4177227 320.269989014
574701.75 4177226.5 319.470001221
574702.6875 4177227 319.899993896
574703 4177226.75 319.720001221
574704 4177227 319.679992676
574704.3125 4177226.5 320.049987793
574705.25 4177226.5 319.700012207
574705.375 4177227 319.420013428
574705.6875 4177227 319.820007324
574706.625 4177226.75 319.910003662
574707 4177227 319.809997559
574707.9375 4177226.75 319.730010986
574709.25 4177226.75 319.910003662
574709.625 4177226.75 319.589996338
574674.75 4177227.5 320.450012207
574675.0625 4177227.25 320.559997559
574676 4177227.75 320.179992676
574676.3125 4177227.25 320.160003662
574677.1875 4177227.25 320.170013428
574677.5625 4177227.25 320.109985352
574678.375 4177227.5 320.540008545
574678.75 4177227.25 320.339996338
574679.625 4177227.5 320.440002441
574679.9375 4177227.25 320.640014648
574680.875 4177227.75 320.589996338
574681.1875 4177227.5 320.760009766
574682.0625 4177227.25 320.869995117
574682.4375 4177227.5 321.170013428
574683.3125 4177227.5 320.959991455
574683.6875 4177227.5 320.920013428
574684.625 4177227.75 320.910003662
574685 4177227.25 320.869995117
574685.875 4177227.25 320.899993896
574686.25 4177227.25 320.899993896
574687.1875 4177227.75 320.850006104
574687.5625 4177227.5 320.450012207
574688.4375 4177227.25 320.540008545
574688.8125 4177227.5 320.670013428
574689.75 4177227.5 320.600006104
574690.125 4177227.5 320.429992676
574691 4177227.25 320.220001221
574691.375 4177227.25 320.320007324
574692.3125 4177227.5 320.239990234
574692.6875 4177227.25 320
574693.5625 4177227.75 320.089996338
574693.875 4177227.25 320.540008545
574695.1875 4177227.25 320.089996338
574696.0625 4177227.25 320.220001221
574696.5 4177227.25 319.739990234
574697.8125 4177227.75 320
574698.75 4177227.25 319.670013428
574699.125 4177227.5 320.049987793
574700.0625 4177227.25 319.510009766
574700.375 4177227.25 320.380004883
574701.75 4177227.25 319.779998779
574702.6875 4177227.75 320.320007324
574703.0625 4177227.25 320.279998779
574704.0625 4177227.5 319.589996338
574704.375 4177227.25 320.119995117
574705.375 4177227.75 319.829986572
574705.75 4177227.5 319.559997559
574706.6875 4177227.25 319.540008545
574707.0625 4177227.5 319.899993896
574708 4177227.5 319.670013428
574708.375 4177227.5 319.959991455
574709.25 4177227.5 319.839996338
574709.625 4177227.5 319.950012207
574673.5625 4177228 320.440002441
574673.9375 4177228 320.660003662
574674.8125 4177228.25 320.399993896
574675.125 4177228 320.519989014
574676 4177228.25 320.369995117
574676.375 4177227.75 320.079986572
574677.1875 4177227.75 320.350006104
574677.5625 4177227.75 320.220001221
574678.4375 4177228 320.529998779
574678.8125 4177227.75 320.570007324
574679.6875 4177228.25 320.649993896
574680 4177227.75 320.839996338
574680.875 4177228.25 320.820007324
574681.25 4177228 320.790008545
574682.0625 4177227.75 321
574682.4375 4177228 321.269989014
574683.375 4177228.25 321.260009766
574683.75 4177228 320.920013428
574684.6875 4177228.25 320.980010986
574685 4177227.75 320.859985352
574685.9375 4177227.75 320.690002441
574686.3125 4177227.75 320.959991455
574687.25 4177228.25 320.529998779
574687.625 4177228 320.690002441
574688.5 4177227.75 320.709991455
574688.5625 4177228.25 320.709991455
574688.875 4177228 320.609985352
574689.75 4177228 320.779998779
574690.125 4177228 320.670013428
574691.0625 4177228 320.059997559
574691.4375 4177227.75 320.320007324
574692.375 4177228.25 320.179992676
574692.6875 4177227.75 319.989990234
574693.625 4177228.25 320.269989014
574693.9375 4177227.75 320.089996338
574694.8125 4177227.75 320.279998779
574694.875 4177228.25 319.959991455
574695.25 4177227.75 320.029998779
574696.1875 4177227.75 319.429992676
574697.8125 4177228.25 320.190002441
574698.75 4177227.75 319.820007324
574699.1875 4177228 319.779998779
574700.4375 4177227.75 320.179992676
574701.4375 4177228 320.059997559
574701.8125 4177227.75 319.910003662
574702.75 4177228.25 320.220001221
574703.125 4177227.75 320.149993896
574704.0625 4177228.25 320.220001221
574704.5 4177228.25 319.820007324
574705.4375 4177228.25 319.959991455
574705.75 4177228.25 320.029998779
574706.75 4177227.75 319.709991455
574707.125 4177228 319.970001221
574708.0625 4177228 319.579986572
574708.4375 4177228 319.739990234
574709.3125 4177228 320.260009766
574709.6875 4177228 319.959991455
574673.625 4177228.5 320.739990234
574673.9375 4177228.5 320.529998779
574674.875 4177228.75 320.450012207
574675.1875 4177228.5 320.5
574676.0625 4177228.75 320.399993896
574676.375 4177228.5 320.190002441
574677.25 4177228.5 320.510009766
574677.625 4177228.25 320.359985352
574678.5 4177228.5 320.619995117
574678.8125 4177228.25 320.670013428
574679.75 4177228.75 320.690002441
574680.0625 4177228.5 320.570007324
574680.9375 4177228.75 321.049987793
574681.3125 4177228.5 320.899993896
574682.125 4177228.25 321.079986572
574682.5 4177228.5 321.200012207
574683.4375 4177228.75 321.350006104
574683.75 4177228.5 321.109985352
574684.6875 4177229 321.290008545
574685.0625 4177228.5 320.959991455
574686 4177228.5 320.859985352
574686.375 4177228.5 320.970001221
574687.3125 4177228.75 320.850006104
574687.6875 4177228.5 320.820007324
574688.5625 4177229 320.869995117
574688.9375 4177228.5 320.489990234
574689.8125 4177228.5 320.679992676
574690.1875 4177228.75 320.529998779
574691.125 4177228.5 320.369995117
574691.4375 4177228.5 320.529998779
574692.4375 4177228.75 320.230010986
574692.75 4177228.5 320.130004883
574693.6875 4177228.75 320.100006104
574694 4177228.25 319.850006104
574694.9375 4177229 320.160003662
574695.3125 4177228.5 319.899993896
574696.625 4177228.5 319.920013428
574697.5 4177228.25 319.700012207
574697.9375 4177228.75 319.75
574698.8125 4177228.25 320.079986572
574700.0625 4177228.5 320.489990234
574700.5 4177228.5 320.459991455
574701.5 4177228.5 319.679992676
574701.875 4177228.75 319.850006104
574702.8125 4177228.75 320.149993896
574703.125 4177228.5 320.279998779
574703.25 4177228.75 319.440002441
574704.125 4177228.75 320.179992676
574704.5 4177228.75 320.059997559
574705.5 4177228.75 319.720001221
574705.875 4177228.75 319.600006104
574706.75 4177228.25 319.760009766
574707.125 4177228.5 319.899993896
574708.0625 4177228.5 320.269989014
574708.5 4177228.5 319.809997559
574673.6875 4177229.25 320.670013428
574674 4177229 320.799987793
574674.875 4177229.25 320.649993896
574675.1875 4177229 320.630004883
574676.125 4177229.5 320.510009766
574676.4375 4177229 320.529998779
574677.3125 4177229 320.410003662
574677.6875 4177229 320.440002441
574678.5 4177229.25 320.630004883
574678.875 4177229 320.700012207
574678.9375 4177229.5 320.700012207
574679.75 4177229.25 321.019989014
574680.125 4177229 320.640014648
574681 4177229.5 320.970001221
574681.3125 4177229 320.890014648
574682.1875 4177229 320.940002441
574682.25 4177229.5 320.959991455
574682.5625 4177229.25 321.179992676
574683.4375 4177229.25 321.369995117
574683.8125 4177229.25 321.299987793
574684.75 4177229.5 321.390014648
574685.125 4177229 320.989990234
574686 4177229 321.079986572
574686.4375 4177229 320.790008545
574687.3125 4177229.5 320.920013428
574687.6875 4177229.25 320.730010986
574688.625 4177229.5 320.910003662
574689 4177229 320.510009766
574689.875 4177229 320.429992676
574690.25 4177229.25 320.670013428
574691.125 4177229 320.459991455
574691.5 4177229 320.540008545
574692.4375 4177229.25 320.290008545
574692.8125 4177229 320.269989014
574693.75 4177229.5 320.220001221
574694.0625 4177229 320.390014648
574695.375 4177229 319.739990234
574695.4375 4177229.5 319.790008545
574696.25 4177229 320.390014648
574696.6875 4177229 319.540008545
574697.5 4177229 320.160003662
574699.25 4177229.25 320.369995117
574700.1875 4177229 319.950012207
574700.5625 4177229 320.140014648
574700.625 4177229.5 320.049987793
574701.5625 4177229 319.760009766
574701.9375 4177229.5 319.839996338
574702.875 4177229.25 319.929992676
574704.1875 4177229.25 319.829986572
574704.625 4177229.25 319.260009766
574705.875 4177229.25 319.859985352
574706.8125 4177229 320.070007324
574707.1875 4177229.25 320.010009766
574708.125 4177229 319.850006104
574708.5 4177229.25 320.290008545
574672.5 4177230 321.029998779
574672.8125 4177229.5 320.920013428
574673.6875 4177229.75 320.760009766
574674.0625 4177229.75 320.769989014
574674.9375 4177230 320.679992676
574675.25 4177229.5 320.660003662
574676.125 4177230 320.700012207
574676.5 4177229.5 320.380004883
574677.3125 4177229.5 320.760009766
574677.375 4177230 320.399993896
574677.6875 4177229.5 320.549987793
574677.75 4177230 320.640014648
574678.5625 4177229.75 320.700012207
574678.9375 4177230 320.779998779
574679.8125 4177230 320.910003662
574680.125 4177229.5 320.899993896
574681 4177230 320.970001221
574681.375 4177229.75 320.920013428
574682.625 4177229.75 321.040008545
574683.5 4177230 321.459991455
574683.875 4177229.75 321.160003662
574684.8125 4177230 321.230010986
574685.125 4177229.5 321.140014648
574686.0625 4177229.5 321.089996338
574686.4375 4177229.5 320.890014648
574687.375 4177230 320.75
574687.75 4177229.75 320.829986572
574688.6875 4177230 321.010009766
574689 4177229.75 320.820007324
574689.9375 4177229.75 320.600006104
574690.3125 4177229.75 320.670013428
574691.1875 4177229.75 320.459991455
574691.5625 4177229.5 320.559997559
574692.5 4177230 320.609985352
574692.8125 4177229.75 320.579986572
574693.75 4177230 320.660003662
574694.0625 4177229.5 320.480010986
574695 4177229.5 320.230010986
574695.0625 4177230 320.130004883
574695.4375 4177230 320.059997559
574696.3125 4177229.5 319.859985352
574698 4177230 320.350006104
574698.875 4177229.5 320.230010986
574699.375 4177229.75 319.450012207
574700.1875 4177229.75 320.679992676
574700.6875 4177230 319.950012207
574702 4177230 319.619995117
574703.3125 4177230 319.839996338
574704.25 4177230 319.660003662
574704.625 4177230 319.970001221
574705.5 4177229.5 320.299987793
574705.5625 4177230 319.890014648
574705.9375 4177229.75 320.100006104
574706.8125 4177229.5 320.079986572
574707.25 4177229.75 319.899993896
574708.1875 4177229.75 320.109985352
574672.5625 4177230.5 321.019989014
574672.875 4177230 320.799987793
574672.9375 4177230.75 320.859985352
574673.75 4177230.25 320.950012207
574674.0625 4177230.25 320.910003662
574675 4177230.5 320.739990234
574675.3125 4177230.25 320.600006104
574676.1875 4177230.5 320.660003662
574676.5 4177230 320.420013428
574676.5625 4177230.75 320.329986572
574677.75 4177230.75 320.760009766
574678.625 4177230.25 320.75
574679 4177230.5 320.679992676
574679.875 4177230.5 320.630004883
574680.1875 4177230 320.890014648
574680.25 4177230.75 320.880004883
574681.0625 4177230.5 321.130004883
574681.4375 4177230.25 321.200012207
574682.25 4177230 321.239990234
574682.3125 4177230.75 321.239990234
574682.625 4177230.25 321.440002441
574683.5625 4177230.5 321.380004883
574683.9375 4177230.25 321.220001221
574684.8125 4177230.75 321.459991455
574685.1875 4177230.25 321.329986572
574686.0625 4177230.25 321.290008545
574686.5 4177230 320.720001221
574687.4375 4177230.5 321.119995117
574687.8125 4177230.25 320.910003662
574688.75 4177230.5 320.820007324
574689.0625 4177230.25 320.940002441
574689.9375 4177230.25 320.760009766
574690.3125 4177230.25 320.779998779
574691.25 4177230.25 320.649993896
574691.625 4177230 320.470001221
574692.5 4177230.5 320.589996338
574692.875 4177230.25 320.679992676
574693.8125 4177230.5 320.450012207
574694.1875 4177230 320.179992676
574695.0625 4177230.75 320.309997559
574695.5 4177230.75 320.260009766
574696.3125 4177230.25 320.149993896
574697.625 4177230.25 320.220001221
574698.0625 4177230.5 319.630004883
574699 4177230.75 320.140014648
574699.375 4177230.25 319.679992676
574702.9375 4177230.5 319.959991455
574704.25 4177230.5 320.510009766
574704.75 4177230.5 319.429992676
574705.625 4177230.5 319.709991455
574706 4177230.25 319.470001221
574706.875 4177230.25 320.320007324
574706.9375 4177230.75 319.820007324
574707.3125 4177230.25 319.899993896
574671.75 4177231.25 321.440002441
574672.625 4177231.25 321.25
574673 4177231.25 321.059997559
574673.8125 4177231 320.850006104
574674.125 4177230.75 320.660003662
574675 4177231 320.989990234
574675.3125 4177230.75 320.910003662
574676.25 4177231.25 320.670013428
574677.4375 4177230.75 320.470001221
574677.5 4177231.25 320.519989014
574677.8125 4177231.25 320.720001221
574678.625 4177231 320.959991455
574679.0625 4177231.25 320.700012207
574679.9375 4177231 320.730010986
574681.125 4177231.25 321.320007324
574681.4375 4177230.75 321.130004883
574682.6875 4177231 321.540008545
574683.5625 4177231 321.670013428
574683.9375 4177230.75 321.700012207
574684.875 4177231.25 321.260009766
574685.25 4177230.75 321.429992676
574685.25 4177231.25 321.350006104
574686.125 4177230.75 321.269989014
574686.5625 4177230.75 321.109985352
574687.4375 4177231.25 321.320007324
574687.875 4177231 320.890014648
574688.75 4177231.25 321.070007324
574689.0625 4177230.75 320.850006104
574690 4177231 320.929992676
574690.375 4177231 320.890014648
574691.3125 4177230.75 320.589996338
574691.625 4177230.75 320.790008545
574692.5625 4177231 320.649993896
574692.9375 4177230.75 320.440002441
574693.875 4177231.25 320.470001221
574694.1875 4177230.75 320.260009766
574695.125 4177231.25 320.380004883
574695.5 4177231.25 320.25
574696.375 4177230.75 320.359985352
574696.75 4177230.75 320.230010986
574699 4177231.25 320.290008545
574699.4375 4177230.75 319.609985352
574700.3125 4177230.75 320.079986572
574700.375 4177231.25 319.690002441
574700.75 4177231.25 320.309997559
574701.6875 4177230.75 319.700012207
574702.125 4177231 319.790008545
574703 4177231 319.609985352
574703.4375 4177231.25 319.890014648
574704.3125 4177231 320.100006104
574707 4177231.25 320.049987793
574707.3125 4177231 320.190002441
574671.4375 4177231.5 321.160003662
574671.8125 4177231.75 321.399993896
574672.6875 4177231.75 321.160003662
574673 4177231.75 321.059997559
574673.8125 4177231.5 320.940002441
574674.1875 4177231.25 321.079986572
574675 4177231.75 321.190002441
574675.375 4177231.25 321
574676.3125 4177231.75 320.640014648
574676.625 4177231.25 320.769989014
574677.5 4177231.75 320.589996338
574677.875 4177231.75 320.839996338
574678.6875 4177231.5 320.859985352
574679.0625 4177231.75 320.989990234
574679.9375 4177231.75 320.940002441
574680.25 4177231.25 321.029998779
574680.3125 4177231.75 320.859985352
574681.125 4177231.75 321.339996338
574681.5 4177231.5 321.359985352
574682.3125 4177231.25 321.559997559
574682.375 4177231.75 321.450012207
574682.75 4177231.5 321.619995117
574683.625 4177231.75 321.640014648
574684 4177231.5 321.700012207
574684.9375 4177231.75 321.790008545
574685.3125 4177231.75 321.350006104
574686.1875 4177231.25 321.5
574686.5625 4177231.25 321.470001221
574686.625 4177231.75 321.369995117
574687.5 4177231.75 321.350006104
574687.875 4177231.5 321.209991455
574688.8125 4177231.75 321.029998779
574689.125 4177231.5 320.950012207
574690.0625 4177231.5 321.029998779
574690.4375 4177231.5 320.970001221
574691.3125 4177231.5 320.760009766
574691.6875 4177231.25 320.670013428
574691.75 4177231.75 320.660003662
574692.625 4177231.75 320.619995117
574693 4177231.25 320.529998779
574693.875 4177231.75 320.420013428
574694.25 4177231.25 320.519989014
574695.1875 4177231.75 320.420013428
574695.5625 4177231.75 320.420013428
574696.4375 4177231.25 320.480010986
574696.8125 4177231.25 320.380004883
574697.75 4177231.25 320.329986572
574697.75 4177231.75 320.200012207
574698.125 4177231.75 320.179992676
574699.0625 4177231.75 320.100006104
574699.4375 4177231.5 320.049987793
574700.75 4177231.75 320.489990234
574702.1875 4177231.5 319.299987793
574703.5 4177231.75 319.570007324
574704.4375 4177231.5 319.529998779
574704.8125 4177231.5 319.809997559
574705.75 4177231.75 319.899993896
574706.125 4177231.5 319.660003662
574707.0625 4177231.75 319.899993896
574707.4375 4177231.5 319.940002441
574671.5 4177232 321.350006104
574671.875 4177232.25 321.279998779
574672.6875 4177232.25 321.209991455
574673.0625 4177232.5 321.070007324
574673.875 4177232 321.109985352
574674.1875 4177232 321.119995117
574675.0625 4177232.25 321.109985352
574675.4375 4177232 320.850006104
574676.3125 4177232.25 320.970001221
574676.625 4177231.75 320.899993896
574676.6875 4177232.5 320.920013428
574677.5625 4177232.5 320.809997559
574677.9375 4177232.25 320.940002441
574678.75 4177232 320.709991455
574679.125 4177232.25 321.089996338
574680 4177232.25 321.029998779
574680.3125 4177232.5 321.25
574681.1875 4177232.25 321.179992676
574681.5625 4177232 321.339996338
574682.4375 4177232.5 321.429992676
574682.75 4177232 321.420013428
574683.6875 4177232.25 321.670013428
574684 4177232 321.589996338
574684.9375 4177232.5 321.890014648
574685.375 4177232.5 321.350006104
574686.25 4177232 321.329986572
574686.6875 4177232.5 321.260009766
574687.5625 4177232.25 321.470001221
574687.875 4177232 321.480010986
574688.8125 4177232.5 321.309997559
574689.1875 4177232 321.089996338
574690.125 4177232 320.850006104
574690.4375 4177232 321.029998779
574691.3125 4177232 321.140014648
574691.75 4177232.5 320.820007324
574692.6875 4177232.25 320.739990234
574693 4177232 320.739990234
574693.9375 4177232.25 320.589996338
574694.25 4177232 320.769989014
574695.1875 4177232.5 320.799987793
574695.625 4177232.5 320.559997559
574696.5 4177231.75 320.309997559
574696.875 4177232 320.510009766
574697.8125 4177232.5 320.170013428
574698.1875 4177232.25 320.339996338
574699.125 4177232.25 320.25
574699.5 4177232 319.989990234
574700.875 4177232.25 319.540008545
574703.125 4177232.25 319.920013428
574703.5 4177232.25 320.429992676
574704.4375 4177232.25 319.989990234
574704.875 4177232 319.429992676
574705.75 4177232.25 319.929992676
574706.125 4177232 319.829986572
574670.6875 4177232.5 321.630004883
574671.5625 4177232.5 321.170013428
574671.9375 4177233 321.309997559
574672.75 4177233 321.470001221
574673.0625 4177233 321.420013428
574673.9375 4177232.75 320.899993896
574674.25 4177232.5 321.049987793
574675.125 4177232.75 320.989990234
574675.5 4177232.5 320.920013428
574676.375 4177233 321.040008545
574676.75 4177233 320.989990234
574677.625 4177233 320.670013428
574677.9375 4177233 320.910003662
574678.75 4177232.75 321.369995117
574679.1875 4177233 321.040008545
574680 4177232.75 321.140014648
574680.375 4177233 321.209991455
574681.25 4177232.75 321.239990234
574681.5625 4177232.5 321.510009766
574682.5 4177233 321.489990234
574682.8125 4177232.5 321.630004883
574683.6875 4177232.75 321.839996338
574684.0625 4177232.5 321.730010986
574685 4177233 321.970001221
574685.4375 4177233 321.559997559
574686.3125 4177232.5 321.269989014
574686.6875 4177233 321.529998779
574687.5625 4177232.75 321.410003662
574687.9375 4177232.75 321.489990234
574688.875 4177233 321.359985352
574689.25 4177232.5 321.209991455
574690.125 4177232.75 321.040008545
574690.5 4177232.75 321.070007324
574691.4375 4177232.5 320.899993896
574691.8125 4177233 320.820007324
574692.6875 4177232.75 320.739990234
574693.0625 4177232.5 320.910003662
574694 4177233 320.75
574694.3125 4177232.5 320.899993896
574694.375 4177233 320.929992676
574695.25 4177233 320.760009766
574695.625 4177233 320.790008545
574696.5 4177232.5 320.380004883
574696.9375 4177232.5 320.399993896
574697.875 4177233 320.459991455
574698.1875 4177232.75 320.630004883
574699.1875 4177233 320.470001221
574699.5625 4177232.5 320.130004883
574700.9375 4177232.75 319.519989014
574701.8125 4177232.5 319.779998779
574702.3125 4177232.75 319.279998779
574703.0625 4177233 321.279998779
574703.5625 4177233 320.290008545
574704.5 4177232.75 319.890014648
574704.9375 4177232.75 319.450012207
574705.8125 4177233 320.179992676
574706.1875 4177232.75 320.109985352
574670.375 4177233.25 321.609985352
574670.75 4177233.25 321.709991455
574671.5625 4177233.25 321.649993896
574671.9375 4177233.5 321.640014648
574672.75 4177233.5 321.549987793
574673.125 4177233.5 321.269989014
574674 4177233.25 321.079986572
574674.25 4177233 321.420013428
574675.1875 4177233.25 321.089996338
574675.5 4177233 321.140014648
574676.4375 4177233.5 320.940002441
574676.75 4177233.5 320.910003662
574677.625 4177233.5 321.070007324
574678 4177233.5 320.970001221
574678.8125 4177233.25 321.480010986
574679.25 4177233.5 320.950012207
574680.0625 4177233.5 321.220001221
574680.4375 4177233.5 321.239990234
574681.3125 4177233.5 321.290008545
574681.625 4177233.25 321.709991455
574682.5 4177233.5 321.440002441
574682.875 4177233.25 321.739990234
574683.75 4177233.5 321.709991455
574684.125 4177233.25 321.850006104
574685.0625 4177233.5 321.989990234
574685.4375 4177233.5 321.679992676
574686.3125 4177233 321.609985352
574686.75 4177233.5 321.670013428
574687.625 4177233.5 321.660003662
574688 4177233.25 321.440002441
574688.9375 4177233.5 321.279998779
574689.25 4177233 321.220001221
574690.1875 4177233.25 321.100006104
574690.5625 4177233.25 321.230010986
574691.4375 4177233.25 321.149993896
574691.875 4177233.5 321.079986572
574692.75 4177233.5 321.130004883
574693.0625 4177233 320.910003662
574694 4177233.5 320.829986572
574694.375 4177233.5 320.880004883
574695.25 4177233.5 320.940002441
574695.6875 4177233.5 320.709991455
574696.5625 4177233 320.619995117
574696.9375 4177233 320.540008545
574697 4177233.5 320.679992676
574697.875 4177233.5 320.549987793
574698.25 4177233.5 320.549987793
574699.1875 4177233.5 320.529998779
574699.625 4177233.25 320.239990234
574700.5 4177233 320.570007324
574700.9375 4177233.5 320.230010986
574701.875 4177233.25 320.179992676
574702.25 4177233.5 320.209991455
574703.25 4177233.25 319.640014648
574703.625 4177233.5 320.179992676
574704.5625 4177233.25 319.579986572
574704.9375 4177233.25 319.690002441
574705.875 4177233.5 320.209991455
574706.25 4177233.25 319.839996338
574670.4375 4177233.75 321.670013428
574670.8125 4177233.75 321.420013428
574671.625 4177233.75 321.700012207
574672 4177234 321.649993896
574672.8125 4177234 321.600006104
574673.1875 4177234.25 321.5
574674 4177233.75 321.230010986
574674.3125 4177233.5 321.269989014
574674.375 4177234.25 321.279998779
574675.25 4177234 321.070007324
574675.5625 4177233.75 321.279998779
574676.5 4177234 320.839996338
574676.8125 4177234.25 321.140014648
574677.6875 4177234.25 321.179992676
574678.0625 4177234 321.049987793
574678.875 4177233.75 320.959991455
574679.25 4177234 321.140014648
574680.125 4177234 321.109985352
574680.5 4177234 321.260009766
574681.3125 4177234 321.309997559
574681.6875 4177233.75 321.649993896
574682.5625 4177234 321.600006104
574682.875 4177233.75 321.859985352
574683.8125 4177234 321.790008545
574684.1875 4177233.75 321.859985352
574685.0625 4177234.25 322.190002441
574685.5 4177234 321.75
574686.375 4177233.5 321.529998779
574686.4375 4177234.25 321.579986572
574686.8125 4177234.25 321.559997559
574687.6875 4177234 321.450012207
574688.0625 4177233.75 321.420013428
574689 4177234 321.359985352
574689.3125 4177233.75 321.390014648
574690.25 4177233.75 321.230010986
574690.625 4177233.75 321.200012207
574691.5 4177233.75 321.089996338
574691.875 4177234.25 321.200012207
574692.75 4177234 321.230010986
574693.125 4177233.5 321.170013428
574693.1875 4177234.25 321.170013428
574694.0625 4177234 320.910003662
574694.4375 4177234.25 320.950012207
574695.3125 4177234.25 321.160003662
574695.75 4177234 320.670013428
574696.5625 4177233.75 320.839996338
574697.0625 4177234.25 320.700012207
574697.9375 4177234.25 320.690002441
574698.3125 4177234 320.760009766
574699.25 4177234 320.440002441
574699.625 4177233.75 320.260009766
574700.5 4177233.75 320.670013428
574700.625 4177234.25 320.279998779
574701 4177234 320.109985352
574701.875 4177233.75 320.200012207
574702.3125 4177234 320.200012207
574703.25 4177233.75 319.760009766
574703.6875 4177234 319.760009766
574704.625 4177233.75 319.529998779
574705 4177233.75 319.839996338
574669.3125 4177234.75 322.239990234
574669.6875 4177234.5 321.75
574670.5 4177234.25 321.679992676
574670.875 4177234.25 321.470001221
574671.6875 4177234.25 321.570007324
574672 4177234.75 321.529998779
574672.875 4177234.75 321.510009766
574673.25 4177234.75 321.489990234
574674 4177234.5 321.589996338
574675.25 4177234.5 321.339996338
574675.5625 4177234.25 321.399993896
574675.625 4177234.75 321.279998779
574676.5 4177234.75 321.130004883
574676.8125 4177234.75 321.410003662
574677.6875 4177234.75 321.25
574678.125 4177234.5 320.890014648
574678.9375 4177234.25 321.029998779
574679.3125 4177234.5 321.160003662
574680.1875 4177234.5 321.059997559
574680.5625 4177234.75 321.220001221
574681.375 4177234.5 321.459991455
574681.75 4177234.25 321.549987793
574682.625 4177234.75 321.579986572
574682.9375 4177234.25 321.700012207
574683.875 4177234.5 321.820007324
574684.1875 4177234.25 322.209991455
574685.125 4177234.75 322.029998779
574685.5625 4177234.75 321.660003662
574686.875 4177234.75 321.660003662
574687.75 4177234.5 321.600006104
574688.125 4177234.25 321.399993896
574689 4177234.75 321.420013428
574689.3125 4177234.25 321.489990234
574690.25 4177234.25 321.170013428
574690.625 4177234.25 321.149993896
574691.5 4177234.25 321.269989014
574691.9375 4177234.75 321.329986572
574692.8125 4177234.5 321.239990234
574694.125 4177234.75 321.109985352
574694.5 4177234.75 320.929992676
574695.375 4177234.75 321.059997559
574695.8125 4177234.75 320.779998779
574696.625 4177234.25 320.970001221
574696.6875 4177234.75 320.799987793
574697.0625 4177234.75 320.720001221
574698 4177234.75 320.700012207
574698.375 4177234.5 320.570007324
574699.3125 4177234.75 320.540008545
574699.6875 4177234.25 320.320007324
574700.625 4177234.75 320.440002441
574701 4177234.5 320.440002441
574701.9375 4177234.25 320.429992676
574702.375 4177234.5 320.160003662
574703.3125 4177234.5 319.739990234
574703.75 4177234.5 319.630004883
574704.625 4177234.5 319.829986572
574705.0625 4177234.5 320.049987793
574669.375 4177235.25 322.239990234
574669.75 4177235 321.709991455
574670.5 4177235 321.869995117
574670.875 4177234.75 321.739990234
574671.75 4177234.75 321.420013428
574672.0625 4177235.25 321.459991455
574672.9375 4177235.25 321.640014648
574673.25 4177235.25 321.75
574674.0625 4177235 321.619995117
574674.4375 4177234.75 321.459991455
574674.5 4177235.25 321.440002441
574675.3125 4177235 321.279998779
574675.6875 4177235.25 321.459991455
574676.5625 4177235.25 321.190002441
574676.875 4177235.25 321.309997559
574677.75 4177235.25 321.109985352
574678.125 4177235.25 321.269989014
574678.9375 4177235 321.109985352
574679.375 4177235.25 321.299987793
574680.1875 4177235 321.209991455
574680.5625 4177235.25 321.260009766
574681.4375 4177235.25 321.619995117
574681.75 4177234.75 321.690002441
574682.625 4177235.25 321.769989014
574683 4177234.75 321.760009766
574683.875 4177235 321.890014648
574684.25 4177234.75 322.079986572
574685.1875 4177235.25 321.839996338
574685.5625 4177235.25 322.149993896
574686.4375 4177234.75 321.880004883
574686.5 4177235.25 321.890014648
574686.875 4177235.25 321.730010986
574687.75 4177235.25 321.809997559
574688.125 4177235 321.450012207
574689.0625 4177235.25 321.720001221
574689.375 4177234.75 321.519989014
574689.4375 4177235.25 321.329986572
574690.3125 4177235 321.350006104
574690.6875 4177235 321.380004883
574691.5625 4177235 321.279998779
574692 4177235.25 321.399993896
574692.875 4177235.25 321.359985352
574693.1875 4177234.75 321.25
574694.125 4177235.25 321.279998779
574694.5625 4177235.25 320.920013428
574695.4375 4177235.25 320.839996338
574695.875 4177235.25 320.739990234
574696.75 4177235.25 320.839996338
574697.125 4177235.25 320.690002441
574698.0625 4177235.25 320.470001221
574698.4375 4177235 320.609985352
574699.3125 4177235.25 320.720001221
574699.75 4177235 320.440002441
574700.6875 4177235.25 320.579986572
574701.0625 4177235 320.339996338
574702 4177235 320.559997559
574702.4375 4177235 320.149993896
574703.3125 4177235 320.179992676
574703.75 4177235.25 320.230010986
574704.6875 4177235 319.940002441
574668.625 4177235.5 321.730010986
574669.4375 4177235.75 321.970001221
574669.75 4177235.5 322.079986572
574670.5625 4177235.5 321.890014648
574670.9375 4177235.5 321.989990234
574671.75 4177235.5 321.859985352
574672.125 4177235.75 321.779998779
574672.9375 4177235.75 321.720001221
574673.3125 4177235.75 321.799987793
574674.125 4177235.5 321.880004883
574674.5 4177236 321.529998779
574675.3125 4177235.75 321.579986572
574675.75 4177236 321.390014648
574676.5625 4177235.75 321.559997559
574676.9375 4177235.75 321.380004883
574677.8125 4177236 321.230010986
574678.1875 4177235.75 321.420013428
574679 4177235.5 321.269989014
574679.4375 4177235.75 321.140014648
574680.25 4177235.75 321.600006104
574680.625 4177235.75 321.640014648
574681.4375 4177235.75 321.660003662
574681.8125 4177235.5 321.779998779
574682.6875 4177235.75 321.690002441
574683.0625 4177235.5 321.820007324
574683.9375 4177235.75 321.880004883
574684.3125 4177235.5 322.049987793
574685.25 4177235.75 321.880004883
574685.625 4177235.75 322.100006104
574686.5 4177236 322.049987793
574686.9375 4177235.75 321.829986572
574687.8125 4177235.75 321.980010986
574688.1875 4177235.5 321.579986572
574689.0625 4177235.75 321.799987793
574689.5 4177236 321.410003662
574690.375 4177235.5 321.420013428
574690.75 4177235.5 321.369995117
574691.625 4177235.5 321.369995117
574692 4177236 321.570007324
574692.9375 4177235.75 321.480010986
574693.25 4177235.5 321.369995117
574693.3125 4177236 321.390014648
574694.1875 4177235.75 321.350006104
574694.5625 4177235.75 321.010009766
574695.4375 4177235.75 321.109985352
574695.875 4177235.75 320.799987793
574696.8125 4177236 320.75
574697.1875 4177236 320.880004883
574698.0625 4177236 320.709991455
574698.4375 4177235.75 320.760009766
574699.375 4177235.75 320.899993896
574699.75 4177235.5 320.769989014
574700.75 4177236 320.809997559
574701.125 4177235.75 320.369995117
574702 4177235.5 320.559997559
574702.5 4177235.75 320.230010986
574703.375 4177235.75 320.549987793
574703.8125 4177235.75 320.260009766
574704.75 4177235.75 320.029998779
574668.25 4177236 322.309997559
574668.3125 4177236.5 322.019989014
574668.6875 4177236.25 321.940002441
574669.5 4177236.25 321.75
574669.8125 4177236 322.029998779
574670.5625 4177236 322.130004883
574670.9375 4177236 322.019989014
574671 4177236.5 321.959991455
574671.75 4177236 322.040008545
574672.125 4177236.5 321.880004883
574673 4177236.5 321.769989014
574673.3125 4177236.5 321.839996338
574674.125 4177236.25 321.790008545
574674.5625 4177236.5 321.489990234
574675.375 4177236.25 321.720001221
574675.75 4177236.5 321.399993896
574676.625 4177236.5 321.640014648
574677 4177236.5 321.269989014
574677.8125 4177236.5 321.299987793
574678.25 4177236.25 321.290008545
574679 4177236 321.410003662
574679.4375 4177236.25 321.309997559
574680.25 4177236.25 321.619995117
574680.6875 4177236.5 321.519989014
574681.5 4177236.25 321.619995117
574681.8125 4177236 321.850006104
574682.75 4177236.5 321.799987793
574683.0625 4177236 321.920013428
574684 4177236.25 321.950012207
574684.3125 4177236 322.029998779
574684.375 4177236.5 322.119995117
574685.25 4177236.5 322.320007324
574685.6875 4177236.5 321.940002441
574686.5625 4177236.5 321.799987793
574687 4177236.5 321.839996338
574687.8125 4177236.25 321.950012207
574688.1875 4177236 321.920013428
574689.125 4177236.5 321.850006104
574689.5 4177236.5 321.630004883
574690.375 4177236 321.619995117
574690.75 4177236 321.410003662
574691.6875 4177236 321.440002441
574692.0625 4177236.5 321.5
574692.9375 4177236.25 321.529998779
574693.375 4177236.5 321.290008545
574694.25 4177236.25 321.149993896
574694.625 4177236.5 320.980010986
574695.5 4177236.5 321.140014648
574695.9375 4177236.5 321.109985352
574696.8125 4177236.5 321.040008545
574697.1875 4177236.5 321.119995117
574698.125 4177236.5 320.929992676
574698.5 4177236.25 320.730010986
574699.4375 4177236.5 320.980010986
574699.8125 4177236 320.820007324
574700.75 4177236.5 320.910003662
574701.1875 4177236.25 320.369995117
574702.0625 4177236 320.570007324
574702.5 4177236.25 320.459991455
574703.4375 4177236.25 320.480010986
574703.875 4177236.25 320.269989014
574704.75 4177236.25 320.600006104
574705.1875 4177236.25 320.190002441
574668.375 4177237 321.779998779
574668.75 4177236.75 321.510009766
574669.5625 4177236.75 321.519989014
574669.875 4177236.75 321.820007324
574670.6875 4177236.5 321.859985352
574670.75 4177237.25 321.730010986
574671.0625 4177237 321.799987793
574671.8125 4177236.75 322.089996338
574672.1875 4177237 322.040008545
574673 4177237 322.019989014
574673.375 4177237 321.690002441
574674.1875 4177236.75 321.859985352
574674.625 4177237 321.589996338
574675.4375 4177236.75 321.369995117
574675.8125 4177237 321.660003662
574676.625 4177237 321.739990234
574677 4177237 321.5
574677.875 4177237 321.589996338
574678.25 4177237 321.290008545
574679.0625 4177236.75 321.489990234
574679.5 4177237 321.390014648
574680.3125 4177236.75 321.609985352
574680.6875 4177237 321.609985352
574681.5625 4177236.75 321.549987793
574681.875 4177236.5 321.890014648
574681.9375 4177237.25 321.959991455
574682.8125 4177237 321.739990234
574683.125 4177236.5 322.100006104
574683.1875 4177237 321.829986572
574684.0625 4177236.75 322.010009766
574684.4375 4177237 321.989990234
574685.3125 4177237 322.079986572
574685.6875 4177237 322.089996338
574686.625 4177237 322.109985352
574687.0625 4177237 321.690002441
574687.875 4177237 321.839996338
574688.25 4177236.75 321.920013428
574689.1875 4177237 321.779998779
574689.5625 4177237 321.720001221
574690.4375 4177236.75 321.630004883
574690.8125 4177236.75 321.640014648
574691.6875 4177236.75 321.600006104
574692.125 4177237 321.470001221
574693 4177236.75 321.230010986
574693.375 4177237 321.450012207
574694.25 4177237 321.429992676
574694.6875 4177237 321.339996338
574695.5625 4177237 321.220001221
574695.9375 4177237 321.220001221
574696.8125 4177237 321.329986572
574697.25 4177237 320.970001221
574698.1875 4177237 320.989990234
574698.5625 4177236.75 320.869995117
574699.5 4177237 320.859985352
574699.875 4177236.75 320.679992676
574700.8125 4177237 320.640014648
574701.25 4177236.75 320.589996338
574702.125 4177236.5 320.630004883
574702.5625 4177236.75 320.630004883
574703.5 4177236.75 320.529998779
574703.875 4177236.75 320.320007324
574704.8125 4177236.75 320.619995117
574705.25 4177236.75 320.359985352
574706.125 4177236.75 320.200012207
574667.3125 4177237.5 321.480010986
574667.625 4177237.25 321.559997559
574668.4375 4177237.5 321.630004883
574668.8125 4177237.25 321.480010986
574669.5625 4177237.5 321.630004883
574669.9375 4177237.25 321.630004883
574670 4177237.75 321.529998779
574670.75 4177237.75 321.660003662
574671.125 4177237.5 321.579986572
574671.875 4177237.25 321.760009766
574672.25 4177237.5 321.989990234
574673.0625 4177237.5 322.160003662
574673.4375 4177237.5 322.100006104
574674.25 4177237.25 321.670013428
574674.625 4177237.75 321.989990234
574675.5 4177237.5 321.739990234
574675.8125 4177237.5 321.630004883
574676.6875 4177237.5 321.670013428
574677.0625 4177237.5 321.600006104
574677.9375 4177237.5 321.350006104
574678.3125 4177237.5 321.470001221
574679.125 4177237.25 321.429992676
574679.5625 4177237.5 321.369995117
574680.375 4177237.5 321.709991455
574680.75 4177237.5 321.450012207
574681.625 4177237.5 321.670013428
574682 4177237.75 321.670013428
574682.8125 4177237.5 321.910003662
574683.1875 4177237.75 322.119995117
574684.0625 4177237.5 322.010009766
574684.5 4177237.75 322.100006104
574685.3125 4177237.5 322.380004883
574685.75 4177237.5 322.149993896
574686.6875 4177237.75 322.059997559
574687.0625 4177237.75 322.269989014
574687.9375 4177237.5 321.790008545
574688.3125 4177237.25 321.959991455
574689.25 4177237.5 321.940002441
574689.625 4177237.75 321.880004883
574690.5 4177237.25 321.549987793
574690.875 4177237.25 321.600006104
574691.75 4177237.25 321.309997559
574692.125 4177237.5 321.690002441
574693.0625 4177237.5 321.540008545
574693.4375 4177237.5 321.489990234
574694.3125 4177237.5 321.679992676
574694.75 4177237.5 321.309997559
574695.5625 4177237.5 321.350006104
574696 4177237.5 321.410003662
574696.875 4177237.75 321.380004883
574697.3125 4177237.5 321.089996338
574698.1875 4177237.75 321.010009766
574698.625 4177237.25 320.829986572
574699.5 4177237.5 321
574699.9375 4177237.25 320.920013428
574700.875 4177237.5 320.660003662
574701.25 4177237.5 320.709991455
574702.1875 4177237.25 320.660003662
574702.5625 4177237.5 320.679992676
574703.5 4177237.25 320.529998779
574703.9375 4177237.5 320.5
574704.875 4177237.25 320.200012207
574705.25 4177237.25 320.459991455
574706.1875 4177237.5 320.420013428
574706.5625 4177237.25 320.230010986
574707.5625 4177237.5 319.929992676
574667.3125 4177238.25 321.5
574667.6875 4177237.75 321.549987793
574667.75 4177238.25 321.170013428
574668.5 4177238 321.529998779
574668.8125 4177237.75 321.359985352
574669.625 4177238 321.470001221
574670 4177238.25 321.549987793
574670.8125 4177238.25 321.690002441
574671.1875 4177238.25 321.640014648
574671.9375 4177237.75 321.690002441
574672 4177238.25 321.559997559
574672.3125 4177238 321.880004883
574673.125 4177238 322.010009766
574673.5 4177238.25 322.010009766
574674.25 4177238 321.959991455
574674.6875 4177238.25 322.040008545
574675.5 4177238 321.730010986
574675.875 4177238.25 322.079986572
574676.75 4177238.25 321.720001221
574677.125 4177238.25 321.600006104
574678 4177238.25 321.450012207
574678.375 4177238 321.549987793
574679.1875 4177237.75 321.429992676
574679.5625 4177238 321.619995117
574680.375 4177238 321.869995117
574680.8125 4177238 321.649993896
574681.625 4177238 321.739990234
574682.0625 4177238.25 321.760009766
574682.875 4177238 321.880004883
574683.25 4177238.25 322.010009766
574684.125 4177238 322.140014648
574684.5 4177238.25 322.390014648
574685.4375 4177238 322.190002441
574685.8125 4177238 322.299987793
574686.6875 4177238.25 322.160003662
574687.125 4177238.25 322.200012207
574688 4177238 321.970001221
574688.375 4177237.75 322.010009766
574689.25 4177238.25 321.929992676
574689.625 4177238.25 322.149993896
574690.5 4177237.75 321.720001221
574690.875 4177237.75 321.809997559
574691.75 4177237.75 321.820007324
574692.1875 4177238.25 321.630004883
574693.0625 4177238 321.760009766
574693.5 4177238.25 321.790008545
574694.375 4177238.25 321.75
574694.75 4177238.25 321.440002441
574695.625 4177238.25 321.559997559
574696.0625 4177238.25 321.350006104
574696.9375 4177238.25 321.059997559
574697.375 4177238.25 321.309997559
574698.25 4177238.25 321.260009766
574698.625 4177238 320.869995117
574699.5625 4177238.25 321.100006104
574699.9375 4177237.75 320.809997559
574700.9375 4177238.25 320.880004883
574701.3125 4177238 321.049987793
574702.25 4177237.75 320.630004883
574702.6875 4177238 320.540008545
574703.5625 4177238 320.769989014
574704 4177238 320.600006104
574704.9375 4177238 320.339996338
574705.3125 4177238 320.5
574706.25 4177238 320.470001221
574706.625 4177237.75 320.380004883
574707.5625 4177238 320.279998779
574708 4177238.25 320.059997559
574666.625 4177239 321.369995117
574667.4375 4177238.75 321.200012207
574668.5625 4177238.75 321.359985352
574668.875 4177238.25 321.600006104
574669.6875 4177238.5 321.600006104
574670.0625 4177238.75 321.369995117
574670.875 4177238.75 321.670013428
574671.1875 4177238.75 321.839996338
574672 4177239 321.700012207
574672.375 4177238.5 321.779998779
574673.1875 4177238.75 321.920013428
574673.5 4177238.75 321.890014648
574674.3125 4177238.5 322.160003662
574674.75 4177238.75 321.950012207
574675.5625 4177238.5 321.760009766
574675.9375 4177238.75 321.890014648
574676.75 4177238.75 321.850006104
574677.125 4177238.75 321.75
574678 4177238.75 321.709991455
574678.375 4177238.75 321.640014648
574679.1875 4177238.25 321.630004883
574679.625 4177238.75 321.799987793
574680.4375 4177238.5 321.880004883
574680.8125 4177238.75 321.739990234
574681.6875 4177238.5 321.839996338
574682.0625 4177238.75 322.119995117
574682.9375 4177238.75 322.010009766
574683.3125 4177238.75 322.140014648
574684.1875 4177238.5 322.170013428
574684.5625 4177238.75 322.459991455
574685.4375 4177238.75 322.480010986
574685.8125 4177238.75 322.339996338
574686.75 4177238.75 322.510009766
574687.125 4177238.75 322.320007324
574688 4177238.75 322.040008545
574688.375 4177238.25 322.190002441
574689.3125 4177238.75 321.959991455
574689.6875 4177238.75 322.179992676
574690.5625 4177238.5 321.700012207
574690.9375 4177238.5 321.950012207
574691.8125 4177238.25 321.640014648
574692.25 4177238.75 321.829986572
574693.125 4177238.75 321.829986572
574693.5 4177238.75 321.670013428
574694.375 4177238.75 321.679992676
574694.8125 4177238.75 321.410003662
574695.6875 4177238.75 321.380004883
574696.0625 4177238.75 321.420013428
574697 4177238.75 321.089996338
574697.375 4177238.75 321.350006104
574698.3125 4177238.75 321.25
574698.6875 4177238.5 321.170013428
574699.625 4177238.75 320.929992676
574700 4177238.25 320.859985352
574700.9375 4177238.75 321.290008545
574701.3125 4177238.5 321.040008545
574702.25 4177238.25 320.720001221
574702.6875 4177238.5 320.839996338
574703.625 4177238.5 320.779998779
574704 4177238.5 320.630004883
574704.9375 4177238.5 320.540008545
574705.375 4177238.5 320.399993896
574706.25 4177238.75 320.600006104
574706.6875 4177238.25 320.600006104
574706.75 4177239 320.549987793
574707.625 4177238.75 320.320007324
574708 4177238.75 320.480010986
574708.9375 4177238.75 320.390014648
574709.375 4177238.75 320.100006104
574666.25 4177239 321.459991455
574666.6875 4177239.5 320.950012207
574667.4375 4177239.25 321.190002441
574667.75 4177239 321.420013428
574667.8125 4177239.5 321.309997559
574668.625 4177239.25 321.239990234
574668.875 4177239 321.820007324
574669 4177239.5 321.380004883
574669.75 4177239 321.380004883
574670.125 4177239.5 321.670013428
574670.9375 4177239.25 321.209991455
574671.25 4177239.25 321.649993896
574672.125 4177239.5 321.410003662
574672.375 4177239.25 321.720001221
574673.25 4177239.25 321.660003662
574673.5625 4177239.25 321.890014648
574674.375 4177239 321.809997559
574674.75 4177239.25 321.820007324
574675.5625 4177239.25 321.980010986
574675.9375 4177239.25 322.079986572
574676.8125 4177239.25 321.929992676
574677.1875 4177239.25 321.890014648
574678.0625 4177239.25 321.690002441
574678.4375 4177239.25 321.760009766
574679.25 4177239 321.910003662
574679.6875 4177239.25 321.799987793
574680.5 4177239.25 321.929992676
574680.875 4177239.25 321.709991455
574681.75 4177239.25 321.809997559
574682.125 4177239.5 322.040008545
574682.9375 4177239.25 322.410003662
574683.375 4177239.5 322.140014648
574684.1875 4177239.25 322.279998779
574684.625 4177239.5 322.510009766
574685.4375 4177239.25 322.790008545
574685.875 4177239.25 322.350006104
574686.75 4177239.5 322.390014648
574687.1875 4177239.25 322.359985352
574688.0625 4177239.25 322.279998779
574688.4375 4177239 322.119995117
574688.5 4177239.5 322.029998779
574689.375 4177239.25 322.079986572
574689.75 4177239.5 322.290008545
574690.5625 4177239 322.160003662
574691 4177239 322.109985352
574691.875 4177239 321.950012207
574692.25 4177239.25 321.980010986
574693.1875 4177239.25 321.809997559
574693.5625 4177239.25 321.640014648
574694.5 4177239.25 321.429992676
574694.875 4177239.25 321.399993896
574695.75 4177239.25 321.450012207
574696.125 4177239.25 321.489990234
574697 4177239.5 321.510009766
574697.4375 4177239.25 321.390014648
574698.3125 4177239.5 321.380004883
574698.75 4177239 321.100006104
574699.6875 4177239.25 321.089996338
574700.0625 4177239 321.130004883
574701 4177239.25 320.890014648
574701.375 4177239.25 321.109985352
574702.3125 4177239 321.029998779
574702.6875 4177239.25 321.140014648
574703.6875 4177239 320.709991455
574704.0625 4177239.25 320.820007324
574705 4177239.25 320.720001221
574705.4375 4177239 320.510009766
574706.3125 4177239.25 320.700012207
574706.75 4177239.5 320.579986572
574707.6875 4177239.25 320.459991455
574708.0625 4177239.25 320.5
574709 4177239.5 320.190002441
574709.4375 4177239.25 319.929992676
574710.3125 4177239.5 320.440002441
574666.3125 4177239.5 321.109985352
574666.6875 4177240 321.359985352
574667.5 4177239.75 321.100006104
574667.875 4177240 321.260009766
574668.6875 4177239.75 321.089996338
574669.0625 4177240 321.119995117
574669.8125 4177239.5 321.179992676
574670.1875 4177240 321.390014648
574671 4177240 321.390014648
574671.3125 4177239.75 321.5
574672.125 4177240 321.480010986
