# .PCD v.7 - Point Cloud Data file format
VERSION .7
FIELDS x y z
SIZE 4 4 4
TYPE F F F
COUNT 1 1 1
WIDTH 130
HEIGHT 1
VIEWPOINT 0 0 0 1 0 0 0
POINTS 130
DATA ascii
574803.875 4177118 306.970001221
574804.0625 4177118 307.049987793
574804.125 4177118.5 307.010009766
574805.25 4177118.25 307.290008545
574805.4375 4177118 307.160003662
574806.6875 4177118 306.489990234
574806.8125 4177118.25 306.950012207
574808 4177118.25 306.720001221
574808.1875 4177118 306.690002441
574809.3125 4177118 306.989990234
574809.5625 4177118.25 306.459991455
574810.75 4177118 306.640014648
574810.9375 4177118.25 306.459991455
574812 4177118 306.690002441
574812.1875 4177118 306.480010986
574803.9375 4177118.5 307.089996338
574804.125 4177118.75 306.940002441
574805.3125 4177118.75 307.200012207
574805.4375 4177118.5 307.420013428
574805.5 4177118.75 306.769989014
574806.6875 4177118.5 306.829986572
574806.875 4177118.75 307.010009766
574808.0625 4177118.75 306.779998779
574808.1875 4177118.75 306.959991455
574809.375 4177118.75 307
574809.5625 4177118.75 306.850006104
574810.75 4177118.5 306.459991455
574810.9375 4177118.5 306.440002441
574812.0625 4177118.5 306.690002441
574812.25 4177118.5 306.399993896
574812.3125 4177119 306.459991455
574805.375 4177119.25 306.910003662
574805.5625 4177119.25 307.070007324
574806.75 4177119.25 307.130004883
574806.875 4177119.25 307.070007324
574808.25 4177119.25 306.980010986
574809.4375 4177119.25 306.980010986
574809.625 4177119.25 306.700012207
574810.8125 4177119.25 306.609985352
574811 4177119.25 306.540008545
574811.0625 4177119.5 306.380004883
574812.125 4177119.25 307.109985352
574812.3125 4177119.5 306.579986572
574813.4375 4177119.5 307.399993896
574813.625 4177119.5 306.589996338
574805.4375 4177119.75 307.059997559
574805.5625 4177120 307.450012207
574806.875 4177120 308.299987793
574808 4177119.75 308.339996338
574808.125 4177120 306.940002441
574808.3125 4177119.5 306.899993896
574808.375 4177120 306.799987793
574810.875 4177119.75 306.700012207
574811.0625 4177120 306.510009766
574812.0625 4177120.25 308.100006104
574805.5 4177120.25 306.989990234
574805.625 4177120.25 306.980010986
574806.6875 4177120.25 309.079986572
574806.8125 4177120.5 307.739990234
574806.9375 4177120.5 308.25
574807 4177120.75 307.179992676
574810.9375 4177120.25 306.739990234
574811.125 4177120.5 306.570007324
574812.25 4177120.25 308.119995117
574813.5625 4177120.25 306.480010986
574805.5 4177121 307.339996338
574805.6875 4177120.75 307.140014648
574806.875 4177121 307.239990234
574807.0625 4177121 307.070007324
574808.25 4177121 306.950012207
574808.4375 4177121 306.959991455
574810.9375 4177121 307.119995117
574811.125 4177121.25 307.529998779
574812.125 4177120.75 308.440002441
574812.3125 4177120.75 308.220001221
574805.5625 4177121.5 306.929992676
574805.6875 4177121.25 307.359985352
574805.75 4177121.75 307.029998779
574806.9375 4177121.5 306.980010986
574807.125 4177121.5 306.730010986
574808.5 4177121.5 306.910003662
574811.1875 4177121.5 306.670013428
574812.125 4177121.5 308.920013428
574812.3125 4177121.5 309.160003662
574805.625 4177122 307.179992676
574805.8125 4177122.25 307.190002441
574806.9375 4177122.25 307.809997559
574807.125 4177122 307.329986572
574809.6875 4177122 306.839996338
574811.0625 4177122 306.679992676
574811.25 4177122 306.700012207
574811.3125 4177122.5 306.579986572
574812.25 4177122 308.510009766
574805.6875 4177122.75 307.260009766
574805.8125 4177123 307.739990234
574807.0625 4177123 308.809997559
574807.25 4177123 307.179992676
574804.5 4177123.25 307.359985352
574805.6875 4177123.25 307.279998779
574805.9375 4177123.25 306.980010986
574805.9375 4177123.75 306.989990234
574806.9375 4177123 308.910003662
574808.4375 4177123.5 307.570007324
574808.625 4177123.5 307.309997559
574810 4177123.75 306.950012207
574805.75 4177123.75 307.320007324
574806 4177124.25 306.989990234
574807.125 4177123.75 306.989990234
574807.375 4177124 306.880004883
574808.5 4177123.75 306.769989014
574808.6875 4177123.75 306.660003662
574809.8125 4177123.75 307
574810.0625 4177124 306.820007324
574805.8125 4177124.5 307.299987793
574806.0625 4177124.5 306.959991455
574807.1875 4177124.25 306.929992676
574807.375 4177124.5 306.890014648
574808.5625 4177124.5 306.989990234
574808.75 4177124.5 306.809997559
574809.875 4177124.25 307.019989014
574805.875 4177125 306.940002441
574806.0625 4177125.25 307.140014648
574807.25 4177125 307.239990234
574807.3125 4177125.5 306.929992676
574807.4375 4177125 307.309997559
574808.75 4177125 306.959991455
574808.8125 4177125.25 306.779998779
574808.875 4177125.75 306.910003662
574810 4177125.5 306.980010986
574806.125 4177126.25 307.489990234
