# .PCD v.7 - Point Cloud Data file format
VERSION .7
FIELDS x y z
SIZE 4 4 4
TYPE F F F
COUNT 1 1 1
WIDTH 1381
HEIGHT 1
VIEWPOINT 0 0 0 1 0 0 0
POINTS 1381
DATA ascii
574725.375 4177244 317.170013428
574726.25 4177243.75 317
574725.4375 4177244.5 317.260009766
574677.125 4177263 317.649993896
574677.25 4177263.5 316.850006104
574678 4177263.5 317.779998779
574676.875 4177263.75 317.029998779
574677.25 4177264 317.339996338
574678 4177264 318.049987793
574678.375 4177264.25 318.260009766
574676.125 4177264.75 316.760009766
574676.875 4177264.5 317.420013428
574677.25 4177264.75 317.839996338
574678 4177264.75 318.290008545
574678.4375 4177264.75 318.359985352
574679.625 4177264.75 318.549987793
574748.125 4177264.5 315.450012207
574749 4177264.75 315.350006104
574750.25 4177264.75 315.510009766
574750.6875 4177264.75 315.589996338
574675.75 4177265.25 317.059997559
574676.1875 4177265.25 317.299987793
574676.875 4177265 317.549987793
574677.3125 4177265.25 317.940002441
574678.0625 4177265.25 318.359985352
574678.4375 4177265.25 318.489990234
574679.25 4177264.75 318.459991455
574679.6875 4177265.25 318.450012207
574748.1875 4177265.25 315.589996338
574749 4177265.25 316.049987793
574749.4375 4177265 315.529998779
574750.3125 4177265.25 315.339996338
574750.75 4177265.25 315.410003662
574675.8125 4177265.75 317.459991455
574676.1875 4177265.75 317.369995117
574676.9375 4177265.5 317.75
574677.3125 4177265.75 318.100006104
574678.125 4177265.75 318.299987793
574678.5 4177265.75 318.410003662
574679.25 4177265.5 318.540008545
574680.5 4177265.5 318.489990234
574681 4177265.75 318.420013428
574749.4375 4177265.5 315.690002441
574675.8125 4177266.25 317.339996338
574676.25 4177266.5 317.859985352
574676.9375 4177266.25 318.220001221
574677.375 4177266.5 318.269989014
574678.125 4177266.5 318.450012207
574679.3125 4177266 318.570007324
574679.8125 4177266.25 318.420013428
574680.5625 4177266 318.450012207
574681.8125 4177266.25 318.190002441
574742.5625 4177266.5 317.720001221
574743.875 4177266.5 317.529998779
574752.875 4177266 315.769989014
574675.125 4177266.75 317.339996338
574675.875 4177267 317.779998779
574676.25 4177267 318.059997559
574677 4177266.75 318.200012207
574677.4375 4177267 318.440002441
574679.375 4177266.5 318.559997559
574679.4375 4177267 318.5
574680.5625 4177266.75 318.510009766
574681.0625 4177266.75 318.510009766
574681.875 4177266.75 318.130004883
574682.3125 4177266.75 318.119995117
574683.1875 4177266.75 317.739990234
574741.75 4177267 317.920013428
574742.625 4177267 317.839996338
574743.0625 4177266.75 317.579986572
574743.9375 4177267 317.470001221
574744.375 4177266.75 317.410003662
574745.1875 4177266.5 317.429992676
574745.625 4177266.5 317.380004883
574745.6875 4177267 317.130004883
574746.4375 4177266.75 317.440002441
574746.875 4177266.5 317.459991455
574747.75 4177266.75 316.809997559
574748.25 4177267 317.279998779
574750.375 4177267 316.619995117
574750.8125 4177267 316.609985352
574752.9375 4177266.5 315.709991455
574674.75 4177267.25 317.149993896
574675.125 4177267.5 317.660003662
574675.875 4177267.5 317.839996338
574676.25 4177267.75 318.390014648
574677.0625 4177267.25 318.25
574677.4375 4177267.5 318.429992676
574679.5 4177267.75 318.510009766
574681.125 4177267.5 318.089996338
574681.9375 4177267.25 318.119995117
574682.375 4177267.25 317.839996338
574683.25 4177267.25 317.179992676
574683.6875 4177267.25 317.079986572
574741.8125 4177267.5 317.970001221
574742.6875 4177267.75 317.940002441
574743.125 4177267.25 317.799987793
574744 4177267.75 317.510009766
574744.4375 4177267.25 317.399993896
574745.25 4177267.25 317.489990234
574745.75 4177267.75 317.290008545
574746.5625 4177267.25 317.040008545
574747 4177267 317.170013428
574747 4177267.75 317.290008545
574747.8125 4177267.25 316.970001221
574748.3125 4177267.5 317.049987793
574749.0625 4177267 316.869995117
574749.125 4177267.75 316.769989014
574749.5 4177267.25 316.779998779
574750.4375 4177267.75 316.510009766
574750.875 4177267.5 316.489990234
574751.6875 4177267.25 316.190002441
574613.0625 4177268.25 316.589996338
574613.875 4177268 316.529998779
574614.375 4177268.25 316.640014648
574615.1875 4177268 316.670013428
574617.75 4177268 316.820007324
574618.25 4177268 316.640014648
574619.125 4177268 316.679992676
574619.5625 4177268 316.609985352
574620.375 4177268 316.720001221
574674.0625 4177268 317.089996338
574674.75 4177267.75 317.459991455
574675.1875 4177268 317.890014648
574675.9375 4177268.25 318.230010986
574676.3125 4177268.25 318.480010986
574677.125 4177268 318.149993896
574677.5 4177268 318.390014648
574679.5 4177268.25 318.399993896
574680.6875 4177267.75 318.470001221
574681.1875 4177268 317.920013428
574682 4177267.75 317.929992676
574682.5 4177267.75 317.540008545
574683.3125 4177268 317.049987793
574684.5625 4177267.75 316.769989014
574740.5625 4177268.25 317.980010986
574741.875 4177268 317.760009766
574742.75 4177268.25 317.970001221
574743.1875 4177268 317.739990234
574744.0625 4177268.25 317.540008545
574744.5 4177267.75 317.420013428
574745.3125 4177267.75 317.269989014
574745.375 4177268.25 317.220001221
574745.8125 4177268.25 317.450012207
574746.5625 4177267.75 317.059997559
574747.0625 4177268.25 317.040008545
574747.875 4177267.75 317.040008545
574748.375 4177268 316.720001221
574749.1875 4177268.25 316.700012207
574749.5625 4177267.75 316.809997559
574750.5 4177268.25 316.410003662
574750.9375 4177268.25 316.390014648
574751.6875 4177267.75 316.589996338
574612.625 4177268.5 316.570007324
574613.0625 4177268.75 316.700012207
574613.875 4177268.75 316.760009766
574614.375 4177268.75 316.700012207
574615.1875 4177268.5 316.679992676
574615.6875 4177268.5 316.470001221
574616.5 4177268.5 316.600006104
574616.9375 4177268.5 316.910003662
574617.8125 4177268.5 316.790008545
574618.3125 4177268.75 316.660003662
574619.125 4177268.5 316.540008545
574619.5625 4177268.5 316.779998779
574620.4375 4177268.5 316.739990234
574620.875 4177268.25 316.559997559
574673.6875 4177268.75 317.380004883
574674.125 4177268.5 317.190002441
574674.8125 4177268.25 317.920013428
574675.1875 4177268.5 318.089996338
574675.9375 4177268.75 318.489990234
574677.125 4177268.5 318.220001221
574678.3125 4177268.75 318.410003662
574679.5625 4177268.75 318.309997559
574680.75 4177268.25 318.109985352
574680.8125 4177268.75 317.929992676
574681.25 4177268.5 317.679992676
574682 4177268.5 317.869995117
574682.5625 4177268.5 317.260009766
574741.9375 4177268.5 317.700012207
574742.8125 4177268.75 317.839996338
574743.25 4177268.5 317.670013428
574744.125 4177268.75 317.420013428
574744.5625 4177268.25 317.380004883
574744.5625 4177269 317.420013428
574745.375 4177268.75 317.470001221
574745.875 4177268.75 317.109985352
574746.625 4177268.25 317.079986572
574747.125 4177268.75 316.959991455
574747.9375 4177268.5 316.790008545
574748.375 4177268.75 316.989990234
574749.25 4177268.75 316.519989014
574749.625 4177268.5 316.690002441
574750.5 4177268.75 316.559997559
574751 4177268.75 316.429992676
574612.625 4177269 316.790008545
574613.125 4177269.5 316.809997559
574613.9375 4177269.25 316.519989014
574614.4375 4177269.25 316.540008545
574615.25 4177269.25 316.709991455
574615.75 4177269.25 316.679992676
574616.5625 4177269 316.540008545
574617 4177269 316.890014648
574617.875 4177269.25 316.959991455
574618.375 4177269.25 316.489990234
574619.1875 4177269.25 316.679992676
574619.625 4177269 316.760009766
574620.5 4177269 316.630004883
574620.875 4177269 316.75
574620.9375 4177269.5 316.600006104
574673.75 4177269.5 317.390014648
574674.125 4177269 317.450012207
574674.8125 4177269 318.019989014
574675.25 4177269.25 318.230010986
574676 4177269.25 318.519989014
574676.4375 4177269.25 318.519989014
574677.1875 4177269 318.350006104
574678.375 4177269.25 318.540008545
574679.625 4177269.25 318.489990234
574680 4177269.25 318.440002441
574680.875 4177269.5 317.910003662
574681.3125 4177269 317.839996338
574682.125 4177269 317.529998779
574682.1875 4177269.5 317.029998779
574682.625 4177269 316.950012207
574741.5 4177269.25 318.010009766
574742 4177269.25 317.899993896
574742.875 4177269.25 317.790008545
574743.3125 4177269 317.679992676
574744.1875 4177269.25 317.230010986
574744.625 4177269.5 317.470001221
574745.4375 4177269.5 317.429992676
574745.9375 4177269.25 317.160003662
574746.6875 4177269 317.149993896
574746.75 4177269.5 317.070007324
574747.1875 4177269.25 316.940002441
574748 4177269 316.730010986
574748.4375 4177269.25 316.959991455
574749.3125 4177269.25 316.519989014
574749.6875 4177269 316.619995117
574750.5625 4177269.25 316.480010986
574751 4177269.25 316.540008545
574612.6875 4177269.75 316.880004883
574613.1875 4177270 316.559997559
574614 4177269.75 316.600006104
574614.5 4177270 316.769989014
574615.3125 4177269.75 316.679992676
574615.75 4177269.75 316.660003662
574616.625 4177269.5 316.709991455
574617.0625 4177269.5 316.670013428
574617.9375 4177269.75 316.720001221
574618.4375 4177269.75 316.700012207
574619.1875 4177269.75 317.040008545
574619.6875 4177269.75 316.910003662
574620.5 4177269.75 316.720001221
574621 4177270 317.010009766
574674.1875 4177269.75 317.769989014
574674.875 4177269.5 318.119995117
574675.25 4177269.75 318.399993896
574676.0625 4177269.75 318.489990234
574676.4375 4177270 318.540008545
574677.1875 4177269.75 318.510009766
574677.625 4177269.75 318.540008545
574678.875 4177269.75 318.5
574679.6875 4177270 318.350006104
574680.125 4177269.75 318.049987793
574680.9375 4177270 317.679992676
574681.375 4177269.5 317.670013428
574740.75 4177269.75 318.019989014
574742.9375 4177269.75 317.640014648
574743.375 4177269.5 317.489990234
574744.25 4177270 317.359985352
574744.6875 4177270 317.399993896
574745.5 4177270 317.299987793
574746 4177270 317.230010986
574746.8125 4177270 316.989990234
574747.25 4177270 316.880004883
574748.0625 4177269.5 316.720001221
574748.5 4177269.75 316.950012207
574749.375 4177270 316.540008545
574749.75 4177269.5 316.619995117
574750.625 4177270 316.640014648
574751.0625 4177269.75 316.429992676
574612.75 4177270.25 316.839996338
574613.25 4177270.5 316.799987793
574614 4177270.25 316.859985352
574614.5625 4177270.5 316.679992676
574615.3125 4177270.25 316.869995117
574615.8125 4177270.25 316.869995117
574616.625 4177270.25 316.619995117
574617.125 4177270 316.529998779
574617.1875 4177270.75 316.739990234
574617.9375 4177270.25 316.809997559
574618.4375 4177270.25 316.630004883
574619.25 4177270.25 317.029998779
574619.6875 4177270.25 316.950012207
574620.5625 4177270.25 316.730010986
574621.0625 4177270.5 316.820007324
574674.875 4177270 318.279998779
574675.3125 4177270.25 318.420013428
574679.75 4177270.5 318.239990234
574680.125 4177270.25 318.230010986
574681 4177270.5 317.559997559
574681.4375 4177270.25 317.450012207
574681.5 4177270.75 316.970001221
574739.5 4177270.5 317.980010986
574740.8125 4177270.5 317.899993896
574741.6875 4177270.25 317.769989014
574742.125 4177270.25 317.700012207
574742.9375 4177270.5 317.920013428
574743.4375 4177270 317.470001221
574744.25 4177270.5 317.279998779
574744.75 4177270.5 317.299987793
574745.5625 4177270.5 317.320007324
574746 4177270.5 317.260009766
574746.875 4177270.5 317.109985352
574747.3125 4177270.5 316.869995117
574748.125 4177270 316.839996338
574748.125 4177270.75 316.779998779
574748.5625 4177270.25 316.760009766
574749.4375 4177270.5 316.790008545
574749.8125 4177270 316.730010986
574749.875 4177270.5 316.5
574750.6875 4177270.5 316.470001221
574751.125 4177270.5 316.579986572
574612.75 4177270.75 316.829986572
574613.25 4177271 316.730010986
574614.0625 4177271 316.970001221
574614.5625 4177271 316.769989014
574615.375 4177271 316.700012207
574615.875 4177270.75 316.769989014
574616.6875 4177270.75 316.700012207
574617.1875 4177271.25 316.720001221
574618 4177270.75 316.890014648
574618.5 4177271 316.779998779
574619.3125 4177271 317
574619.75 4177270.75 316.75
574620.625 4177270.75 316.790008545
574621.0625 4177271.25 316.730010986
574633.25 4177271.25 316.809997559
574676.125 4177271 318.239990234
574676.5625 4177271 318.579986572
574677.3125 4177270.75 318.350006104
574678.5 4177271 318.459991455
574678.9375 4177271 318.339996338
574679.75 4177271 318.029998779
574680.25 4177270.75 317.570007324
574681.0625 4177271 316.959991455
574740.875 4177271 318.029998779
574741.6875 4177270.75 317.769989014
574742.1875 4177270.75 317.799987793
574743 4177271 317.829986572
574743.5 4177270.75 317.470001221
574744.3125 4177271 317.760009766
574744.8125 4177271.25 317.369995117
574745.625 4177271 317.369995117
574746.0625 4177271 317.100006104
574746.9375 4177271.25 316.970001221
574747.375 4177271 316.829986572
574748.1875 4177271.25 316.720001221
574748.625 4177271 316.589996338
574749.4375 4177271 316.880004883
574749.9375 4177271.25 316.269989014
574750.75 4177271 316.320007324
574751.1875 4177271 316.399993896
574612.8125 4177271.25 316.880004883
574613.3125 4177271.75 316.910003662
574614.125 4177271.5 316.630004883
574614.625 4177271.5 316.609985352
574615.4375 4177271.5 316.720001221
574615.9375 4177271.5 316.709991455
574616.75 4177271.25 316.739990234
574617.25 4177271.75 316.510009766
574618.0625 4177271.5 317.010009766
574618.5 4177271.5 316.890014648
574619.3125 4177271.5 317.170013428
574619.8125 4177271.25 316.799987793
574620.6875 4177271.5 316.720001221
574621.125 4177271.75 316.720001221
574633.3125 4177271.75 316.649993896
574676.6875 4177271.5 317.119995117
574677.375 4177271.25 318.390014648
574677.4375 4177271.75 317.609985352
574678.5625 4177271.5 318.320007324
574679 4177271.5 318.279998779
574679.875 4177271.5 317.779998779
574680.25 4177271.25 317.739990234
574740.4375 4177271.25 317.989990234
574740.9375 4177271.5 317.959991455
574741.75 4177271.5 317.940002441
574742.25 4177271.5 317.859985352
574743.0625 4177271.5 317.709991455
574743.5625 4177271.25 317.429992676
574744.375 4177271.5 317.420013428
574744.875 4177271.75 317.540008545
574745.6875 4177271.75 317.420013428
574746.1875 4177271.5 316.929992676
574747 4177271.75 316.920013428
574747.4375 4177271.5 317.029998779
574748.25 4177271.75 316.820007324
574748.6875 4177271.5 316.630004883
574749.5625 4177271.5 316.570007324
574750 4177271.75 316.399993896
574750.8125 4177271.5 316.429992676
574612.875 4177272 317.049987793
574613.375 4177272.25 316.640014648
574614.125 4177272 317.100006104
574614.6875 4177272.25 316.690002441
574615.5 4177272 316.910003662
574615.9375 4177272 316.720001221
574616.75 4177271.75 316.920013428
574617.3125 4177272.25 316.769989014
574618.0625 4177272 316.929992676
574618.5625 4177272 316.839996338
574619.375 4177272 317.380004883
574619.875 4177271.75 316.640014648
574620.75 4177272 316.579986572
574621.1875 4177272.25 316.989990234
574632.125 4177272.25 316.600006104
574632.5625 4177272 316.640014648
574633.375 4177272.25 316.589996338
574633.8125 4177272 316.779998779
574634.625 4177272.25 316.790008545
574677.8125 4177272 318.510009766
574678.0625 4177272.25 315.779998779
574678.625 4177272 318.209991455
574679.0625 4177272 318.100006104
574679.9375 4177272 317.519989014
574680.375 4177271.75 317.079986572
574680.4375 4177272.25 316.779998779
574739.6875 4177272.25 317.980010986
574740.5 4177271.75 317.920013428
574740.5 4177272.5 317.959991455
574741 4177272 317.899993896
574741.8125 4177272 317.839996338
574742.25 4177272 317.779998779
574743.125 4177272 317.760009766
574743.5625 4177271.75 317.75
574743.625 4177272.5 317.779998779
574744.4375 4177272.25 317.579986572
574744.9375 4177272.25 317.410003662
574745.75 4177272.25 317.290008545
574746.25 4177272 316.899993896
574747 4177272.25 316.950012207
574747.5 4177272.25 316.880004883
574748.3125 4177272.25 316.899993896
574748.75 4177272 316.630004883
574749.5625 4177272.25 316.679992676
574750.0625 4177272.25 316.5
574750.875 4177272.25 316.480010986
574600.375 4177273 316.829986572
574612.9375 4177272.5 316.970001221
574613.4375 4177272.75 316.880004883
574614.1875 4177272.75 317.239990234
574614.6875 4177272.75 316.910003662
574615.5 4177272.5 316.850006104
574616 4177272.5 316.75
574616.8125 4177272.5 316.910003662
574617.375 4177273 316.709991455
574618.125 4177272.5 316.959991455
574618.625 4177272.75 316.720001221
574619.4375 4177272.5 316.679992676
574619.9375 4177272.5 316.850006104
574620.75 4177272.5 316.970001221
574621.25 4177272.75 316.660003662
574632.1875 4177273 316.880004883
574632.625 4177272.5 316.720001221
574633.4375 4177272.75 316.609985352
574633.875 4177272.5 316.779998779
574634.6875 4177273 316.739990234
574635.125 4177273 316.630004883
574635.9375 4177273 316.630004883
574678.6875 4177272.5 317.850006104
574679.125 4177272.5 317.640014648
574680 4177272.5 317.100006104
574739.25 4177273 317.929992676
574739.75 4177272.75 317.950012207
574740.5625 4177273 317.980010986
574741 4177272.75 317.929992676
574741.875 4177272.5 317.660003662
574742.375 4177272.5 317.529998779
574743.1875 4177272.75 317.829986572
574743.6875 4177273 317.359985352
574744.5 4177272.75 317.350006104
574745 4177272.75 317.320007324
574745.8125 4177272.75 317.170013428
574746.25 4177272.75 316.959991455
574747.125 4177272.75 316.790008545
574747.5 4177272.75 316.950012207
574748.375 4177273 316.880004883
574748.8125 4177272.5 316.510009766
574749.625 4177272.75 316.690002441
574750.125 4177272.75 316.519989014
574750.9375 4177272.75 316.410003662
574599.9375 4177273.25 316.630004883
574600.4375 4177273.5 316.75
574601.25 4177273.25 316.760009766
574612.9375 4177273 316.869995117
574613.4375 4177273.25 317.130004883
574614.25 4177273.25 317.309997559
574614.75 4177273.25 317
574615.5625 4177273.25 316.880004883
574616.0625 4177273 316.670013428
574616.875 4177273 316.970001221
574616.875 4177273.5 317.070007324
574617.375 4177273.5 316.709991455
574618.1875 4177273 316.859985352
574618.6875 4177273.25 317.059997559
574619.5 4177273.25 317.070007324
574619.9375 4177273 316.779998779
574620 4177273.5 316.859985352
574620.75 4177273 317.140014648
574621.25 4177273.5 316.980010986
574631.4375 4177273.5 316.700012207
574632.1875 4177273.5 316.850006104
574632.6875 4177273.25 316.859985352
574633.5 4177273.5 316.75
574633.875 4177273 316.769989014
574634.6875 4177273.5 316.920013428
574635.1875 4177273.5 316.779998779
574636 4177273.5 316.799987793
574636.5 4177273.25 316.309997559
574679.25 4177273 317.369995117
574739.3125 4177273.5 317.959991455
574739.8125 4177273.25 317.989990234
574740.625 4177273.5 317.959991455
574741.0625 4177273.25 317.829986572
574741.9375 4177273 317.649993896
574742.4375 4177273 317.429992676
574743.25 4177273.25 317.690002441
574743.75 4177273.5 317.269989014
574744.5625 4177273.25 317.239990234
574745.0625 4177273.25 317.179992676
574745.875 4177273.25 317
574746.3125 4177273.25 317.140014648
574747.1875 4177273.25 316.700012207
574747.5625 4177273.25 317.010009766
574748.4375 4177273.5 316.859985352
574748.875 4177273.25 316.679992676
574749.75 4177273.25 316.359985352
574750.1875 4177273.5 316.510009766
574600 4177273.75 316.619995117
574600.5 4177274 316.739990234
574601.3125 4177273.75 316.859985352
574601.8125 4177274 316.799987793
574613 4177273.5 316.890014648
574613.5 4177274 316.929992676
574614.25 4177273.75 317.450012207
574614.75 4177274 317.130004883
574615.625 4177273.75 316.970001221
574616.0625 4177273.75 316.899993896
574618.25 4177273.75 316.899993896
574618.6875 4177273.75 317.100006104
574619.5 4177273.75 317.029998779
574620.8125 4177273.75 317.079986572
574631 4177274 316.850006104
574631.5 4177274 316.769989014
574632.25 4177274 316.820007324
574632.75 4177273.75 316.640014648
574633.5 4177274 316.730010986
574633.9375 4177273.75 316.799987793
574634.75 4177274 316.739990234
574635.25 4177274 316.760009766
574636 4177274 316.799987793
574636.5 4177274 316.459991455
574637.25 4177274.25 316.75
574739.875 4177273.75 317.920013428
574740.6875 4177274 317.950012207
574741.125 4177273.75 317.75
574742 4177273.75 317.850006104
574742.4375 4177273.5 317.570007324
574742.5 4177274.25 317.459991455
574743.3125 4177273.75 317.670013428
574743.8125 4177274 317.220001221
574744.5625 4177273.75 317.440002441
574745.125 4177274 316.989990234
574745.875 4177274 317.209991455
574746.375 4177273.75 317.089996338
574747.1875 4177274 316.910003662
574747.6875 4177273.75 316.779998779
574748.5 4177274 316.600006104
574748.9375 4177273.75 316.570007324
574749.75 4177273.75 316.609985352
574750.25 4177274 316.429992676
574598.75 4177274.25 316.630004883
574599.1875 4177274.25 316.570007324
574600.0625 4177274.5 316.660003662
574600.5 4177274.75 316.809997559
574601.375 4177274.5 316.600006104
574601.8125 4177274.5 317.059997559
574631.0625 4177274.5 317.070007324
574631.5 4177274.5 316.649993896
574632.3125 4177274.75 316.799987793
574632.75 4177274.25 316.809997559
574633.5625 4177274.5 316.660003662
574634 4177274.25 316.839996338
574634.8125 4177274.5 316.570007324
574635.3125 4177274.5 316.489990234
574636.0625 4177274.5 316.649993896
574636.5625 4177274.5 316.739990234
574637.3125 4177274.75 316.859985352
574637.75 4177274.25 316.700012207
574638.5625 4177274.75 316.619995117
574739.875 4177274.5 317.929992676
574740.75 4177274.75 317.880004883
574741.1875 4177274.25 317.609985352
574742.0625 4177274.25 317.5
574742.5625 4177274.75 317.519989014
574743.375 4177274.25 317.410003662
574743.875 4177274.5 317.410003662
574744.625 4177274.5 317.5
574745.1875 4177274.5 317.100006104
574745.9375 4177274.5 317.190002441
574746.4375 4177274.5 316.899993896
574747.25 4177274.5 316.899993896
574747.6875 4177274.5 316.910003662
574748.5625 4177274.5 316.609985352
574749 4177274.25 316.649993896
574749.8125 4177274.5 316.709991455
574750.25 4177274.5 316.510009766
574597.9375 4177275 316.320007324
574598.75 4177275 316.739990234
574599.25 4177274.75 316.559997559
574600.0625 4177275 316.880004883
574600.5625 4177275.25 316.720001221
574601.375 4177275 316.679992676
574601.875 4177275 316.929992676
574602.75 4177275.25 316.829986572
574630.3125 4177275.25 317.070007324
574631.0625 4177275.25 317.350006104
574631.5625 4177275 316.690002441
574632.3125 4177275.25 316.959991455
574632.8125 4177274.75 316.579986572
574633.5625 4177275.25 316.959991455
574634 4177274.75 316.869995117
574634.0625 4177275.25 316.790008545
574634.875 4177275.25 316.489990234
574635.375 4177275.25 316.489990234
574636.125 4177275.25 316.890014648
574636.5625 4177275 316.760009766
574637.375 4177275.25 316.820007324
574637.8125 4177275 316.869995117
574638.625 4177275.25 316.709991455
574639.0625 4177275.25 316.619995117
574739.9375 4177275 318.029998779
574740.8125 4177275.25 317.989990234
574741.25 4177274.75 317.75
574742.125 4177274.75 317.459991455
574742.1875 4177275.25 317.489990234
574742.625 4177275.25 317.579986572
574743.4375 4177275 317.489990234
574743.9375 4177275.25 317.290008545
574744.6875 4177275 317.320007324
574745.1875 4177275 317.160003662
574746 4177275 317.200012207
574746.5 4177275 316.839996338
574747.3125 4177275 316.880004883
574747.75 4177275 316.850006104
574748.5625 4177275 316.690002441
574749.0625 4177274.75 316.549987793
574749.875 4177275 316.779998779
574750.3125 4177275 316.429992676
574597.5 4177275.5 316.700012207
574598 4177275.5 316.579986572
574598.8125 4177275.5 316.910003662
574599.25 4177275.5 316.769989014
574600.125 4177275.5 316.630004883
574600.625 4177275.75 316.670013428
574601.4375 4177275.5 316.790008545
574601.9375 4177275.5 316.910003662
574602.75 4177275.75 316.790008545
574603.25 4177275.5 316.579986572
574629.875 4177275.75 317.089996338
574630.375 4177275.75 316.989990234
574631.125 4177275.75 317.309997559
574631.625 4177275.75 316.739990234
574632.375 4177275.75 316.869995117
574632.875 4177275.5 316.640014648
574633.625 4177275.75 316.959991455
574634.125 4177276 316.839996338
574634.9375 4177275.75 316.709991455
574635.375 4177275.75 316.600006104
574636.1875 4177275.75 316.760009766
574636.625 4177275.5 316.700012207
574637.4375 4177275.75 316.709991455
574637.875 4177275.5 316.760009766
574638.6875 4177275.75 316.619995117
574639.125 4177275.75 316.829986572
574639.9375 4177276 316.660003662
574738.25 4177275.75 318
574740 4177275.5 317.859985352
574740.875 4177275.75 318.019989014
574741.3125 4177275.5 317.940002441
574742.1875 4177276 317.679992676
574742.6875 4177275.75 317.619995117
574743.5 4177275.5 317.369995117
574744 4177275.75 317.160003662
574744.75 4177275.5 317.230010986
574745.25 4177275.5 317.059997559
574746.0625 4177275.5 316.929992676
574746.5625 4177275.5 316.779998779
574747.375 4177275.5 316.589996338
574747.8125 4177275.5 316.790008545
574748.625 4177275.75 316.679992676
574749.0625 4177275.5 316.589996338
574749.9375 4177275.5 316.450012207
574596.6875 4177276.25 317.100006104
574597.5625 4177276 316.579986572
574598 4177276 316.739990234
574598.8125 4177276 316.890014648
574599.3125 4177276 316.779998779
574599.375 4177276.5 316.920013428
574600.1875 4177276 316.679992676
574600.6875 4177276.25 316.679992676
574601.5 4177276 316.679992676
574602 4177276.25 316.730010986
574602.8125 4177276.25 316.779998779
574603.25 4177276 316.670013428
574629.9375 4177276.25 317.140014648
574630.375 4177276.5 317.049987793
574631.1875 4177276.25 316.989990234
574631.625 4177276.25 316.959991455
574632.4375 4177276.25 316.970001221
574632.875 4177276 316.839996338
574633.6875 4177276.25 316.890014648
574634.1875 4177276.5 316.75
574634.9375 4177276.25 316.690002441
574635.4375 4177276.25 316.869995117
574636.1875 4177276.25 316.839996338
574636.6875 4177276.25 316.940002441
574637.5 4177276.25 316.600006104
574637.875 4177276 316.790008545
574638.6875 4177276.5 316.890014648
574639.1875 4177276.5 316.660003662
574640 4177276.5 316.760009766
574738.25 4177276.25 317.980010986
574738.75 4177276.25 317.839996338
574739.5625 4177276.25 317.970001221
574740.0625 4177276 317.790008545
574740.9375 4177276.25 317.839996338
574741.375 4177276 317.820007324
574742.25 4177276.5 317.739990234
574742.75 4177276.5 317.540008545
574743.5 4177276 317.410003662
574744 4177276.25 317.5
574744.8125 4177276 317.140014648
574745.3125 4177276.25 316.929992676
574746.125 4177276 316.779998779
574746.625 4177276 316.670013428
574747.4375 4177276.25 316.649993896
574747.875 4177276 316.670013428
574748.75 4177276.25 316.390014648
574749.1875 4177276 316.429992676
574749.25 4177276.5 316.309997559
574750 4177276 316.019989014
574596.25 4177276.5 316.760009766
574596.75 4177276.75 316.959991455
574597.5625 4177276.75 316.880004883
574598.0625 4177276.5 316.630004883
574598.875 4177276.75 316.859985352
574599.4375 4177277 316.839996338
574600.1875 4177276.75 316.989990234
574600.6875 4177277 316.799987793
574601.5625 4177276.75 316.600006104
574602 4177276.75 316.739990234
574602.875 4177276.75 316.920013428
574603.3125 4177276.5 316.600006104
574604.125 4177276.5 316.799987793
574631.25 4177276.75 316.950012207
574631.6875 4177276.75 317.059997559
574632.5 4177277 316.890014648
574632.9375 4177276.5 317.010009766
574633.75 4177276.75 316.899993896
574634.25 4177277 316.679992676
574635 4177276.75 316.660003662
574635.4375 4177276.75 316.850006104
574636.25 4177276.75 316.880004883
574636.75 4177276.75 316.790008545
574637.5 4177277 316.660003662
574637.9375 4177276.75 316.739990234
574638.75 4177277 317.019989014
574639.1875 4177277 316.890014648
574739.625 4177276.75 317.929992676
574740.125 4177276.75 317.859985352
574741 4177276.75 317.559997559
574741.4375 4177276.5 317.820007324
574741.5 4177277 317.399993896
574742.3125 4177277 317.290008545
574742.8125 4177277 317.429992676
574743.5625 4177276.5 317.579986572
574744.125 4177276.75 316.959991455
574744.875 4177276.5 316.970001221
574745.375 4177276.75 316.820007324
574746.1875 4177276.75 316.920013428
574746.625 4177276.75 316.989990234
574747.4375 4177276.75 317.119995117
574747.9375 4177276.5 316.649993896
574748.75 4177276.75 316.320007324
574749.3125 4177277 316.239990234
574595.0625 4177277.5 316.679992676
574595.5 4177277.25 316.790008545
574596.3125 4177277.25 316.649993896
574596.8125 4177277.25 316.829986572
574597.625 4177277.25 316.670013428
574598.125 4177277.25 316.700012207
574598.9375 4177277.25 316.760009766
574599.4375 4177277.75 316.850006104
574600.25 4177277.25 317.059997559
574600.75 4177277.5 316.779998779
574601.5625 4177277.25 316.809997559
574602.0625 4177277.25 316.809997559
574602.9375 4177277.5 316.690002441
574603.375 4177277.25 316.929992676
574604.1875 4177277.25 316.769989014
574631.75 4177277.5 317.070007324
574632.5625 4177277.5 316.690002441
574633 4177277 316.720001221
574633.75 4177277.5 316.940002441
574634.25 4177277.5 316.880004883
574635 4177277.5 317.059997559
574635.5 4177277.5 317.010009766
574636.3125 4177277.5 316.850006104
574636.75 4177277.25 316.859985352
574637.5625 4177277.5 316.799987793
574638 4177277.25 316.700012207
574638.8125 4177277.5 316.950012207
574639.25 4177277.5 316.760009766
574737.5625 4177277.5 318.040008545
574738.375 4177277.25 317.779998779
574738.875 4177277.25 317.920013428
574739.6875 4177277.5 317.890014648
574740.1875 4177277.25 317.570007324
574741 4177277.5 317.700012207
574741.5625 4177277.5 317.390014648
574742.375 4177277.5 317.279998779
574742.875 4177277.5 317.279998779
574743.625 4177277.25 317.299987793
574743.6875 4177277.75 317.25
574744.125 4177277.5 317.179992676
574744.9375 4177277.25 317.019989014
574745.4375 4177277.25 316.910003662
574746.25 4177277.25 316.700012207
574746.75 4177277.25 316.709991455
574747.5625 4177277.25 316.670013428
574748 4177277.25 316.290008545
574748.8125 4177277.25 316.410003662
574749.3125 4177277.5 316.329986572
574594.25 4177277.75 316.730010986
574595.125 4177278 316.559997559
574595.5625 4177278 316.899993896
574596.375 4177277.75 316.559997559
574596.8125 4177278 316.890014648
574597.6875 4177277.75 316.609985352
574598.1875 4177277.75 316.709991455
574599 4177277.75 316.570007324
574599.5 4177278.25 316.940002441
574600.3125 4177277.75 316.880004883
574600.8125 4177278 316.869995117
574601.625 4177277.75 316.799987793
574602.125 4177277.75 316.899993896
574602.9375 4177278 316.959991455
574603.375 4177277.75 317.070007324
574633 4177277.75 316.850006104
574633.0625 4177278.25 317.070007324
574633.8125 4177278 317.130004883
574634.3125 4177278.25 317.019989014
574635.0625 4177278 316.790008545
574635.5625 4177278 316.720001221
574636.3125 4177278 317.010009766
574636.8125 4177278 316.790008545
574637.5625 4177278 316.989990234
574638 4177277.75 316.859985352
574638.875 4177278 316.809997559
574737.625 4177278 317.980010986
574739.75 4177278 317.779998779
574740.25 4177277.75 317.779998779
574741.0625 4177278 317.619995117
574741.625 4177278.25 317.390014648
574742.4375 4177278.25 317.380004883
574742.9375 4177278 317.190002441
574743.75 4177278.25 317.260009766
574744.1875 4177278 317.170013428
574745 4177277.75 317.290008545
574745.5 4177277.75 316.720001221
574746.3125 4177277.75 316.920013428
574746.75 4177277.75 316.660003662
574746.875 4177278.25 316.459991455
574747.5625 4177277.75 316.690002441
574748.0625 4177277.75 316.390014648
574748.875 4177278 316.260009766
574594.25 4177278.25 317.239990234
574595.125 4177278.75 316.720001221
574595.5625 4177278.5 316.890014648
574596.375 4177278.25 316.630004883
574596.875 4177278.5 316.839996338
574597.6875 4177278.25 316.75
574598.1875 4177278.25 316.760009766
574599 4177278.25 316.779998779
574599.5625 4177278.75 316.670013428
574600.375 4177278.25 316.760009766
574600.875 4177278.75 316.910003662
574601.6875 4177278.25 316.779998779
574602.1875 4177278.5 316.799987793
574633.875 4177278.5 316.880004883
574634.375 4177278.75 317.029998779
574635.125 4177278.5 316.679992676
574635.625 4177278.5 316.649993896
574636.375 4177278.5 317.130004883
574636.8125 4177278.5 317.040008545
574637.625 4177278.75 316.850006104
574638.0625 4177278.25 316.970001221
574738.5 4177278.5 317.760009766
574739.8125 4177278.5 317.570007324
574740.3125 4177278.25 317.760009766
574740.375 4177278.75 317.609985352
574741.125 4177278.5 317.559997559
574741.6875 4177278.75 317.420013428
574742.5 4177278.75 317.160003662
574743 4177278.75 317.239990234
574743.8125 4177278.75 316.940002441
574744.3125 4177278.5 316.880004883
574745.0625 4177278.25 317.190002441
574745.125 4177278.75 317.119995117
574745.5625 4177278.5 316.890014648
574746.375 4177278.25 316.869995117
574746.875 4177278.75 316.600006104
574747.625 4177278.5 316.649993896
574748.125 4177278.25 316.619995117
574748.1875 4177278.75 316.380004883
574748.9375 4177278.5 316.260009766
574595.1875 4177279.25 316.809997559
574595.625 4177279 317.029998779
574596.4375 4177279 316.809997559
574596.5 4177279.5 316.859985352
574596.9375 4177279 316.609985352
574597.75 4177279 316.880004883
574598.25 4177279 316.910003662
574598.3125 4177279.5 316.869995117
574599.0625 4177279 316.820007324
574599.625 4177279.25 316.779998779
574600.375 4177279 316.839996338
574600.875 4177279.25 317.029998779
574601.6875 4177279 316.779998779
574602.1875 4177279 317
574635.1875 4177279 316.910003662
574635.625 4177279 316.859985352
574636.4375 4177279.25 316.970001221
574636.875 4177279 316.959991455
574637.6875 4177279.25 316.739990234
574638.125 4177279 316.720001221
574738.5625 4177279 317.670013428
574739 4177279 317.959991455
574739.875 4177279 317.600006104
574740.4375 4177279.5 317.709991455
574741.1875 4177279.25 317.600006104
574741.6875 4177279.25 317.489990234
574742.5625 4177279.25 317.25
574743 4177279.25 317.160003662
574743.875 4177279.25 317.079986572
574744.3125 4177279 317.130004883
574745.1875 4177279.5 316.850006104
574745.625 4177279 316.850006104
574746.4375 4177279 316.760009766
574746.5 4177279.5 316.459991455
574746.9375 4177279.5 316.450012207
574747.75 4177279 316.429992676
574748.25 4177279.5 316.269989014
574595.25 4177279.75 316.359985352
574595.6875 4177279.5 316.989990234
574596.5 4177280 316.970001221
574597 4177279.5 317.040008545
574597.75 4177279.5 316.970001221
574598.375 4177280 316.760009766
574599.125 4177279.5 316.809997559
574599.625 4177280 316.929992676
574600.4375 4177279.5 316.959991455
574600.9375 4177279.75 317.070007324
574635.6875 4177279.75 316.720001221
574636.5 4177279.75 316.839996338
574636.9375 4177279.5 316.929992676
574637.75 4177279.75 316.880004883
574736.5 4177279.75 318
574737.8125 4177279.75 317.75
574738.625 4177279.5 317.829986572
574739.125 4177279.5 317.600006104
574739.9375 4177279.75 317.75
574740.5 4177280 317.640014648
574741.25 4177279.75 317.529998779
574741.75 4177280 317.350006104
574742.625 4177279.75 317.25
574743.0625 4177279.75 317.260009766
574743.9375 4177280 317.089996338
574744.375 4177279.75 317.019989014
574745.25 4177280 316.869995117
574745.6875 4177279.5 316.899993896
574746.5625 4177280 316.489990234
574747 4177280 316.540008545
574747.75 4177279.5 316.459991455
574748.3125 4177280 316.220001221
574595.75 4177280.25 316.769989014
574596.5625 4177280.5 316.950012207
574597 4177280.25 316.790008545
574597.8125 4177280 317.089996338
574597.875 4177280.5 316.869995117
574598.375 4177280.5 316.929992676
574599.125 4177280 316.910003662
574599.6875 4177280.5 316.980010986
574600.4375 4177280 317.079986572
574636.5 4177280.25 316.779998779
574637 4177280.25 316.890014648
574736.5625 4177280.25 317.760009766
574737.3125 4177280.25 318.049987793
574737.875 4177280.25 317.880004883
574738.625 4177280.25 317.829986572
574739.1875 4177280 317.75
574740 4177280.25 317.470001221
574740.5625 4177280.5 317.459991455
574741.3125 4177280.25 317.350006104
574741.875 4177280.5 317.100006104
574742.6875 4177280.25 317.230010986
574743.125 4177280.25 317.220001221
574744 4177280.5 316.970001221
574744.4375 4177280.25 316.880004883
574745.3125 4177280.5 316.700012207
574745.75 4177280 316.890014648
574745.8125 4177280.5 316.75
574746.5625 4177280.5 316.579986572
574747.0625 4177280.5 316.579986572
574747.8125 4177280 316.540008545
574596.625 4177281.25 316.850006104
574597.0625 4177280.75 317.029998779
574597.9375 4177281.25 316.679992676
574598.4375 4177281.25 317
574599.1875 4177280.75 316.929992676
574599.25 4177281.25 316.730010986
574599.75 4177281 317.010009766
574637 4177280.75 317.140014648
574735.3125 4177281 318
574737.4375 4177280.75 317.769989014
574737.875 4177280.75 317.980010986
574738.6875 4177280.75 317.829986572
574739.1875 4177280.75 317.75
574739.25 4177281.25 317.570007324
574740.0625 4177280.75 317.380004883
574740.625 4177281 317.380004883
574741.375 4177280.75 317.130004883
574741.875 4177281 317.369995117
574742.75 4177281 317.119995117
574743.25 4177280.75 316.899993896
574744 4177281 316.959991455
574744.5 4177280.75 316.970001221
574745.375 4177281 316.649993896
574745.875 4177281.25 316.649993896
574746.625 4177281.25 316.489990234
574747.125 4177281 316.209991455
574747.875 4177280.75 316.320007324
574747.9375 4177281.25 316.399993896
574597.125 4177281.25 317.100006104
574598 4177281.75 316.829986572
574598.5 4177281.75 316.720001221
574734.0625 4177281.5 318.089996338
574734.875 4177281.75 317.959991455
574735.375 4177281.5 317.950012207
574736.125 4177281.25 318.040008545
574736.1875 4177281.75 317.779998779
574736.6875 4177281.5 317.920013428
574737.4375 4177281.25 317.920013428
574737.5 4177281.75 317.760009766
574738 4177281.25 317.75
574738.75 4177281.25 317.779998779
574738.8125 4177281.75 317.510009766
574739.3125 4177281.75 317.519989014
574740.125 4177281.25 317.570007324
574740.625 4177281.5 317.329986572
574741.4375 4177281.25 317.149993896
574741.9375 4177281.5 317.059997559
574742.75 4177281.5 317.140014648
574743.25 4177281.5 316.929992676
574744.0625 4177281.5 317.010009766
574744.5625 4177281.25 316.739990234
574745.375 4177281.5 316.619995117
574745.875 4177281.75 316.660003662
574746.6875 4177281.75 316.549987793
574747.1875 4177281.5 316.179992676
574597.1875 4177281.75 316.980010986
574598 4177282.25 316.859985352
574734.9375 4177282.25 318.049987793
574735.4375 4177282 317.779998779
574736.25 4177282.25 318.019989014
574736.75 4177282 317.929992676
574737.5625 4177282.25 317.609985352
574738.0625 4177281.75 317.609985352
574738.875 4177282.25 317.480010986
574739.375 4177282.25 317.540008545
574740.1875 4177281.75 317.140014648
574740.75 4177282.25 317.100006104
574741.5 4177282 317.089996338
574742 4177282 316.929992676
574742.8125 4177282 316.950012207
574743.3125 4177282 316.959991455
574744.1875 4177282.25 316.700012207
574744.625 4177281.75 316.690002441
574745.4375 4177282.25 316.660003662
574746 4177282.25 316.459991455
574746.75 4177282.25 316.350006104
574747.25 4177282.25 316.239990234
574597.1875 4177282.5 316.970001221
574732.875 4177282.75 318
574733.6875 4177282.75 318.019989014
574734.125 4177282.75 318.040008545
574735 4177282.75 317.989990234
574735.5 4177282.5 317.730010986
574736.3125 4177282.75 317.660003662
574736.75 4177282.5 317.820007324
574737.625 4177283 317.660003662
574738.0625 4177282.5 317.529998779
574738.9375 4177283 317.25
574739.4375 4177282.75 317.420013428
574740.25 4177282.5 317.179992676
574740.3125 4177283 317.109985352
574740.75 4177282.75 317.190002441
574741.5625 4177282.5 317.059997559
574742.0625 4177282.75 317.040008545
574742.9375 4177282.5 316.779998779
574743.375 4177282.5 317.049987793
574744.1875 4177282.75 316.850006104
574744.6875 4177282.5 316.829986572
574744.75 4177283 316.709991455
574745.5 4177282.75 316.809997559
574746 4177282.75 316.609985352
574746.8125 4177282.75 316.279998779
574732.9375 4177283.25 317.959991455
574733.75 4177283.25 318.029998779
574734.1875 4177283.25 318.040008545
574735.0625 4177283.25 317.980010986
574735.5 4177283.25 317.950012207
574736.375 4177283.5 317.690002441
574736.875 4177283 317.489990234
574737.6875 4177283.5 317.760009766
574738.125 4177283 317.769989014
574738.1875 4177283.5 317.640014648
574739 4177283.5 317.179992676
574739.5 4177283.5 317.309997559
574740.3125 4177283.5 317.329986572
574740.8125 4177283.25 317.260009766
574741.625 4177283 317.149993896
574741.6875 4177283.5 316.890014648
574742.125 4177283.25 316.980010986
574742.9375 4177283.25 316.920013428
574743.4375 4177283 316.959991455
574744.25 4177283.25 316.809997559
574744.8125 4177283.5 316.709991455
574745.5625 4177283.25 316.619995117
574746.0625 4177283.5 316.410003662
574733.75 4177283.75 318.010009766
574734.25 4177283.75 317.989990234
574735.125 4177284 317.769989014
574735.5625 4177283.75 318.010009766
574736.4375 4177284 317.640014648
574736.9375 4177283.75 317.529998779
574737.75 4177284 317.339996338
574738.25 4177284 317.239990234
574739.0625 4177284 317.339996338
574739.5625 4177284 317.350006104
574740.375 4177284 317.239990234
574740.875 4177283.75 317.279998779
574741.75 4177284 316.970001221
574742.1875 4177283.75 316.899993896
574743 4177283.75 316.959991455
574743.5 4177283.75 316.769989014
574744.3125 4177283.75 316.510009766
574744.875 4177284 316.489990234
574745.625 4177283.75 316.619995117
574746.125 4177284 316.320007324
574733 4177284.5 317.869995117
574734.3125 4177284.25 317.899993896
574735.125 4177284.5 317.910003662
574735.625 4177284.25 317.859985352
574736.5 4177284.5 317.529998779
574737 4177284.25 317.279998779
574737.8125 4177284.5 317.600006104
574738.3125 4177284.75 317.149993896
574739.125 4177284.5 317.329986572
574739.625 4177284.5 317.299987793
574740.4375 4177284.75 317.25
574740.9375 4177284.5 317.049987793
574741.75 4177284.75 317.040008545
574742.25 4177284.25 316.760009766
574743.0625 4177284.25 316.989990234
574743.5625 4177284.25 316.559997559
574743.625 4177284.75 316.630004883
574744.375 4177284.25 316.480010986
574744.9375 4177284.5 316.380004883
574745.6875 4177284.5 316.410003662
574746.1875 4177284.5 316.230010986
574731.75 4177285 318.019989014
574732.5625 4177284.75 318.049987793
574733.875 4177285 318.040008545
574734.375 4177285 317.809997559
574735.1875 4177285 317.769989014
574735.6875 4177284.75 317.670013428
574736.5625 4177285 317.549987793
574737 4177284.75 317.420013428
574737.875 4177285 317.170013428
574738.375 4177285.25 317.260009766
574739.1875 4177285.25 317.209991455
574739.6875 4177285 317.100006104
574740.5 4177285.25 317.160003662
574741 4177285 316.850006104
574741.8125 4177285.25 316.940002441
574742.3125 4177285 316.850006104
574743.125 4177284.75 316.910003662
574743.6875 4177285.25 316.600006104
574744.4375 4177285 316.579986572
574745 4177285.25 316.350006104
574745.75 4177285 316.25
574728.75 4177285.5 318.119995117
574730.5 4177285.5 318.109985352
574731.8125 4177285.5 318.040008545
574732.625 4177285.25 318.049987793
574732.6875 4177286 317.910003662
574733.125 4177285.5 317.850006104
574733.9375 4177285.5 317.959991455
574734.4375 4177285.5 317.820007324
574735.25 4177285.5 317.660003662
574735.75 4177285.5 317.75
574736.625 4177285.75 317.329986572
574737.0625 4177285.25 317.339996338
574737.125 4177286 317.269989014
574737.9375 4177285.75 317.220001221
574738.4375 4177285.75 317.279998779
574739.25 4177285.75 317.059997559
574739.75 4177285.75 317.049987793
574740.5625 4177285.75 317.079986572
574741.0625 4177285.5 316.809997559
574741.9375 4177285.75 316.700012207
574742.375 4177285.5 316.679992676
574743.1875 4177285.5 316.760009766
574743.25 4177286 316.470001221
574743.75 4177285.75 316.480010986
574744.5 4177285.5 316.630004883
574745.0625 4177285.75 316.299987793
574745.875 4177285.5 315.25
574728.75 4177286.25 318.109985352
574730.0625 4177286.25 318.049987793
574730.5625 4177286 317.959991455
574731.375 4177286.25 317.760009766
574731.875 4177286.25 317.850006104
574732.6875 4177286.5 317.989990234
574733.1875 4177286 317.660003662
574734 4177286 317.540008545
574734.5 4177286 317.720001221
574735.3125 4177286 317.459991455
574735.8125 4177286 317.549987793
574735.875 4177286.5 317.25
574736.6875 4177286.25 317.329986572
574737.1875 4177286.5 317.200012207
574738 4177286.25 317.130004883
574738.5 4177286.25 317.149993896
574739.3125 4177286.25 317.119995117
574739.8125 4177286.25 317.109985352
574740.625 4177286.25 316.75
574741.125 4177286 316.660003662
574741.9375 4177286.25 316.649993896
574742.4375 4177286 316.829986572
574743.3125 4177286.5 316.609985352
574743.8125 4177286.5 316.450012207
574744.5625 4177286 316.359985352
574746 4177286 314.649993896
574747.0625 4177286.25 317.440002441
574730.125 4177286.75 317.940002441
574730.625 4177286.75 317.880004883
574731.4375 4177286.75 317.829986572
574731.9375 4177286.75 317.950012207
574732.75 4177287 317.929992676
574733.25 4177286.5 317.570007324
574734.0625 4177286.5 317.609985352
574734.125 4177287 317.369995117
574734.5625 4177286.5 317.709991455
574734.625 4177287 317.470001221
574735.375 4177286.75 317.570007324
574735.9375 4177287 317.269989014
574736.75 4177286.75 317.109985352
574737.25 4177287 317.200012207
574738 4177286.75 317.269989014
574738.5625 4177287 317.230010986
574739.375 4177286.75 317.010009766
574739.875 4177286.75 316.899993896
574740.6875 4177286.75 316.690002441
574741.1875 4177286.5 316.709991455
574742 4177287 316.559997559
574742.5 4177286.5 316.579986572
574743.3125 4177287 316.850006104
574743.875 4177287 316.480010986
574744.625 4177286.5 316.239990234
574747.1875 4177286.75 316.350006104
574725.5625 4177287.5 317.950012207
574727.625 4177287.25 318.059997559
574728.125 4177287.5 317.970001221
574728.875 4177287.25 317.950012207
574729.4375 4177287.5 317.839996338
574730.1875 4177287.25 317.679992676
574731.5 4177287.25 317.730010986
574732 4177287.25 317.959991455
574732.875 4177287.5 317.540008545
574733.3125 4177287.25 317.619995117
574734.1875 4177287.5 317.260009766
574734.6875 4177287.75 317.339996338
574735.4375 4177287.25 317.589996338
574736 4177287.5 317.290008545
574736.75 4177287.25 317.179992676
574737.3125 4177287.5 317.359985352
574738.125 4177287.25 317.049987793
574738.625 4177287.5 317.179992676
574739.375 4177287.25 317.109985352
574739.9375 4177287.25 316.890014648
574740.75 4177287.5 316.899993896
574741.25 4177287.25 316.640014648
574742.0625 4177287.5 316.510009766
574742.5 4177287.25 316.850006104
574743.375 4177287.5 316.739990234
574743.875 4177287.5 316.459991455
574725.75 4177288 316.589996338
574726.875 4177288 318.130004883
574727.6875 4177287.75 317.950012207
574728.1875 4177288 318.029998779
574728.9375 4177287.75 317.850006104
574729.5 4177288 317.709991455
574730.25 4177287.75 317.779998779
574730.75 4177287.75 317.730010986
574731.5625 4177288 317.739990234
574732.0625 4177287.75 317.910003662
574732.9375 4177288 317.480010986
574733.375 4177287.75 317.690002441
574734.25 4177288.25 317.459991455
574734.75 4177288.25 317.25
574735.5 4177287.75 317.299987793
574736.0625 4177288.25 317.359985352
574736.875 4177287.75 316.950012207
574737.375 4177288.25 317.299987793
574738.125 4177288 316.980010986
574738.6875 4177288 316.890014648
574739.4375 4177288 316.920013428
574740 4177287.75 316.899993896
574740.8125 4177288 316.690002441
574741.3125 4177287.75 316.769989014
574742.125 4177288 316.799987793
574742.5625 4177287.75 316.839996338
574742.6875 4177288.25 316.359985352
574743.5 4177288 316.029998779
574587 4177288.5 316.239990234
574587.4375 4177288.25 316.600006104
574587.5 4177288.75 316.589996338
574588.25 4177288.5 316.649993896
574588.75 4177288.75 316.720001221
574589.5 4177288.75 316.600006104
574727.75 4177288.25 317.899993896
574729 4177288.5 318.059997559
574729.5 4177288.5 317.869995117
574730.3125 4177288.5 317.630004883
574730.8125 4177288.25 317.890014648
574731.625 4177288.5 317.730010986
574732.125 4177288.25 317.709991455
574733 4177288.75 317.160003662
574733.4375 4177288.25 317.519989014
574733.5 4177288.75 317.190002441
574734.3125 4177288.75 317.420013428
574734.8125 4177288.75 317.359985352
574735.5625 4177288.25 317.260009766
574736.125 4177288.75 317.329986572
574736.9375 4177288.5 316.970001221
574737.4375 4177288.75 317.190002441
574738.25 4177288.5 316.850006104
574738.75 4177288.5 316.899993896
574739.5 4177288.5 316.739990234
574740 4177288.5 316.929992676
574740.875 4177288.5 316.570007324
574741.375 4177288.25 316.730010986
574741.4375 4177288.75 316.519989014
574742.1875 4177288.5 316.660003662
