# .PCD v.7 - Point Cloud Data file format
VERSION .7
FIELDS x y z
SIZE 4 4 4
TYPE F F F
COUNT 1 1 1
WIDTH 114
HEIGHT 1
VIEWPOINT 0 0 0 1 0 0 0
POINTS 114
DATA ascii
574803.6875 4177130.5 322.510009766
574802.3125 4177131 322.279998779
574802.375 4177131.25 324.25
574803.75 4177131.25 322.450012207
574803.8125 4177130.75 323.029998779
574803.875 4177131.25 322.929992676
574802.3125 4177131.75 323.489990234
574802.5 4177131.5 323.179992676
574803.75 4177131.75 322.279998779
574803.9375 4177131.5 322.329986572
574805.3125 4177132 320.410003662
574805.4375 4177131.75 321.019989014
574802.5 4177132 323.670013428
574803.75 4177132.5 323.010009766
574804 4177132.25 322.579986572
574804.125 4177132.25 321.380004883
574805.5 4177132.25 321.049987793
574802.3125 4177132.5 323.880004883
574802.5 4177132.75 324.209991455
574803.875 4177132.75 322.149993896
574805.375 4177132.5 320.779998779
574805.5625 4177132.75 320.760009766
574801.125 4177133.25 324.339996338
574802.3125 4177133.25 324.510009766
574802.5 4177133.5 323.239990234
574802.5 4177133.25 324.570007324
574802.625 4177133.5 323.670013428
574802.75 4177133.75 322.540008545
574804 4177133.5 324.130004883
574805.375 4177133.25 321.040008545
574805.5625 4177133.25 320.970001221
574802.5625 4177133.75 322.350006104
574802.8125 4177134.25 322.480010986
574803.8125 4177133.75 323.890014648
574804.0625 4177134 323.739990234
574805.4375 4177133.75 321.029998779
574805.625 4177133.75 321.079986572
574805.6875 4177134.25 321.029998779
574799.75 4177134.5 323.149993896
574799.9375 4177134.75 323.5
574801.125 4177134.75 323.609985352
574801.4375 4177134.75 322.640014648
574802.625 4177134.5 322.739990234
574802.8125 4177134.75 323.079986572
574803.8125 4177134.5 324.700012207
574804 4177134.75 325.059997559
574805.6875 4177134.75 321.489990234
574806.9375 4177134.75 320.579986572
574800.0625 4177135 322.959991455
574800.125 4177135.25 321.970001221
574801.25 4177135.25 323.100006104
574801.4375 4177135.25 323.070007324
574802.6875 4177135 322.260009766
574802.75 4177135.5 321.790008545
574802.9375 4177135 321.809997559
574803 4177135.25 320.929992676
574803.9375 4177135 324.260009766
574804 4177135.25 323.299987793
574804.0625 4177135.25 324.700012207
574804.1875 4177135.5 323.690002441
574805.5 4177135 321.730010986
574805.9375 4177135.25 319.570007324
574807.125 4177135 320.619995117
574799.125 4177135.75 318.100006104
574800.125 4177135.5 320.459991455
574800.1875 4177135.75 321.75
574800.25 4177135.75 319.260009766
574800.375 4177135.75 320.160003662
574801.25 4177135.75 323.100006104
574801.5 4177135.75 322.869995117
574802.875 4177135.75 320.790008545
574804.25 4177136 323.630004883
574805.5 4177135.75 322.109985352
574805.6875 4177136 320.339996338
574805.6875 4177135.5 321.980010986
574799.125 4177136.25 318.660003662
574800.4375 4177136 319.609985352
574801.3125 4177136.25 323.320007324
574801.4375 4177136.5 321.890014648
574801.5625 4177136.25 322.660003662
574801.6875 4177136.25 321.339996338
574802.875 4177136.5 323.709991455
574802.9375 4177136.5 321.170013428
574803.125 4177136.25 321.279998779
574803.25 4177136.25 319.320007324
574804 4177136.25 324.239990234
574804.25 4177136.5 324.140014648
574804.5 4177136.5 319.230010986
574805.875 4177136.25 321.049987793
574799.125 4177137 319.660003662
574800.3125 4177137 319.690002441
574801.5 4177137 321.649993896
574801.6875 4177137 321.959991455
574803 4177136.75 320.239990234
574803.25 4177137 320.230010986
574804.0625 4177136.75 324.540008545
574804.1875 4177137.25 323.470001221
574804.25 4177137 324.570007324
574804.625 4177137 320.329986572
574805.6875 4177136.75 321.549987793
574805.875 4177136.75 321.309997559
574800.375 4177137.75 321.989990234
574800.4375 4177137.5 318.670013428
574801.5625 4177137.75 321.820007324
574801.75 4177137.5 321.519989014
574804.375 4177137.5 323.809997559
574804.5 4177137.25 319.609985352
574804.6875 4177137.5 319.910003662
574805.9375 4177137.25 321.410003662
574801.6875 4177138 320.5
574801.8125 4177137.75 321.309997559
574801.9375 4177138.25 320.670013428
574804.75 4177138 320
574801.75 4177138.5 320.119995117
