# .PCD v.7 - Point Cloud Data file format
VERSION .7
FIELDS x y z
SIZE 4 4 4
TYPE F F F
COUNT 1 1 1
WIDTH 145
HEIGHT 1
VIEWPOINT 0 0 0 1 0 0 0
POINTS 145
DATA ascii
574813.9375 4177289.5 325.390014648
574814.8125 4177289 324.959991455
574815.3125 4177289.25 325.019989014
574816.1875 4177289 324.959991455
574816.6875 4177289.25 325.510009766
574813.9375 4177290 326.109985352
574814.8125 4177289.75 325.600006104
574815.3125 4177289.75 325.660003662
574816.125 4177289.75 325.880004883
574816.6875 4177289.75 325.450012207
574813.3125 4177290.25 327.130004883
574814 4177290.5 326.239990234
574814.8125 4177290.25 326.179992676
574815.3125 4177290.5 326.309997559
574816.1875 4177290.25 325.779998779
574816.6875 4177290.5 326.190002441
574813.4375 4177290.75 326.589996338
574813.75 4177291 323.029998779
574814 4177291.25 326.660003662
574814.875 4177290.75 326.070007324
574815.375 4177291 326.470001221
574816.3125 4177290.75 325.260009766
574816.8125 4177290.75 325.230010986
574813 4177291.5 323.040008545
574813.75 4177291.75 323.540008545
574814 4177291.75 327.290008545
574815.3125 4177291.75 327.489990234
574816.3125 4177291.25 325.549987793
574816.9375 4177291.25 324.649993896
574812.5625 4177292 322.230010986
574813 4177292 323.220001221
574813.75 4177292.25 324.459991455
574814 4177292.5 327.589996338
574814.875 4177292 326.959991455
574815.4375 4177292.25 327.320007324
574816.3125 4177292 326.290008545
574817 4177292 324.690002441
574812.875 4177292.75 325.720001221
574813.8125 4177292.75 324.670013428
574814.125 4177293 327.350006104
574814.9375 4177292.75 327.239990234
574815.5 4177292.75 326.929992676
574816.375 4177292.5 326.179992676
574812.375 4177293.25 325.429992676
574812.9375 4177293.5 325.829986572
574814.3125 4177293.25 325.459991455
574815 4177293.25 326.769989014
574815.5 4177293.25 327.230010986
574816.3125 4177293.25 327.440002441
574816.875 4177293.25 327.279998779
574813.625 4177293.5 327.109985352
574813.6875 4177294.25 327.239990234
574814.1875 4177294 327.410003662
574815.125 4177293.75 326.220001221
574815.5625 4177293.75 326.899993896
574813.9375 4177294.5 324.5
574814.3125 4177294.5 326.329986572
574815.125 4177294.25 326.359985352
574816.5 4177294.25 326.089996338
574816.625 4177294.75 325.690002441
574812.5625 4177295 325.239990234
574813.1875 4177295 324.339996338
574814 4177295 324.399993896
574814.625 4177294.75 323.679992676
574815.25 4177294.75 325.950012207
574815.25 4177295.25 326.130004883
574813.3125 4177295.25 322.940002441
574814 4177295.5 324.739990234
574814.5 4177295.5 325.459991455
574815.5 4177295.75 324.029998779
574816 4177295.75 324
574812.75 4177296 323.829986572
574813.25 4177296 324.410003662
574813.4375 4177296.5 322.720001221
574814.25 4177296 323
574814.4375 4177296.5 320.950012207
574814.5 4177296 325.859985352
574814.75 4177296.5 323.589996338
574815.4375 4177296.25 325.329986572
574816 4177296.5 325.290008545
574812.8125 4177296.5 323.720001221
574813 4177297 321.790008545
574814.8125 4177297 323.670013428
574815.6875 4177296.75 322.920013428
574816.0625 4177297 325.130004883
574812.3125 4177297.5 320.959991455
574813.0625 4177297.5 321.640014648
574813.625 4177297.5 322.010009766
574814.3125 4177297.25 323.359985352
574814.5 4177297.5 321.329986572
574814.875 4177297.5 323.510009766
574815.5 4177297.5 325.510009766
574816.0625 4177297.5 325.470001221
574816.9375 4177297.5 324.589996338
574811.875 4177297.75 320.239990234
574812.4375 4177298 319.820007324
574813.25 4177298 320.089996338
574813.6875 4177298 321.649993896
574814.4375 4177298.25 322.470001221
574814.875 4177298.25 323.809997559
574815.5625 4177298 325.559997559
574816.125 4177298 325.119995117
574816.9375 4177298 324.929992676
574811.1875 4177298.5 319.420013428
574811.9375 4177298.25 319.760009766
574812.5 4177298.5 319.609985352
574813.1875 4177298.5 321.859985352
574813.75 4177298.5 321.720001221
574814.9375 4177298.75 323.929992676
574815.8125 4177298.25 322.579986572
574816.25 4177298.5 324.290008545
574812.125 4177299.5 319.260009766
574812.5625 4177299 320.209991455
574813.25 4177299.25 321.720001221
574813.8125 4177299.25 321.75
574814.375 4177299 323.779998779
574814.5625 4177299.25 322.709991455
574815 4177299.25 323.779998779
574815.75 4177299 324.359985352
574812.6875 4177299.5 319.059997559
574813.5 4177299.5 319.429992676
574814 4177299.5 320.140014648
574814.75 4177299.75 320.380004883
574815 4177300 324.299987793
574815.8125 4177299.5 323.989990234
574816 4177300 322.450012207
574813.5625 4177300 318.690002441
574813.8125 4177300.25 322.850006104
574814.625 4177300.5 323.100006104
574815 4177300.5 324.769989014
574816 4177300.5 322.899993896
574814.125 4177300.75 319.320007324
574814.75 4177301 321.940002441
574815.1875 4177301 323.119995117
574816.125 4177301 321.790008545
574816.75 4177301.25 321.239990234
574814 4177301.5 321.700012207
574814.75 4177301.5 322.320007324
574815.3125 4177301.5 322.029998779
574814.75 4177302.25 323.190002441
574814.8125 4177302.75 323
574814.0625 4177303.25 322.989990234
574814.8125 4177303.25 323.609985352
574814.125 4177303.75 322.709991455
574815.375 4177303.75 324.299987793
