# .PCD v.7 - Point Cloud Data file format
VERSION .7
FIELDS x y z
SIZE 4 4 4
TYPE F F F
COUNT 1 1 1
WIDTH 138
HEIGHT 1
VIEWPOINT 0 0 0 1 0 0 0
POINTS 138
DATA ascii
574800.375 4177152.5 318.589996338
574800.4375 4177153 318.640014648
574800.625 4177153 319.200012207
574801.5 4177152.75 322.059997559
574801.8125 4177153 321.75
574800.5 4177153.75 318.809997559
574800.6875 4177153.25 318.709991455
574801.5625 4177153.25 321.859985352
574801.875 4177153.5 321.760009766
574803.125 4177153.5 319.850006104
574797.625 4177154.25 319.700012207
574797.8125 4177153.75 320.079986572
574797.875 4177154.25 319.730010986
574799.3125 4177154 318.790008545
574800.75 4177154 319.059997559
574801.625 4177154 322.269989014
574801.875 4177154 321.989990234
574803.4375 4177154 320.029998779
574798 4177154.5 318.540008545
574798.9375 4177154.75 321.859985352
574800.4375 4177154.5 319.920013428
574801.6875 4177154.5 321.880004883
574801.875 4177154.75 322.410003662
574803.0625 4177154.5 322.040008545
574797.9375 4177155.25 320.019989014
574799 4177155.25 321.290008545
574800.5 4177155 319.709991455
574800.5625 4177155.25 321.880004883
574801.6875 4177155.25 322.149993896
574801.9375 4177155.25 322.690002441
574803.1875 4177155 321.290008545
574803.375 4177155 319.059997559
574803.375 4177155 321.649993896
574805.0625 4177155.25 318.75
574806.125 4177155.25 319.059997559
574806.375 4177155.25 319.239990234
574796.375 4177155.75 319.779998779
574796.625 4177155.75 319.899993896
574797.6875 4177155.5 320.660003662
574799.0625 4177156 321.529998779
574799.25 4177155.5 321.279998779
574800.4375 4177156 321.429992676
574800.625 4177155.75 322.170013428
574801.75 4177155.75 322.200012207
574802.125 4177156 320.850006104
574803.5 4177155.75 321.290008545
574796.5625 4177156 318.350006104
574796.75 4177156 318.410003662
574797.6875 4177156.5 321.690002441
574797.9375 4177156 320.899993896
574799.0625 4177156.5 321.480010986
574799.3125 4177156.25 321.529998779
574800.625 4177156 319.299987793
574800.6875 4177156.25 322.019989014
574800.875 4177156.25 319.779998779
574801.8125 4177156.25 322.059997559
574803.25 4177156.25 321.970001221
574803.4375 4177156.25 319.339996338
574803.5 4177156.5 321.470001221
574803.75 4177156.5 319.320007324
574806.5 4177156.25 319.010009766
574807.8125 4177156.5 319.910003662
574796.5 4177157 319.660003662
574797.75 4177156.75 321.290008545
574798 4177156.75 321.279998779
574798.0625 4177157 320.760009766
574799.375 4177156.5 321.320007324
574800.6875 4177156.75 319.809997559
574800.9375 4177156.75 319.450012207
574801.875 4177157 322.140014648
574802.125 4177156.75 322.329986572
574803.5 4177157 319.589996338
574803.75 4177157 319.5
574807.5625 4177156.75 319.760009766
574807.8125 4177157 320.220001221
574796.5625 4177157.5 319.839996338
574796.75 4177157.5 320.589996338
574797.75 4177157.5 321.609985352
574798.0625 4177157.75 321.230010986
574799.0625 4177157.25 322.339996338
574799.25 4177157.5 320.809997559
574799.375 4177157.25 322.140014648
574799.5 4177157.5 320.820007324
574800.6875 4177157.5 320
574801 4177157.25 319.690002441
574801.9375 4177157.5 322.179992676
574802.1875 4177157.25 322.130004883
574802.375 4177157.25 319.640014648
574803.5625 4177157.5 318.989990234
574803.8125 4177157.5 318.880004883
574807.625 4177157.25 319.899993896
574807.9375 4177157.5 319.540008545
574797.8125 4177158 321.470001221
574798.1875 4177158 320.070007324
574799.25 4177158 321.109985352
574799.5625 4177158 320.920013428
574800.75 4177158 319.570007324
574800.875 4177158.25 318.809997559
574801.0625 4177158.25 319.640014648
574803.5625 4177158.25 319.829986572
574807.75 4177158.25 319.239990234
574797.0625 4177158.75 318.160003662
574797.875 4177158.5 321.260009766
574798.125 4177158.5 318.399993896
574798.25 4177158.5 319.640014648
574799.375 4177158.5 320.179992676
574799.5625 4177158.75 318.649993896
574799.5625 4177158.5 320.850006104
574799.75 4177158.75 318.799987793
574803.625 4177158.75 319.890014648
574803.875 4177158.5 319.579986572
574805.1875 4177159 318.230010986
574806.5 4177158.5 318.339996338
574806.6875 4177158.5 318.890014648
574806.75 4177158.75 318.480010986
574807.875 4177158.75 318.950012207
574808.0625 4177158.5 319.260009766
574808.125 4177159 319.109985352
574798.25 4177159 320.519989014
574799.5625 4177159.25 318.859985352
574799.8125 4177159.25 318.570007324
574803.6875 4177159.25 319.640014648
574803.875 4177159.25 320.200012207
574806.5625 4177159.25 318.410003662
574806.8125 4177159.25 318.420013428
574807.9375 4177159.25 318.429992676
574808.1875 4177159.25 318.299987793
574799.875 4177159.75 318.529998779
574803.8125 4177159.5 318.589996338
574803.9375 4177159.75 320.200012207
574805.1875 4177159.75 319.220001221
574805.4375 4177160 319.25
574803.8125 4177160.25 319.380004883
574803.9375 4177160.75 318.059997559
574804.0625 4177160.25 319.369995117
574804.125 4177160.75 319.200012207
574805.25 4177160.25 318.760009766
574805.5625 4177160.5 318.399993896
