# .PCD v.7 - Point Cloud Data file format
VERSION .7
FIELDS x y z
SIZE 4 4 4
TYPE F F F
COUNT 1 1 1
WIDTH 979
HEIGHT 1
VIEWPOINT 0 0 0 1 0 0 0
POINTS 979
DATA ascii
574623.3125 4177151 319.140014648
574622.0625 4177151.5 319.329986572
574622.3125 4177151.75 319.209991455
574623.3125 4177151.5 319.350006104
574623.5625 4177151.75 319.570007324
574622.125 4177152.25 319.420013428
574623.375 4177152.25 319.510009766
574623.5625 4177152.5 319.850006104
574624.5625 4177152.5 320.269989014
574620.9375 4177152.75 319.209991455
574621.125 4177152.75 319.480010986
574622.125 4177152.75 319.769989014
574622.375 4177152.5 319.779998779
574623.375 4177153 319.890014648
574623.625 4177153 319.890014648
574624.625 4177153 320.109985352
574624.875 4177152.75 319.940002441
574619.75 4177153.25 319.329986572
574620 4177153.25 319.170013428
574621 4177153.5 319.739990234
574621.1875 4177153.25 319.489990234
574622.1875 4177153.5 320.029998779
574622.375 4177153.25 320.190002441
574622.4375 4177153.75 320.089996338
574623.4375 4177153.5 319.859985352
574623.625 4177153.5 320.079986572
574624.6875 4177153.5 319.869995117
574624.9375 4177153.25 319.839996338
574618.5625 4177153.75 319.200012207
574618.75 4177153.75 319.339996338
574619.75 4177154 319.690002441
574620 4177153.75 319.359985352
574621 4177154 319.920013428
574621.1875 4177153.75 319.850006104
574622.25 4177154 319.820007324
574622.4375 4177154.25 320.299987793
574623.5 4177154 319.899993896
574623.6875 4177154 320.010009766
574624.75 4177154.25 320
574624.9375 4177153.75 319.850006104
574616.3125 4177154.75 319.179992676
574617.3125 4177154.5 319.450012207
574617.5625 4177154.5 319.299987793
574618.5625 4177154.5 319.470001221
574618.8125 4177154.5 319.709991455
574619.8125 4177154.5 319.940002441
574620 4177154.5 319.769989014
574621.0625 4177154.75 319.920013428
574621.25 4177154.25 319.829986572
574621.3125 4177154.75 319.790008545
574622.25 4177154.75 320.010009766
574622.5 4177154.75 319.859985352
574623.5 4177154.75 320.059997559
574623.75 4177154.5 319.869995117
574624.8125 4177154.75 319.790008545
574625 4177154.5 319.989990234
574616.125 4177155 319.390014648
574616.375 4177155.25 319.429992676
574617.375 4177155 319.649993896
574617.5625 4177155.25 319.829986572
574618.625 4177155 319.769989014
574618.8125 4177155 319.709991455
574619.875 4177155.25 320.010009766
574620.0625 4177155 319.769989014
574621.0625 4177155.25 319.980010986
574621.3125 4177155.5 319.910003662
574622.3125 4177155.25 320.079986572
574622.5625 4177155.25 320
574623.5625 4177155.25 320.160003662
574623.8125 4177155 320
574624.875 4177155.25 319.829986572
574625.0625 4177155 319.859985352
574625.0625 4177155.5 319.850006104
574626.125 4177155.25 319.809997559
574613.875 4177156 319.25
574614.875 4177155.75 319.299987793
574615.125 4177155.75 319.529998779
574616.125 4177155.75 319.640014648
574616.375 4177156 319.690002441
574617.4375 4177155.75 319.640014648
574617.625 4177155.75 319.899993896
574618.6875 4177155.75 319.739990234
574618.875 4177155.5 319.950012207
574619.9375 4177155.75 319.929992676
574620.125 4177155.5 319.980010986
574621.125 4177155.75 319.910003662
574621.375 4177156 319.920013428
574622.375 4177155.75 319.869995117
574622.625 4177155.75 320
574623.625 4177155.75 319.839996338
574623.875 4177155.5 319.820007324
574624.875 4177155.75 319.829986572
574625.125 4177156 319.820007324
574626.1875 4177155.75 319.529998779
574626.375 4177155.75 319.690002441
574613.6875 4177156.5 319.200012207
574613.875 4177156.5 319.510009766
574614.9375 4177156.25 319.450012207
574615.125 4177156.25 319.589996338
574616.1875 4177156.25 319.929992676
574616.4375 4177156.5 319.630004883
574617.4375 4177156.25 319.910003662
574617.6875 4177156.25 320.040008545
574618.6875 4177156.25 319.899993896
574618.875 4177156.25 320.070007324
574619.9375 4177156.5 320.320007324
574620.125 4177156 319.989990234
574620.1875 4177156.5 319.910003662
574621.1875 4177156.5 320.040008545
574621.4375 4177156.5 319.850006104
574622.4375 4177156.5 319.880004883
574622.625 4177156.25 319.970001221
574623.6875 4177156.25 319.730010986
574623.875 4177156 319.779998779
574623.9375 4177156.5 319.559997559
574625 4177156.25 319.450012207
574625.1875 4177156.5 319.529998779
574626.25 4177156.25 319.279998779
574626.4375 4177156.25 319.399993896
574612.4375 4177157 319.320007324
574613.6875 4177157 319.489990234
574613.9375 4177157 319.609985352
574614.9375 4177157 320.200012207
574615.1875 4177156.75 319.760009766
574616.25 4177157 319.820007324
574616.4375 4177157 319.839996338
574617.5 4177157 320.019989014
574617.6875 4177157 320.049987793
574618.75 4177157 319.970001221
574618.9375 4177156.75 320.140014648
574620 4177157 319.980010986
574620.25 4177157 319.790008545
574621.25 4177157 319.910003662
574621.5 4177157 319.799987793
574622.4375 4177157 320.010009766
574622.6875 4177156.75 319.820007324
574623.75 4177157 319.660003662
574624 4177157 319.459991455
574625.0625 4177156.75 319.149993896
574625.25 4177156.75 319.149993896
574626.5 4177156.75 319.089996338
574611.25 4177157.75 319.339996338
574611.4375 4177157.75 319.369995117
574612.4375 4177157.75 320.010009766
574612.6875 4177157.25 319.589996338
574613.75 4177157.75 319.829986572
574613.9375 4177157.75 319.890014648
574615 4177157.75 320.049987793
574615.1875 4177157.25 319.829986572
574616.25 4177157.5 319.839996338
574616.5 4177157.5 319.899993896
574617.5 4177157.5 320.040008545
574617.75 4177157.5 320.049987793
574618.75 4177157.5 320.170013428
574619 4177157.25 320.079986572
574619 4177157.75 320.010009766
574620.0625 4177157.5 319.720001221
574620.25 4177157.5 319.820007324
574621.3125 4177157.5 319.899993896
574621.5 4177157.5 319.649993896
574622.5625 4177157.5 319.380004883
574622.75 4177157.25 319.600006104
574622.8125 4177157.75 319.309997559
574623.8125 4177157.5 319.359985352
574609.9375 4177158.25 319.459991455
574611.25 4177158.25 319.809997559
574611.4375 4177158.25 319.570007324
574612.6875 4177157.75 319.709991455
574614 4177158.25 319.739990234
574615.0625 4177158.25 319.869995117
574615.25 4177158 320.019989014
574616.3125 4177158 319.890014648
574616.5625 4177158.25 320.070007324
574617.5625 4177158 319.829986572
574617.8125 4177158 319.839996338
574618.8125 4177158 319.959991455
574619.0625 4177158.25 319.890014648
574620.125 4177158 319.5
574620.3125 4177158 319.730010986
574621.375 4177158 319.399993896
574621.5625 4177158 319.420013428
574622.625 4177158 319.130004883
574608.9375 4177158.75 319.429992676
574610 4177158.75 319.470001221
574610.25 4177158.5 319.410003662
574611.25 4177159 319.859985352
574611.5 4177159 319.970001221
574612.5 4177158.5 320.269989014
574612.75 4177158.5 319.929992676
574612.75 4177159 320.010009766
574613.75 4177158.5 320.059997559
574614.0625 4177158.75 319.820007324
574615.0625 4177158.75 319.950012207
574615.3125 4177158.5 320.100006104
574616.375 4177158.75 319.959991455
574616.5625 4177158.75 319.950012207
574617.625 4177158.5 319.709991455
574617.875 4177158.5 319.690002441
574618.875 4177158.5 319.679992676
574619.125 4177158.75 319.600006104
574620.1875 4177158.5 319.489990234
574620.375 4177158.75 319.720001221
574621.4375 4177158.5 319.140014648
574621.625 4177158.5 319.320007324
574621.6875 4177159 319.279998779
574607.6875 4177159 319.260009766
574609 4177159.25 319.700012207
574610 4177159.5 319.829986572
574610.25 4177159.25 319.690002441
574611.3125 4177159.5 319.820007324
574611.5625 4177159.25 319.730010986
574612.5 4177159 320.380004883
574612.625 4177159.5 320.059997559
574612.8125 4177159.5 319.890014648
574613.8125 4177159 320.100006104
574614.0625 4177159.5 320.179992676
574615.125 4177159.5 320.040008545
574615.3125 4177159 320.019989014
574615.375 4177159.5 319.920013428
574616.4375 4177159.25 319.989990234
574616.625 4177159.25 319.769989014
574617.6875 4177159.25 319.640014648
574617.875 4177159 319.859985352
574617.9375 4177159.5 319.730010986
574618.9375 4177159 319.570007324
574619.1875 4177159.25 319.549987793
574620.25 4177159 319.190002441
574620.4375 4177159 319.470001221
574606.1875 4177160 319.329986572
574607.4375 4177159.5 319.540008545
574607.6875 4177159.5 319.440002441
574607.75 4177160 319.440002441
574608.75 4177159.5 319.489990234
574609 4177160 319.829986572
574610.25 4177159.75 320.049987793
574611.5625 4177160 319.929992676
574612.6875 4177160 319.859985352
574612.875 4177160 320.190002441
574613.875 4177159.5 320.079986572
574613.9375 4177160 319.859985352
574614.125 4177159.75 319.869995117
574615.1875 4177160 319.630004883
574615.4375 4177160 319.950012207
574616.4375 4177159.75 319.880004883
574616.6875 4177159.75 319.549987793
574617.75 4177159.75 319.570007324
574618 4177160 319.609985352
574619 4177159.75 319.459991455
574619.25 4177159.75 319.390014648
574606.5 4177160.25 319.410003662
574607.5 4177160.25 319.640014648
574607.8125 4177160.75 319.609985352
574608.8125 4177160.25 319.670013428
574609.0625 4177160.5 319.829986572
574610.0625 4177160.25 320.100006104
574610.125 4177160.75 319.940002441
574610.3125 4177160.5 320.140014648
574611.375 4177160.25 320.010009766
574611.4375 4177160.75 319.869995117
574611.625 4177160.5 320.059997559
574612.6875 4177160.75 319.950012207
574612.875 4177160.5 320.140014648
574614 4177160.75 319.679992676
574614.1875 4177160.25 319.779998779
574615.25 4177160.5 319.559997559
574615.5 4177160.5 319.869995117
574616.5 4177160.25 319.559997559
574616.75 4177160.25 319.760009766
574616.8125 4177160.75 319.459991455
574617.8125 4177160.25 319.429992676
574618.0625 4177160.5 319.190002441
574619.3125 4177160.25 319.160003662
574603.75 4177161.25 319.329986572
574604.9375 4177160.75 319.480010986
574605.25 4177161 319.380004883
574606.25 4177160.75 319.5
574606.5 4177160.75 319.529998779
574607.5625 4177160.75 319.829986572
574607.8125 4177161.25 319.75
574608.8125 4177160.75 319.980010986
574609.125 4177161 319.929992676
574610.1875 4177161.25 319.829986572
574610.375 4177161 320.040008545
574611.625 4177161 320.200012207
574612.75 4177161.25 319.910003662
574613 4177161 319.839996338
574614 4177161.25 319.630004883
574614.25 4177161 319.890014648
574615.3125 4177161 319.630004883
574615.5625 4177161 319.579986572
574616.5625 4177161 319.529998779
574616.875 4177161.25 319.279998779
574617.875 4177160.75 319.239990234
574603.75 4177161.75 319.450012207
574604 4177161.5 319.540008545
574605 4177161.5 319.690002441
574605.25 4177161.5 319.589996338
574606.3125 4177161.25 319.640014648
574606.5 4177161.5 319.899993896
574607.5625 4177161.5 319.799987793
574607.875 4177161.75 319.890014648
574608.875 4177161.5 320.019989014
574609.125 4177161.5 319.989990234
574610.1875 4177162 319.950012207
574610.4375 4177161.5 320.119995117
574611.4375 4177161.25 320.070007324
574611.6875 4177161.5 320.200012207
574612.8125 4177161.75 319.709991455
574613 4177161.5 319.640014648
574614.0625 4177161.75 319.390014648
574614.25 4177161.5 319.739990234
574614.3125 4177162 319.429992676
574615.375 4177161.5 319.5
574615.5625 4177161.5 319.470001221
574604 4177162.25 319.649993896
574605 4177162 319.799987793
574605.3125 4177162.25 319.769989014
574606.3125 4177162 319.739990234
574606.5625 4177162 320.079986572
574607.625 4177162 319.920013428
574607.875 4177162.25 319.859985352
574608.9375 4177162 319.929992676
574609.1875 4177162 319.880004883
574610.25 4177162.5 319.730010986
574610.5 4177162 319.890014648
574610.5 4177162.5 319.899993896
574611.5 4177162 319.970001221
574611.5625 4177162.5 319.779998779
574611.75 4177162 320.230010986
574612.875 4177162.5 319.820007324
574613.0625 4177162 319.519989014
574614.125 4177162.25 319.239990234
574605.0625 4177162.5 319.799987793
574605.3125 4177162.75 319.989990234
574606.375 4177162.5 319.859985352
574606.625 4177162.5 320.040008545
574607.6875 4177162.75 319.959991455
574607.9375 4177163 319.880004883
574609 4177162.75 320.029998779
574609.25 4177162.75 319.880004883
574610.3125 4177163 319.679992676
574610.5625 4177163 319.75
574611.625 4177163 319.660003662
574611.75 4177162.5 320.049987793
574612.9375 4177163 319.459991455
574613.125 4177162.5 319.299987793
574605.125 4177163.25 319.989990234
574605.375 4177163.25 320.049987793
574606.375 4177163.25 320.100006104
574606.625 4177163 320.010009766
574606.6875 4177163.5 319.839996338
574607.75 4177163.25 319.950012207
574608 4177163.5 319.809997559
574609 4177163.25 320.010009766
574609.3125 4177163 319.679992676
574609.375 4177163.75 319.559997559
574610.375 4177163.5 319.480010986
574610.625 4177163.5 319.790008545
574611.6875 4177163.5 319.220001221
574611.8125 4177163 319.929992676
574605.125 4177163.75 320.019989014
574605.4375 4177164 320.079986572
574606.4375 4177163.75 319.950012207
574606.75 4177164.25 319.799987793
574607.75 4177163.75 319.760009766
574608.0625 4177164 319.730010986
574609.125 4177163.75 319.489990234
574609.1875 4177164.25 319.410003662
574609.375 4177164.25 319.5
574610.6875 4177164 319.529998779
574605.1875 4177164.25 319.899993896
574605.5 4177164.5 320.019989014
574606.5 4177164.25 319.809997559
574606.5625 4177164.75 319.640014648
574606.8125 4177164.75 319.739990234
574607.8125 4177164.25 319.760009766
574607.875 4177164.75 319.290008545
574608.0625 4177164.5 319.720001221
574609.25 4177164.75 319.239990234
574609.4375 4177164.75 319.5
574605.5 4177165 319.880004883
574605.5625 4177165.25 319.529998779
574606.625 4177165.5 319.579986572
574606.875 4177165.25 319.549987793
574607.9375 4177165.5 319.25
574606.6875 4177166 319.480010986
574606.9375 4177165.75 319.359985352
574640.6875 4177205.25 319.119995117
574646.6875 4177205.25 318.890014648
574640.75 4177205.75 318.950012207
574641.6875 4177205.5 318.950012207
574642 4177205.75 318.989990234
574642.9375 4177205.5 318.929992676
574643.3125 4177205.75 319.029998779
574644.5625 4177206 318.970001221
574645.8125 4177205.75 318.929992676
574647.0625 4177205.75 318.959991455
574692.0625 4177206 319.540008545
574639.1875 4177206.5 319.019989014
574640.8125 4177206.5 319.010009766
574641.6875 4177206 319.049987793
574642.0625 4177206.5 319.049987793
574643 4177206.25 319.040008545
574643.3125 4177206.25 319.049987793
574644.25 4177206.25 319.100006104
574645.5625 4177206.25 318.989990234
574646.8125 4177206.25 318.950012207
574647.125 4177206.25 318.959991455
574648.0625 4177206.5 318.880004883
574648.375 4177206.25 318.910003662
574639.5625 4177207 319.160003662
574640.5 4177206.75 319.190002441
574641.6875 4177206.75 320.140014648
574642.9375 4177207 320.170013428
574643.3125 4177207 320.380004883
574644.1875 4177207 320.619995117
574644.5 4177206.75 320.179992676
574645.5 4177207.25 320.480010986
574647.1875 4177206.75 319.010009766
574648.0625 4177207 319.079986572
574649.3125 4177207 319.040008545
574638 4177207.75 319.320007324
574639.1875 4177207.25 320.059997559
574640.4375 4177207.5 320.579986572
574640.75 4177207.25 320.410003662
574641.6875 4177207.5 320.529998779
574642 4177207.25 320.470001221
574643 4177207.5 320.549987793
574643.3125 4177207.75 320.570007324
574644.25 4177207.75 320.660003662
574644.5625 4177207.25 320.450012207
574645.5 4177207.75 320.440002441
574645.8125 4177207.25 320.660003662
574646.75 4177207.25 320.390014648
574647.125 4177207.75 320.489990234
574648.4375 4177207.5 318.890014648
574649.375 4177207.75 318.940002441
574649.6875 4177207.25 319.019989014
574650.5625 4177207.25 318.880004883
574650.9375 4177207.25 318.920013428
574651.8125 4177207.25 318.850006104
574691.9375 4177207.5 319.309997559
574693.1875 4177207.75 319.359985352
574693.5 4177207.5 319.339996338
574638.25 4177207.75 320.109985352
574639.1875 4177208 320.649993896
574639.5 4177208 320.630004883
574640.5 4177208 320.470001221
574640.75 4177207.75 320.589996338
574641.75 4177208 320.510009766
574642.0625 4177207.75 320.339996338
574643 4177208.25 320.670013428
574643.375 4177208.25 320.760009766
574644.3125 4177208.25 320.630004883
574644.5625 4177208 320.709991455
574645.5625 4177208.25 320.570007324
574645.8125 4177207.75 320.700012207
574646.75 4177207.75 320.600006104
574647.125 4177208.25 320.670013428
574648.0625 4177208 320.329986572
574648.375 4177208.25 320.420013428
574649.75 4177207.75 318.910003662
574650.625 4177207.75 319.100006104
574650.9375 4177207.75 318.980010986
574651.875 4177208 318.850006104
574653.4375 4177208 318.880004883
574692.25 4177208.25 319.429992676
574693.25 4177208.25 319.380004883
574635.5625 4177208.5 319.029998779
574637.0625 4177208.5 319.929992676
574637.9375 4177208.5 320.649993896
574638.3125 4177208.5 320.350006104
574639.25 4177208.5 320.589996338
574639.5625 4177208.5 320.559997559
574640.5 4177208.75 320.549987793
574640.8125 4177208.5 320.679992676
574641.75 4177208.5 320.660003662
574642.0625 4177208.5 320.739990234
574643.0625 4177208.75 320.640014648
574644.625 4177208.5 320.690002441
574645.625 4177209 320.700012207
574645.875 4177208.5 320.739990234
574646.8125 4177208.25 320.5
574647.1875 4177208.75 320.540008545
574648.0625 4177208.5 320.529998779
574648.4375 4177208.75 320.390014648
574649.3125 4177208.5 320.390014648
574649.6875 4177208.75 320.480010986
574650.6875 4177208.25 318.899993896
574651 4177208.25 318.980010986
574692.375 4177208.5 319.010009766
574694.875 4177208.75 319.399993896
574634.3125 4177209.25 319.019989014
574634.625 4177209 319.079986572
574636.75 4177209 320.489990234
574637.0625 4177209.25 320.359985352
574638 4177209 320.679992676
574638.3125 4177209 320.5
574639.25 4177209.25 320.720001221
574639.625 4177209 320.649993896
574640.5625 4177209.25 320.850006104
574640.875 4177209 320.75
574641.8125 4177209.25 320.670013428
574642.125 4177209 320.670013428
574643.125 4177209.25 320.720001221
574645.625 4177209.5 320.769989014
574646.875 4177209 320.600006104
574647.25 4177209.5 320.519989014
574648.5 4177209.25 320.589996338
574649.375 4177209 320.559997559
574649.6875 4177209.25 320.589996338
574650.625 4177209.25 320.390014648
574651.0625 4177209 319.140014648
574652.3125 4177209.25 318.850006104
574689.5 4177209 319.329986572
574693.6875 4177209.25 319.399993896
574634.375 4177209.75 319.049987793
574634.6875 4177209.5 319.019989014
574635.5625 4177210 320.279998779
574635.8125 4177209.75 320.290008545
574636.75 4177209.5 320.660003662
574637.125 4177209.75 320.660003662
574638.0625 4177209.75 320.700012207
574638.375 4177209.5 320.570007324
574639.3125 4177209.75 320.910003662
574639.625 4177209.5 320.760009766
574641.875 4177209.75 320.839996338
574642.1875 4177209.5 320.790008545
574646 4177210 320.739990234
574646.875 4177209.5 320.670013428
574648.5 4177210 320.489990234
574649.4375 4177209.75 320.589996338
574650.6875 4177209.75 320.450012207
574651 4177209.75 320.589996338
574652 4177209.75 319.239990234
574652.375 4177210 319.290008545
574653.5625 4177209.75 318.859985352
574689.5625 4177209.5 319.440002441
574690.8125 4177209.75 319.579986572
574692.4375 4177209.75 319.519989014
574695 4177209.75 318.989990234
574634.4375 4177210.25 319
574634.75 4177210.25 319.109985352
574635.5625 4177210.5 320.5
574635.875 4177210.25 320.510009766
574636.8125 4177210.25 320.480010986
574637.1875 4177210.25 320.489990234
574638.0625 4177210.25 320.850006104
574638.375 4177210.25 320.859985352
574639.375 4177210.25 320.920013428
574639.6875 4177210.25 320.739990234
574640.625 4177210.5 320.760009766
574646.9375 4177210 320.739990234
574649.5 4177210.25 320.450012207
574650.75 4177210.25 320.440002441
574651.0625 4177210.25 320.399993896
574651.9375 4177210.5 320.559997559
574653.3125 4177210.25 318.940002441
574653.625 4177210.5 319.170013428
574654.5 4177210.25 318.820007324
574654.8125 4177210.25 318.880004883
574688.6875 4177210.5 319.410003662
574690 4177210.25 319.089996338
574634.375 4177211 320.010009766
574634.6875 4177211 320.600006104
574635.625 4177211.25 320.410003662
574635.9375 4177211 320.640014648
574636.875 4177210.75 320.619995117
574637.1875 4177211 320.630004883
574638.125 4177210.75 320.869995117
574638.4375 4177210.75 320.899993896
574639.375 4177211 320.890014648
574649.5 4177210.75 320.630004883
574650.75 4177211 320.609985352
574651.0625 4177210.75 320.519989014
574652 4177211 320.459991455
574652.3125 4177210.75 320.519989014
574653.25 4177211 320.529998779
574653.5625 4177211.25 320.059997559
574654.5625 4177210.75 319.029998779
574654.875 4177211 319.019989014
574655.75 4177211.25 319.100006104
574688.75 4177211 319.640014648
574689.75 4177211.25 319.209991455
574690 4177210.75 319.350006104
574631.125 4177211.75 319.049987793
574634.375 4177211.75 320.899993896
574634.6875 4177211.5 320.570007324
574635.6875 4177211.75 320.589996338
574635.9375 4177211.5 320.709991455
574636.875 4177211.5 320.970001221
574637.25 4177211.5 320.730010986
574638.5 4177211.25 320.769989014
574638.5625 4177211.75 320.799987793
574649.875 4177211.5 320.570007324
574652.0625 4177211.5 320.529998779
574653.25 4177211.5 320.440002441
574653.625 4177211.75 320.420013428
574654.5625 4177211.5 319.470001221
574654.9375 4177211.5 318.850006104
574655.8125 4177211.75 318.809997559
574691 4177211.5 319.5
574693.875 4177211.5 319.450012207
574631.125 4177212.25 319.070007324
574633.25 4177212 319.149993896
574633.5625 4177212.25 320.109985352
574634.4375 4177212.25 320.75
574634.75 4177212 320.429992676
574635.6875 4177212.25 320.829986572
574636 4177212 320.850006104
574636.9375 4177212 320.890014648
574637.3125 4177212 320.649993896
574653.3125 4177212.25 320.450012207
574653.625 4177212.25 320.489990234
574657.0625 4177212.25 318.850006104
574658.3125 4177212.25 318.790008545
574658.625 4177212.25 318.950012207
574691.0625 4177212 319.529998779
574632.4375 4177212.75 319.119995117
574633.25 4177212.75 320.309997559
574633.5625 4177212.75 320.559997559
574634.4375 4177213 320.950012207
574634.8125 4177212.75 320.529998779
574635.75 4177213 320.720001221
574636.0625 4177212.5 320.709991455
574637 4177212.5 320.890014648
574637.3125 4177212.75 320.899993896
574653.6875 4177213 320.540008545
574654.875 4177212.75 320.429992676
574655.75 4177212.5 320.309997559
574656.1875 4177212.5 319.019989014
574657.125 4177212.75 319
574658.3125 4177213 318.959991455
574658.625 4177212.75 318.940002441
574691.4375 4177212.5 319.260009766
574694.9375 4177213 319.359985352
574632.5 4177213.25 319.230010986
574633.25 4177213.25 320.609985352
574633.625 4177213.25 320.420013428
574634.5 4177213.5 320.549987793
574634.875 4177213.25 320.579986572
574635.75 4177213.5 320.989990234
574636.0625 4177213.25 320.910003662
574637.375 4177213.25 320.970001221
574653.75 4177213.5 320.540008545
574654.625 4177213.25 320.529998779
574656.125 4177213.25 320.450012207
574657.0625 4177213.5 320.359985352
574657.375 4177213.5 320.179992676
574658.375 4177213.5 318.809997559
574692.375 4177213.25 319.380004883
574633.3125 4177214 320.679992676
574633.6875 4177214 320.429992676
574634.5625 4177214 320.799987793
574634.875 4177213.75 320.570007324
574635.8125 4177214 321.010009766
574655.875 4177213.75 320.429992676
574656.1875 4177213.75 320.390014648
574657.125 4177214.25 320.450012207
574686.5 4177213.75 319.679992676
574632.1875 4177214.25 319.230010986
574632.5 4177214.75 320.179992676
574633.375 4177214.5 320.640014648
574633.6875 4177214.5 320.559997559
574634.625 4177214.5 320.739990234
574634.9375 4177214.5 320.779998779
574635.875 4177214.75 320.910003662
574636.1875 4177214.25 320.920013428
574637.125 4177214.25 320.910003662
574657.125 4177214.75 320.429992676
574658.3125 4177214.25 320.279998779
574686.5 4177214.5 319.640014648
574689.0625 4177214.5 319.220001221
574632.25 4177215 319.339996338
574632.5625 4177215.25 320.109985352
574633.4375 4177215 320.549987793
574633.75 4177215 320.540008545
574634.6875 4177215.25 320.690002441
574635 4177215 320.75
574636.25 4177214.75 320.880004883
574658.375 4177214.75 320.299987793
574686.5625 4177215 319.320007324
574687.8125 4177215 319.559997559
574632.1875 4177215.75 320.440002441
574632.5625 4177215.75 320.279998779
574633.4375 4177215.5 320.510009766
574633.75 4177215.5 320.730010986
574634.6875 4177215.75 320.690002441
574635.0625 4177215.5 320.619995117
574636.25 4177215.5 320.989990234
574658.75 4177216 320.380004883
574659.9375 4177215.5 320.269989014
574660 4177216 320.25
574688.8125 4177215.75 319.429992676
574690.0625 4177215.75 319.470001221
574632.25 4177216.25 320.5
574632.625 4177216.25 320.320007324
574633.5 4177216.25 320.470001221
574633.8125 4177216.25 320.459991455
574634.75 4177216.25 320.679992676
574635.0625 4177216 320.899993896
574636.375 4177216.5 320.940002441
574685.4375 4177216.5 319.649993896
574687.625 4177216.25 319.399993896
574687.9375 4177216 319.630004883
574689.1875 4177216.25 319.470001221
574632.3125 4177216.75 320.5
574632.6875 4177217 320.309997559
574633.5625 4177216.75 320.410003662
574633.875 4177216.75 320.609985352
574634.8125 4177217 320.839996338
574635.125 4177216.75 320.890014648
574636.375 4177217 320.970001221
574685.125 4177216.75 319.640014648
574685.5 4177217 319.619995117
574686.75 4177216.75 319.529998779
574686.8125 4177217.25 319.230010986
574693.0625 4177217 319.489990234
574632.3125 4177217.5 320.559997559
574632.6875 4177217.5 320.429992676
574633.5625 4177217.25 320.700012207
574633.9375 4177217.25 320.600006104
574634.8125 4177217.5 320.799987793
574635.125 4177217.25 320.970001221
574636.125 4177217.5 320.940002441
574636.4375 4177217.75 320.959991455
574685.1875 4177217.25 319.5
574687.6875 4177217.25 319.630004883
574689.3125 4177217.25 319.359985352
574632.375 4177218 320.600006104
574632.75 4177218 320.230010986
574633.625 4177218 320.649993896
574634 4177217.75 320.660003662
574635.1875 4177217.75 320.820007324
574636.125 4177218 320.890014648
574683.9375 4177217.75 319.399993896
574690.625 4177218.25 319.510009766
574691.5 4177217.75 319.470001221
574632.4375 4177218.5 320.510009766
574632.8125 4177218.5 320.399993896
574633.6875 4177218.5 320.720001221
574634 4177218.5 320.529998779
574634.9375 4177218.75 321.019989014
574635.25 4177218.25 320.880004883
574683.9375 4177218.25 319.519989014
574684 4177219 319.380004883
574686.5625 4177219 319.570007324
574688.1875 4177218.75 319.329986572
574690.6875 4177218.75 319.380004883
574632.5 4177219 320.559997559
574632.875 4177219.25 320.299987793
574633.75 4177219 320.739990234
574634.0625 4177219 320.769989014
574635 4177219.25 320.809997559
574635.3125 4177219 320.920013428
574635.3125 4177219.5 320.899993896
574686.625 4177219.5 319.489990234
574686.9375 4177219.5 319.570007324
574632.5 4177219.75 320.609985352
574632.875 4177219.75 320.470001221
574633.75 4177219.5 320.649993896
574634.0625 4177219.5 321.040008545
574635 4177219.75 320.850006104
574635.375 4177220 320.970001221
574688.25 4177220 319.179992676
574631.5 4177220.5 319.079986572
574632.5625 4177220.25 320.600006104
574632.9375 4177220.25 320.470001221
574633.8125 4177220.25 320.450012207
574634.125 4177220 320.760009766
574634.1875 4177220.75 320.529998779
574635.4375 4177220.5 320.940002441
574684.125 4177220.75 319.540008545
574684.5 4177220.25 319.450012207
574685.375 4177220.25 319.480010986
574691.8125 4177220.75 319.260009766
574631.5 4177221 319.140014648
574632.625 4177220.75 320.619995117
574633 4177220.75 320.309997559
574633.875 4177220.75 320.670013428
574634.25 4177221.25 320.399993896
574635.125 4177220.75 320.700012207
574635.5 4177221.25 320.779998779
574636.75 4177221 320.959991455
574685.4375 4177220.75 319.529998779
574685.8125 4177221 319.529998779
574688.375 4177221 319.480010986
574689.625 4177221.25 319.309997559
574632.6875 4177221.25 320.380004883
574633.0625 4177221.5 320.320007324
574633.9375 4177221.25 320.720001221
574634.3125 4177221.75 320.519989014
574635.1875 4177221.5 320.869995117
574635.5625 4177221.75 320.799987793
574636.8125 4177221.5 320.799987793
574689.3125 4177221.5 319.589996338
574632 4177222.25 319.040008545
574632.75 4177222 320.510009766
574633.125 4177222 320.220001221
574633.9375 4177222 320.730010986
574634.375 4177222.25 320.519989014
574635.25 4177222 320.700012207
574636.5 4177222 320.850006104
574636.8125 4177222.25 320.959991455
574632.75 4177222.5 320.399993896
574632.875 4177222.75 319.220001221
574633.125 4177222.5 320.359985352
574634 4177222.5 320.700012207
574634.0625 4177223 320.329986572
574634.375 4177223 320.579986572
574635.25 4177222.5 320.859985352
574635.625 4177222.75 320.779998779
574636.5 4177222.75 320.940002441
574636.875 4177222.75 320.890014648
574689.4375 4177222.75 319.519989014
574632.9375 4177223.5 319.089996338
574633.1875 4177223 320.480010986
574633.25 4177223.5 319.720001221
574634.125 4177223.5 320.450012207
574634.4375 4177223.5 320.519989014
574635.3125 4177223.25 320.859985352
574635.6875 4177223.25 320.670013428
574636.9375 4177223.25 320.950012207
574638.1875 4177223.25 320.899993896
574634.125 4177224.25 320.510009766
574634.5 4177224 320.600006104
574635.375 4177223.75 320.609985352
574635.75 4177224 320.880004883
574633.4375 4177224.5 319.079986572
574634.1875 4177224.75 320.649993896
574634.5 4177224.5 320.559997559
574635.375 4177224.25 320.940002441
574635.75 4177224.5 320.839996338
574637 4177224.25 320.899993896
574637.9375 4177224.5 320.850006104
574633.5 4177225 318.989990234
574634.3125 4177225 319.149993896
574634.625 4177225 320.200012207
574635.4375 4177224.75 320.640014648
574635.8125 4177225 320.559997559
574636.75 4177225 320.679992676
574637.0625 4177224.75 320.640014648
574638 4177225 320.839996338
574638.3125 4177225 320.869995117
574633.5 4177225.75 319.070007324
574634.375 4177225.75 319.130004883
574634.6875 4177225.5 319.899993896
574635.5 4177225.5 320.369995117
574635.875 4177225.5 320.649993896
574636.75 4177225.5 320.779998779
574637.125 4177225.5 320.640014648
574637.1875 4177226 320.559997559
574638.0625 4177225.5 320.700012207
574638.375 4177225.5 320.760009766
574639.75 4177225.75 320.679992676
574634.4375 4177226.25 319.010009766
574635.5625 4177226 320.660003662
574635.625 4177226.5 319.989990234
574635.9375 4177226.25 320.459991455
574636.8125 4177226 320.619995117
574636.875 4177226.5 320.429992676
574637.1875 4177226.5 320.720001221
574638.125 4177226.25 320.640014648
574638.4375 4177226 320.619995117
574639.75 4177226.5 320.730010986
574636 4177226.75 320.440002441
574636.125 4177227 319.190002441
574637.25 4177227 320.630004883
574638.125 4177226.75 320.739990234
574638.5 4177226.5 320.609985352
574639.4375 4177226.75 320.850006104
574639.8125 4177227 320.779998779
574634.875 4177227.25 319.119995117
574634.9375 4177227.75 319.010009766
574636.1875 4177227.5 319.019989014
574636.875 4177227.25 320.779998779
574637.0625 4177227.5 319.329986572
574637.3125 4177227.75 320.619995117
574638.1875 4177227.25 320.690002441
574638.5625 4177227.25 320.649993896
574638.625 4177227.75 320.600006104
574639.5 4177227.25 320.470001221
574639.875 4177227.5 320.640014648
574640.75 4177227.5 320.700012207
574642 4177227.5 320.649993896
574635.875 4177228 318.980010986
574636.25 4177228.25 319.019989014
574637.125 4177228 319.339996338
574637.4375 4177228 319.220001221
574638.25 4177228 320.640014648
574638.6875 4177228.25 320.320007324
574639.5 4177227.75 320.579986572
574639.9375 4177228 320.450012207
574640.8125 4177228 320.540008545
574641.1875 4177228 320.730010986
574638.3125 4177228.25 320.130004883
574638.5 4177228.75 318.970001221
574638.75 4177228.75 319.670013428
574639.5625 4177228.5 320.609985352
574640 4177228.5 320.480010986
574640.875 4177228.5 320.510009766
574641.25 4177228.5 320.630004883
574642.5 4177228.5 320.519989014
574639.625 4177229 320.549987793
574639.75 4177229.25 319.010009766
574640 4177229.25 320.369995117
574640.875 4177229 320.549987793
574641.25 4177229.25 320.760009766
574642.1875 4177229.25 320.540008545
574642.5625 4177229.25 320.690002441
574640.125 4177229.5 319.450012207
574640.25 4177230 318.970001221
574641 4177229.5 320.190002441
574641.3125 4177229.75 320.440002441
574642.25 4177229.75 320.350006104
574642.625 4177229.75 320.470001221
574638.9375 4177230.25 319.040008545
574639.875 4177230.5 319.220001221
574641 4177230.25 320.130004883
574641.125 4177230.5 319.040008545
574641.4375 4177230.25 320.220001221
574641.5 4177230.75 319.200012207
574642.25 4177230.25 320.660003662
574642.625 4177230.25 320.529998779
574643.9375 4177230.25 320.619995117
574639 4177230.75 318.950012207
574641.5625 4177231.25 319.049987793
574642.3125 4177230.75 320.609985352
574642.4375 4177231.25 319.190002441
574642.6875 4177230.75 320.540008545
574643.5625 4177230.75 320.709991455
574643.9375 4177230.75 320.529998779
574644.875 4177231 320.510009766
574645.3125 4177231.25 320.5
574646.125 4177231 320.649993896
574642.5 4177231.75 318.950012207
574642.75 4177231.25 320.089996338
574643.625 4177231.25 320.399993896
574643.75 4177231.75 319.959991455
574644 4177231.25 320.540008545
574644.9375 4177231.5 320.5
574645.3125 4177231.75 320.399993896
574646.1875 4177231.5 320.579986572
574641.6875 4177232.25 318.980010986
574643.8125 4177232.25 318.920013428
574644.0625 4177232 320.410003662
574644.1875 4177232.25 319.109985352
574645 4177232 320.320007324
574645.375 4177232.5 320.660003662
574646.625 4177232 320.630004883
574641.75 4177232.75 318.959991455
574643.875 4177232.75 319.070007324
574645 4177232.5 320.299987793
574645.4375 4177233 320.309997559
574646.3125 4177232.75 320.570007324
574647.875 4177232.5 320.630004883
574646.375 4177233.25 320.399993896
574646.6875 4177233.25 320.380004883
574647.9375 4177233 320.630004883
574646.5 4177233.75 319.010009766
574646.75 4177233.75 320.619995117
574647.625 4177234 320.559997559
574648 4177233.5 320.549987793
574648.0625 4177234.25 320.450012207
574648.875 4177234 320.549987793
574650.1875 4177234.25 320.480010986
574647.6875 4177234.5 320.540008545
574648.125 4177234.75 320.200012207
574648.9375 4177234.5 320.5
574649.3125 4177234.75 320.510009766
574650.25 4177234.75 320.410003662
574650.5625 4177234.5 320.559997559
574644.4375 4177235 318.929992676
574649 4177235 320.160003662
574649.375 4177235.25 320.380004883
574650.25 4177235.25 320.480010986
574650.625 4177235.25 320.410003662
574649.4375 4177235.75 320.390014648
574650.3125 4177235.75 320.459991455
