# .PCD v.7 - Point Cloud Data file format
VERSION .7
FIELDS x y z
SIZE 4 4 4
TYPE F F F
COUNT 1 1 1
WIDTH 216
HEIGHT 1
VIEWPOINT 0 0 0 1 0 0 0
POINTS 216
DATA ascii
574738.625 4177266.25 318.299987793
574740.375 4177266.5 318.369995117
574741.25 4177266.5 318.179992676
574741.6875 4177266.25 318.130004883
574737.8125 4177266.75 318.290008545
574738.6875 4177266.75 318.260009766
574740 4177266.75 318.290008545
574740.4375 4177267 318.390014648
574741.3125 4177267 318.149993896
574739.1875 4177267.25 318.299987793
574740.5 4177267.5 318.25
574741.375 4177267.5 318.200012207
574741.4375 4177268 318.160003662
574739.3125 4177268.75 318.200012207
574740.625 4177268.75 318.170013428
574741.5 4177268.75 318.089996338
574738.875 4177269 318.320007324
574739.375 4177269.5 318.380004883
574740.1875 4177269 318.160003662
574740.6875 4177269.25 318.160003662
574737.625 4177269.5 318.369995117
574738.125 4177270 318.309997559
574738.9375 4177269.5 318.329986572
574739.4375 4177270 318.279998779
574740.25 4177269.75 318.239990234
574741.5625 4177269.75 318.070007324
574742.0625 4177269.75 318.049987793
574738.1875 4177270.5 318.329986572
574739 4177270.25 318.25
574740.3125 4177270.25 318.190002441
574738.25 4177271.25 318.329986572
574739 4177270.75 318.350006104
574739.5625 4177271 318.149993896
574740.375 4177270.75 318.350006104
574737.8125 4177271.75 318.279998779
574739.625 4177271.5 318.149993896
574737 4177271.75 318.380004883
574737.0625 4177272.5 318.399993896
574739.125 4177271.75 318.179992676
574739.1875 4177272.5 318.149993896
574737.9375 4177272.75 318.309997559
574738.4375 4177272.75 318.230010986
574736.6875 4177273.5 318.399993896
574738 4177273.5 318.190002441
574735.875 4177273.75 318.369995117
574736.75 4177274 318.410003662
574737.25 4177274 318.390014648
574738.0625 4177274 318.299987793
574738.5 4177274 318.309997559
574739.375 4177274 318.119995117
574736.8125 4177274.5 318.290008545
574738.0625 4177274.5 318.369995117
574738.5625 4177274.5 318.369995117
574736 4177274.75 318.329986572
574736.8125 4177275 318.320007324
574738.625 4177275 318.220001221
574736.875 4177275.75 318.309997559
574737.375 4177275.75 318.170013428
574738.6875 4177275.75 318.190002441
574739.5 4177275.75 318.100006104
574736.125 4177276.5 318.359985352
574736.9375 4177276.25 318.179992676
574737.4375 4177276.25 318.290008545
574734.875 4177277 318.369995117
574736.1875 4177277 318.329986572
574737.5 4177277 318.369995117
574738.3125 4177276.75 318.329986572
574734.9375 4177277.5 318.390014648
574735.75 4177277.25 318.339996338
574736.25 4177277.5 318.220001221
574735.8125 4177278 318.25
574736.3125 4177278 318.260009766
574737.125 4177278 318.309997559
574738.4375 4177278 318.160003662
574738.9375 4177278 318.200012207
574733.25 4177278.75 318.380004883
574735.0625 4177278.75 318.410003662
574736.375 4177278.75 318.380004883
574737.1875 4177278.5 318.279998779
574738.9375 4177278.5 318.200012207
574735.125 4177279.25 318.339996338
574736.4375 4177279.25 318.25
574737.1875 4177279 318.25
574734.6875 4177280 318.390014648
574735.1875 4177279.75 318.299987793
574736 4177279.5 318.220001221
574737.25 4177279.5 318.209991455
574732.125 4177280.25 318.390014648
574732.625 4177280.5 318.390014648
574735.25 4177280.5 318.25
574736 4177280 318.25
574732.6875 4177281 318.309997559
574733.5 4177281 318.359985352
574734 4177281 318.25
574734.8125 4177281.25 318.380004883
574736.0625 4177280.75 318.179992676
574736.625 4177281 318.149993896
574732.75 4177281.75 318.339996338
574733.5625 4177281.5 318.359985352
574731.5 4177282.25 318.290008545
574732.75 4177282.25 318.279998779
574730.25 4177282.75 318.350006104
574731 4177283 318.350006104
574731.5 4177282.75 318.420013428
574732.3125 4177282.5 318.339996338
574729.8125 4177283.5 318.410003662
574731.0625 4177283.5 318.329986572
574731.5625 4177283.5 318.320007324
574727.75 4177284.25 318.380004883
574729.0625 4177284 318.440002441
574731.125 4177284 318.399993896
574729.875 4177284.5 318.369995117
574727.875 4177285.25 318.429992676
574728.6875 4177285 318.369995117
574729.9375 4177285 318.410003662
574727.9375 4177285.75 318.429992676
574726.25 4177286.5 318.450012207
574728 4177286.25 318.380004883
574726.3125 4177287 318.450012207
574726.3125 4177287.5 318.399993896
574810.625 4177305.75 317.459991455
574808.75 4177306.25 317.839996338
574808.0625 4177306.75 317.519989014
574810.1875 4177306.75 317.5
574810.75 4177306.75 317.470001221
574808.0625 4177307.5 317.899993896
574808.875 4177307.5 317.589996338
574809.4375 4177307.5 317.929992676
574810.1875 4177307.5 317.850006104
574807.5625 4177307.75 317.670013428
574808.125 4177308 317.899993896
574809.4375 4177308 318.049987793
574810.25 4177308 318.059997559
574808.1875 4177308.5 318.029998779
574809.5625 4177308.5 317.470001221
574811.6875 4177308.75 317.510009766
574809.625 4177309.25 317.619995117
574812.3125 4177309 317.559997559
574810.375 4177309.75 318.019989014
574814.5 4177309.5 317.5
574810.5 4177310.25 317.619995117
574814.625 4177310.5 317.670013428
574806.5 4177311 317.609985352
574816 4177310.75 317.579986572
574806.5625 4177311.5 317.730010986
574807.125 4177311.5 317.959991455
574815.3125 4177311.75 317.459991455
574807.125 4177312 318.130004883
574814 4177312.25 317.720001221
574815.375 4177312.25 317.730010986
574806.625 4177312.75 318.119995117
574813.5 4177313.25 317.630004883
574805.4375 4177313.75 317.850006104
574808.6875 4177314 317.730010986
574804.1875 4177314.5 317.630004883
574804.75 4177314.5 317.570007324
574808.1875 4177314.5 317.790008545
574808.75 4177314.75 317.5
574813.5625 4177314.25 317.660003662
574815.5 4177314.5 318.089996338
574810.875 4177314.75 317.950012207
574814.1875 4177315.25 318.140014648
574815 4177315 317.579986572
574813.6875 4177315.5 317.570007324
574811 4177316.5 318
574812.375 4177316.5 317.760009766
574813.75 4177316 317.779998779
574811.125 4177317 317.489990234
574813.8125 4177316.5 317.489990234
574809 4177317.5 317.600006104
574810.375 4177317.5 317.450012207
574811.6875 4177317.5 317.959991455
574813.8125 4177317.25 317.690002441
574807.1875 4177318.25 317.709991455
574808.4375 4177317.75 318.089996338
574815.875 4177318 317.820007324
574806 4177319.75 317.980010986
574806.0625 4177321 318.179992676
574806.6875 4177321 318.160003662
574806.1875 4177321.5 317.5
574812.875 4177322 317.859985352
574813.5 4177321.75 317.739990234
574805.5 4177322.75 317.929992676
574810.8125 4177322.5 317.720001221
574805.625 4177324 317.630004883
574810.9375 4177323.75 317.559997559
574814.4375 4177323.75 317.470001221
574807.0625 4177325 317.880004883
574811 4177324.75 317.980010986
574807.125 4177325.5 317.890014648
574803.25 4177326.25 318.049987793
574803.9375 4177326.25 317.869995117
574815.25 4177326.25 317.799987793
574803.3125 4177326.75 317.709991455
574802.0625 4177327.5 317.660003662
574806.6875 4177327.75 318
574812.6875 4177327.5 317.510009766
574813.375 4177327 317.799987793
574813.375 4177327.75 318.059997559
574802.125 4177328 318.029998779
574803.375 4177327.75 317.890014648
574806.75 4177328.25 317.769989014
574800.875 4177328.5 317.769989014
574802.1875 4177328.5 317.799987793
574802.875 4177328.25 318.040008545
574803.4375 4177328.5 317.720001221
574807.3125 4177328.25 318.100006104
574801 4177329.75 318
574802.25 4177329.75 318.160003662
574808.8125 4177329.75 317.989990234
574801.0625 4177330.25 317.619995117
574809.625 4177330.75 317.779998779
574802.4375 4177331.25 317.850006104
574803.75 4177331.75 318.079986572
574809.75 4177332.25 318.109985352
574805.1875 4177332.75 317.570007324
