# .PCD v.7 - Point Cloud Data file format
VERSION .7
FIELDS x y z
SIZE 4 4 4
TYPE F F F
COUNT 1 1 1
WIDTH 115
HEIGHT 1
VIEWPOINT 0 0 0 1 0 0 0
POINTS 115
DATA ascii
574784.4375 4177144.25 320.799987793
574783.5 4177144.75 319.170013428
574784.5 4177144.75 320.679992676
574784.75 4177144.25 320.049987793
574782.3125 4177145 318.320007324
574783.25 4177145.25 320.480010986
574784.5625 4177145.25 320.529998779
574784.75 4177145 320.829986572
574783.3125 4177145.75 320.399993896
574783.4375 4177145.75 321.660003662
574784.75 4177145.75 321.369995117
574783.375 4177146.25 320.350006104
574783.5 4177146.25 321.179992676
574783.5625 4177146.5 320.739990234
574784.5625 4177146.25 321.779998779
574784.75 4177146.25 319.760009766
574784.8125 4177146.25 321.459991455
574784.875 4177146.5 320.600006104
574786.1875 4177146.5 318.25
574782.125 4177146.75 319.850006104
574783.4375 4177146.75 319.869995117
574783.625 4177147.25 320.790008545
574784.75 4177147 320.640014648
574784.9375 4177147 320.510009766
574785.125 4177147 318.470001221
574786.3125 4177146.75 319.660003662
574786.4375 4177147 318.470001221
574782.25 4177147.75 319.230010986
574783.5 4177147.5 320.079986572
574783.5625 4177147.75 319.130004883
574783.6875 4177147.5 320.309997559
574786.125 4177147.5 320.220001221
574782.25 4177148.25 319.470001221
574782.5 4177148 319.239990234
574782.625 4177148.25 318.160003662
574783.8125 4177147.75 319.350006104
574786.1875 4177148.25 320.260009766
574786.375 4177148 320.260009766
574786.4375 4177148.25 320.079986572
574781 4177149 319.850006104
574783.5625 4177148.5 319.929992676
574784.875 4177148.75 320.260009766
574785.1875 4177149 319.970001221
574786.25 4177148.75 320.630004883
574781.25 4177149.25 319.899993896
574782.25 4177149.25 320.720001221
574782.5 4177149.25 320.429992676
574783.9375 4177149.5 319.380004883
574784.9375 4177149.25 320.149993896
574785.1875 4177149.5 320.209991455
574786.25 4177149.5 320.660003662
574786.4375 4177149.25 321.220001221
574786.5 4177149.5 320.399993896
574781.125 4177150 319.380004883
574781.25 4177149.75 320.059997559
574782.3125 4177149.75 320.890014648
574782.5 4177149.75 320.959991455
574782.6875 4177150 319.369995117
574783.75 4177149.5 319.609985352
574785 4177150 320.589996338
574786.3125 4177150 320.630004883
574786.625 4177149.75 319.450012207
574781.1875 4177150.5 319.579986572
574781.3125 4177150.25 319.809997559
574781.375 4177150.75 319.739990234
574782.375 4177150.25 320.380004883
574782.6875 4177150.75 319.910003662
574784 4177150.5 320.079986572
574785.0625 4177150.5 320.420013428
574785.25 4177150.25 320.720001221
574785.3125 4177150.75 320.579986572
574786.75 4177150.25 318.920013428
574781.5 4177151 319.040008545
574782.4375 4177150.75 320.029998779
574782.875 4177150.75 318.230010986
574783.75 4177151 320.339996338
574784.125 4177150.75 318.579986572
574785.1875 4177150.75 319.540008545
574785.375 4177151 319.489990234
574786.5 4177151 319.929992676
574786.75 4177150.75 319.679992676
574782.4375 4177151.75 321.420013428
574783.75 4177151.75 321.329986572
574783.9375 4177151.75 319.100006104
574784.125 4177151.5 319.679992676
574784.25 4177152 318.760009766
574785.5 4177151.5 319.239990234
574786.5625 4177151.5 319.769989014
574786.625 4177152 318.880004883
574786.75 4177151.5 319.950012207
574786.875 4177151.75 319.190002441
574781.375 4177152.25 319.130004883
574782.5 4177152.25 321.470001221
574782.8125 4177152.25 320.429992676
574783 4177152.5 318.600006104
574784.3125 4177152.25 318.579986572
574780.3125 4177152.75 319.429992676
574781.5625 4177153 320.170013428
574780.125 4177153.5 319.679992676
574780.3125 4177153.25 319.769989014
574781.3125 4177153.25 320.600006104
574781.375 4177153.5 320.019989014
574781.6875 4177153.25 319.170013428
574781.75 4177153.5 318.869995117
574784 4177153.25 320.510009766
574784.125 4177153.5 318.829986572
574784.1875 4177153.5 320.75
574780.5 4177154.25 318.940002441
574781.5 4177154.25 319.820007324
574782.9375 4177154 321.070007324
574784.25 4177154 320.660003662
574781.5625 4177154.5 318.859985352
574781.875 4177154.5 318.660003662
574783.125 4177154.75 319.410003662
574784.375 4177154.25 320.049987793
