# .PCD v.7 - Point Cloud Data file format
VERSION .7
FIELDS x y z
SIZE 4 4 4
TYPE F F F
COUNT 1 1 1
WIDTH 174
HEIGHT 1
VIEWPOINT 0 0 0 1 0 0 0
POINTS 174
DATA ascii
574801.6875 4177155.5 309.450012207
574802.8125 4177155 309.519989014
574801.5625 4177156.5 309.160003662
574801.875 4177157 309.130004883
574809.9375 4177157 308.959991455
574801.875 4177157.5 309.450012207
574810.1875 4177157.5 309.079986572
574800.5625 4177158 309.130004883
574801.6875 4177157.75 309.290008545
574810.25 4177158 309.160003662
574801.6875 4177158.5 309.549987793
574804.8125 4177159 309.380004883
574805.9375 4177158.75 309.279998779
574806.25 4177158.75 309
574808.6875 4177159 309.309997559
574810.25 4177158.75 309.350006104
574811.375 4177158.5 308.920013428
574801.75 4177159 309.649993896
574802.0625 4177159.25 309.510009766
574803.1875 4177159.25 309.589996338
574804.875 4177159.5 309.290008545
574806.25 4177159.5 309.359985352
574807.375 4177159.25 309.089996338
574810.125 4177159.5 309.089996338
574810.375 4177159 308.980010986
574801.8125 4177159.75 309.489990234
574802.0625 4177159.75 309.640014648
574803.1875 4177159.75 309.640014648
574803.5 4177159.75 309.339996338
574806 4177159.75 309.369995117
574806.3125 4177160 309.140014648
574807.4375 4177160 309.170013428
574807.6875 4177160 309.220001221
574808.8125 4177160 309.329986572
574809.0625 4177160 309.209991455
574810.1875 4177160 309.149993896
574810.375 4177159.75 309.040008545
574811.4375 4177159.75 309.220001221
574801.875 4177160.25 309.480010986
574802.125 4177160.25 309.470001221
574803.5625 4177160.25 309.269989014
574804.6875 4177160.5 309.480010986
574805 4177160.5 309.309997559
574806.3125 4177160.5 309.529998779
574807.5 4177160.5 309.239990234
574807.75 4177160.5 309.339996338
574808.875 4177160.75 309.25
574809.0625 4177160.5 309.600006104
574810.4375 4177160.25 308.929992676
574811.5 4177160.25 309.179992676
574811.75 4177160.25 309.420013428
574800.8125 4177160.75 309.440002441
574801.9375 4177160.75 309.589996338
574802.1875 4177160.75 309.429992676
574803.3125 4177161 309.480010986
574803.5625 4177160.75 309.440002441
574804.75 4177161 309.170013428
574805 4177161 309.190002441
574806.125 4177161 309.309997559
574806.4375 4177161 309.170013428
574807.8125 4177161 309.179992676
574808.9375 4177161.25 309.140014648
574809.1875 4177161 309.089996338
574810.1875 4177160.75 309.570007324
574810.25 4177161.25 309.119995117
574811.5625 4177160.75 309.269989014
574811.8125 4177160.75 309.25
574811.875 4177161.25 309.109985352
574813.1875 4177161 309.100006104
574814.25 4177160.75 309.350006104
574800.8125 4177161.5 309.589996338
574802 4177161.5 309.480010986
574802.25 4177161.25 309.609985352
574802.3125 4177161.75 309.480010986
574803.6875 4177162 309.649993896
574806.1875 4177161.75 309.609985352
574807.8125 4177161.5 309.230010986
574809 4177161.75 309.170013428
574809.1875 4177161.5 309.019989014
574810.3125 4177161.75 309.040008545
574810.5625 4177161.25 309.170013428
574811.625 4177161.5 309.089996338
574813 4177162 309.170013428
574813.25 4177161.5 309.109985352
574814.5625 4177161.5 309.029998779
574802.0625 4177162 309.320007324
574802.3125 4177162.5 309.510009766
574806.5 4177162.25 309.549987793
574807.625 4177162.25 309.309997559
574807.875 4177162 309.390014648
574809 4177162.5 309.350006104
574809.25 4177162 309.269989014
574810.5625 4177162 309.559997559
574811.6875 4177162 309.109985352
574814.375 4177162 309.230010986
574802.0625 4177162.5 309.429992676
574802.375 4177163 309.470001221
574803.5 4177162.75 309.260009766
574804.9375 4177162.75 309.119995117
574805.125 4177162.75 309.549987793
574806.3125 4177162.75 309.290008545
574807.6875 4177163 309.320007324
574807.9375 4177162.5 309.290008545
574809.3125 4177162.75 309.279998779
574813.0625 4177162.5 309.290008545
574813.125 4177163 308.940002441
574813.375 4177162.75 308.989990234
574814.4375 4177162.5 309.089996338
574814.75 4177163 309.019989014
574804.9375 4177163.25 309.380004883
574805.1875 4177163.25 309.630004883
574806.375 4177163.25 309.260009766
574806.625 4177163.25 309.109985352
574807.75 4177163.5 309.589996338
574808 4177163.25 309.179992676
574811.8125 4177163.25 309.019989014
574813.4375 4177163.25 308.929992676
574814.5 4177163 309.029998779
574814.8125 4177163.5 308.760009766
574805.25 4177163.75 309.570007324
574806.625 4177163.75 309.559997559
574813.1875 4177163.75 309.160003662
574813.4375 4177163.75 309.5
574814.5 4177163.75 309.269989014
574806.6875 4177164.25 309.619995117
574808.125 4177164.75 309.309997559
574810.5 4177164.25 309.339996338
574813.25 4177164.25 309.25
574813.5 4177164.25 309.410003662
574806.75 4177165 309.529998779
574807.875 4177165.25 309.450012207
574808.1875 4177165.5 309.459991455
574809.5 4177165 309.540008545
574809.5625 4177165.5 309.369995117
574811.9375 4177165 309.519989014
574806.75 4177165.5 309.609985352
574808.25 4177166 309.369995117
574809.25 4177165.5 309.390014648
574809.5625 4177166 309.25
574812.25 4177165.75 309.540008545
574808.25 4177166.5 309.529998779
574809.3125 4177166 309.570007324
574809.375 4177166.5 309.220001221
574809.625 4177166.5 309.309997559
574810.6875 4177166 309.519989014
574808.0625 4177167 309.470001221
574808.3125 4177167 309.579986572
574811 4177166.75 309.290008545
574812.0625 4177166.75 309.269989014
574812.375 4177166.75 309.279998779
574812.4375 4177168 309.320007324
574809.8125 4177168.75 309.5
574811.1875 4177168.5 309.190002441
574809.5625 4177169 309.529998779
574812.25 4177169 309.470001221
574811 4177169.5 309.510009766
574811.25 4177169.5 309.25
574812.3125 4177169.75 309.570007324
574812.6875 4177170 309.279998779
574815 4177169.75 309.359985352
574815.3125 4177169.75 309.410003662
574808.625 4177170.25 309.579986572
574809.6875 4177170.25 309.350006104
574811 4177170.25 309.600006104
574815.0625 4177170.25 309.160003662
574816.375 4177170.25 309.329986572
574808.6875 4177170.75 309.329986572
574809.75 4177170.75 309.329986572
574810 4177171 309.529998779
574813.75 4177170.75 309.459991455
574815.4375 4177170.75 309.329986572
574816.4375 4177170.75 309.350006104
574808.75 4177171.5 309.390014648
574816.5 4177171.5 309.450012207
