# .PCD v.7 - Point Cloud Data file format
VERSION .7
FIELDS x y z
SIZE 4 4 4
TYPE F F F
COUNT 1 1 1
WIDTH 321
HEIGHT 1
VIEWPOINT 0 0 0 1 0 0 0
POINTS 321
DATA ascii
574800.75 4177175.75 309.670013428
574800.5625 4177177 309.549987793
574800.875 4177176.75 309.450012207
574799.5 4177177.5 309.529998779
574800.625 4177177.5 309.670013428
574800.875 4177177.25 309.649993896
574802 4177177.75 309.660003662
574802.25 4177177.25 309.630004883
574799.3125 4177178 309.470001221
574799.5625 4177178 309.570007324
574800.9375 4177178 309.540008545
574802.0625 4177178.25 309.630004883
574802.375 4177177.75 309.429992676
574799.3125 4177178.75 309.660003662
574800.75 4177178.75 309.649993896
574802.125 4177179 309.619995117
574802.375 4177178.5 309.529998779
574802.4375 4177179 309.390014648
574803.5 4177178.5 309.660003662
574800.75 4177179.25 309.649993896
574802.1875 4177179.5 309.649993896
574802.5 4177179.5 309.5
574803.875 4177179.5 309.630004883
574804.9375 4177179.25 309.649993896
574805.25 4177179.5 309.649993896
574801.125 4177179.5 309.670013428
574801.1875 4177180 309.489990234
574802.25 4177180 309.630004883
574803.625 4177179.5 309.489990234
574803.9375 4177180 309.510009766
574805 4177179.75 309.519989014
574805.3125 4177180 309.529998779
574806.375 4177179.75 309.549987793
574806.6875 4177179.75 309.589996338
574801.1875 4177180.75 309.630004883
574802.625 4177180.75 309.549987793
574803.625 4177180.25 309.630004883
574806.4375 4177180.5 309.589996338
574807.8125 4177180.5 309.589996338
574802.625 4177181.25 309.640014648
574803.6875 4177180.75 309.600006104
574804.0625 4177181.25 309.570007324
574805.125 4177181 309.589996338
574806.8125 4177181 309.589996338
574807.875 4177181 309.619995117
574803.75 4177181.5 309.529998779
574804.125 4177181.75 309.609985352
574805.1875 4177181.5 309.339996338
574805.5 4177181.75 309.519989014
574806.5625 4177181.5 309.510009766
574806.875 4177181.5 309.329986572
574807.9375 4177181.5 309.579986572
574808.25 4177181.5 309.450012207
574809.3125 4177181.75 309.510009766
574809.625 4177181.5 309.589996338
574810.75 4177182 309.489990234
574811 4177181.5 309.559997559
574803.8125 4177182 309.410003662
574804.1875 4177182.25 309.470001221
574805.1875 4177182 309.549987793
574805.5625 4177182.25 309.630004883
574806.625 4177182.25 309.510009766
574806.9375 4177182 309.579986572
574808 4177182.25 309.559997559
574808.3125 4177182 309.390014648
574809.375 4177182.25 309.380004883
574809.6875 4177182 309.420013428
574811 4177182 309.489990234
574802.8125 4177183 309.600006104
574803.875 4177182.5 309.559997559
574804.1875 4177182.75 309.559997559
574805.25 4177182.75 309.630004883
574805.5625 4177182.75 309.609985352
574806.6875 4177182.75 309.350006104
574806.9375 4177182.5 309.630004883
574808.0625 4177182.75 309.480010986
574808.3125 4177182.5 309.589996338
574809.4375 4177183 309.489990234
574810.75 4177182.5 309.570007324
574810.8125 4177183 309.390014648
574811.0625 4177182.5 309.489990234
574811.125 4177183 309.369995117
574812.1875 4177183 309.410003662
574813.8125 4177182.75 309.589996338
574803.9375 4177183.25 309.540008545
574805.3125 4177183.25 309.399993896
574805.625 4177183.25 309.489990234
574806.75 4177183.25 309.5
574807 4177183.25 309.470001221
574808.125 4177183.25 309.399993896
574808.375 4177183 309.579986572
574808.4375 4177183.75 309.410003662
574809.5 4177183.5 309.470001221
574809.8125 4177183.5 309.290008545
574810.875 4177183.75 309.609985352
574811.1875 4177183.5 309.390014648
574812.25 4177183.5 309.309997559
574812.5 4177183.5 309.570007324
574813.5 4177183.25 309.510009766
574813.875 4177183.5 309.489990234
574802.625 4177184.25 309.670013428
574803.9375 4177183.75 309.589996338
574805.375 4177183.75 309.399993896
574805.6875 4177184 309.609985352
574806.75 4177184 309.470001221
574807.0625 4177183.75 309.299987793
574808.125 4177184 309.600006104
574808.5 4177184.25 309.359985352
574809.5625 4177184 309.399993896
574809.875 4177184.25 309.369995117
574810.9375 4177184.25 309.399993896
574811.25 4177184.25 309.570007324
574812.3125 4177184.25 309.25
574812.5625 4177184 309.529998779
574813.5625 4177183.75 309.510009766
574814.9375 4177183.75 309.5
574816.25 4177183.75 309.559997559
574804 4177184.25 309.600006104
574805.4375 4177184.5 309.619995117
574807.125 4177184.25 309.529998779
574808.25 4177184.5 309.230010986
574809.625 4177184.75 309.570007324
574809.9375 4177184.75 309.25
574812.3125 4177184.75 309.529998779
574812.625 4177184.5 309.279998779
574813.625 4177184.25 309.359985352
574813.9375 4177184.5 309.410003662
574815 4177184.25 309.440002441
574815 4177184.75 309.290008545
574815.25 4177184.25 309.5
574815.3125 4177184.75 309.440002441
574816.625 4177184.75 309.459991455
574804.0625 4177184.75 309.600006104
574805.8125 4177185 309.559997559
574807.1875 4177184.75 309.589996338
574807.1875 4177185.5 309.589996338
574808.25 4177185 309.339996338
574809.625 4177185.25 309.549987793
574810 4177185.25 309.170013428
574812.6875 4177185 309.320007324
574815.375 4177185.25 309.209991455
574816.375 4177185 309.440002441
574805.5 4177185.5 309.649993896
574805.8125 4177185.75 309.630004883
574806.9375 4177185.75 309.540008545
574807.25 4177186 309.589996338
574808.3125 4177185.75 309.519989014
574809.6875 4177185.75 309.600006104
574810.0625 4177185.75 309.260009766
574815.0625 4177185.5 309.510009766
574815.125 4177186 309.230010986
574815.4375 4177186 309.369995117
574816.4375 4177185.5 309.5
574816.75 4177185.75 309.549987793
574804.1875 4177186 309.589996338
574805.5625 4177186.25 309.410003662
574805.9375 4177186.25 309.410003662
574807 4177186.25 309.609985352
574807.3125 4177186.5 309.480010986
574808.375 4177186.25 309.489990234
574808.75 4177186.5 309.309997559
574809.75 4177186.5 309.480010986
574813.75 4177186 309.489990234
574814.125 4177186.25 309.489990234
574815.1875 4177186.5 309.369995117
574815.5 4177186.5 309.540008545
574816.5 4177186 309.149993896
574816.8125 4177186.25 309.470001221
574805.625 4177186.75 309.630004883
574805.9375 4177186.75 309.540008545
574807 4177187 309.630004883
574807.375 4177187 309.380004883
574808.4375 4177187 309.570007324
574808.75 4177187 309.309997559
574809.8125 4177187 309.579986572
574810.125 4177187 309.529998779
574814.1875 4177186.75 309.399993896
574815.5625 4177187 309.190002441
574816.5625 4177186.5 309.220001221
574816.875 4177187 309.489990234
574807.0625 4177187.5 309.540008545
574807.4375 4177187.75 309.559997559
574808.5 4177187.5 309.359985352
574808.8125 4177187.5 309.209991455
574809.875 4177187.5 309.489990234
574810.1875 4177187.5 309.269989014
574811.25 4177187.75 309.410003662
574813.875 4177187.25 309.529998779
574814.25 4177187.25 309.290008545
574815.625 4177187.5 309.179992676
574816.5625 4177187.25 309.440002441
574816.875 4177187.5 309.470001221
574805.75 4177188 309.600006104
574807.125 4177188 309.359985352
574807.4375 4177188.25 309.640014648
574808.5 4177188 309.579986572
574808.875 4177188 309.200012207
574809.9375 4177188.25 309.540008545
574810.25 4177188 309.579986572
574811.3125 4177188.25 309.510009766
574815.25 4177187.75 309.549987793
574815.625 4177188.25 309.579986572
574816.625 4177187.75 309.510009766
574806.125 4177188.5 309.519989014
574806.1875 4177189 309.459991455
574807.1875 4177188.5 309.480010986
574807.5 4177188.75 309.619995117
574808.5625 4177188.5 309.440002441
574808.9375 4177188.75 309.450012207
574806.1875 4177189.5 309.459991455
574807.25 4177189.25 309.549987793
574807.5625 4177189.25 309.489990234
574808.625 4177189.25 309.429992676
574805.875 4177189.75 309.540008545
574807.3125 4177189.75 309.459991455
574807.625 4177189.75 309.269989014
574808.6875 4177189.75 309.209991455
574809 4177189.75 309.579986572
574805.9375 4177190.25 309.450012207
574807.375 4177190.25 309.339996338
574807.6875 4177190.5 309.290008545
574809.0625 4177190.25 309.380004883
574806 4177190.75 309.450012207
574806.375 4177191.25 309.559997559
574807.375 4177191 309.410003662
574807.75 4177191 309.239990234
574808.75 4177191 309.489990234
574809.125 4177191 309.390014648
574806.0625 4177191.5 309.570007324
574806.4375 4177191.75 309.429992676
574807.8125 4177191.5 309.350006104
574808.8125 4177191.5 309.519989014
574809.1875 4177191.5 309.459991455
574806.125 4177192 309.480010986
574806.4375 4177192.25 309.549987793
574807.5 4177192 309.369995117
574807.875 4177192 309.320007324
574808.875 4177192 309.350006104
574809.1875 4177192 309.619995117
574807.5625 4177192.75 309.510009766
574807.875 4177192.5 309.290008545
574808.9375 4177192.75 309.309997559
574806.1875 4177193.25 309.589996338
574807.9375 4177193.25 309.420013428
574809 4177193.25 309.440002441
574809.3125 4177193.25 309.609985352
574808 4177193.75 309.440002441
574809.0625 4177193.75 309.559997559
574809.375 4177193.75 309.459991455
574807.6875 4177194.5 309.519989014
574808 4177194.5 309.589996338
574809.125 4177194.5 309.329986572
574809.4375 4177194.25 309.510009766
574807.75 4177195 309.459991455
574808.0625 4177195 309.480010986
574809.125 4177195 309.410003662
574809.5 4177195 309.540008545
574810.875 4177195.5 309.510009766
574807.8125 4177195.5 309.519989014
574808.125 4177195.5 309.5
574809.1875 4177195.5 309.440002441
574809.5 4177195.5 309.380004883
574809.5625 4177196 309.350006104
574808.1875 4177196 309.390014648
574809.25 4177196.25 309.579986572
574809.3125 4177196.75 309.410003662
574809.6875 4177197 309.329986572
574811.0625 4177197 309.440002441
574809.375 4177197.25 309.489990234
574809.75 4177197.75 309.269989014
574811.1875 4177198.25 309.269989014
574809.8125 4177198.75 309.5
574811.1875 4177198.75 309.399993896
574809.5 4177199 309.529998779
574810.875 4177199.25 309.470001221
574816.625 4177199.5 309.5
574810.9375 4177199.75 309.470001221
574811.3125 4177200 309.549987793
574816.375 4177200 309.549987793
574816.6875 4177200 309.399993896
574811 4177200.25 309.549987793
574816.75 4177200.5 309.320007324
574811.375 4177201 309.619995117
574812.4375 4177201 309.559997559
574816.8125 4177201 309.399993896
574811.4375 4177201.5 309.540008545
574812.5 4177201.75 309.440002441
574812.8125 4177201.5 309.359985352
574816.875 4177201.5 309.25
574812.5625 4177202.75 309.600006104
574813.9375 4177202.75 309.609985352
574816.625 4177202.75 309.399993896
574816.9375 4177202.75 309.470001221
574813 4177203.25 309.510009766
574814 4177203.25 309.220001221
574814.3125 4177203 309.519989014
574815.6875 4177203.75 309.519989014
574812.6875 4177204 309.559997559
574813 4177203.75 309.519989014
574814.0625 4177204 309.510009766
574814.375 4177203.75 309.339996338
574815.75 4177204.25 309.200012207
574814.0625 4177204.5 309.549987793
574814.375 4177204.25 309.529998779
574814.4375 4177204.75 309.519989014
574815.4375 4177204.75 309.299987793
574815.75 4177204.75 309.450012207
574814.5 4177205.25 309.510009766
574815.5 4177205.25 309.279998779
574815.8125 4177205.25 309.440002441
574815.5625 4177205.75 309.269989014
574815.875 4177205.75 309.429992676
574815.5625 4177206.5 309.350006104
574815.9375 4177206.5 309.170013428
574816.9375 4177206.25 309.350006104
574815.625 4177207 309.540008545
574816 4177207 309.299987793
574817 4177206.75 309.170013428
574815.6875 4177207.5 309.529998779
574816.0625 4177207.5 309.260009766
574815.75 4177208.25 309.600006104
