# .PCD v.7 - Point Cloud Data file format
VERSION .7
FIELDS x y z
SIZE 4 4 4
TYPE F F F
COUNT 1 1 1
WIDTH 349
HEIGHT 1
VIEWPOINT 0 0 0 1 0 0 0
POINTS 349
DATA ascii
574757.625 4177121.75 320.010009766
574757.8125 4177121.75 319.779998779
574760.0625 4177121.5 321.350006104
574760.25 4177121.5 320.929992676
574757.625 4177122.5 320.890014648
574757.8125 4177122.25 320.529998779
574758.8125 4177122 321.579986572
574759 4177122.25 321.75
574760.0625 4177122.25 321.890014648
574760.25 4177122.25 322.089996338
574763.9375 4177122.5 322.140014648
574757.6875 4177123 320.619995117
574757.875 4177122.75 320.700012207
574758.875 4177122.75 321.619995117
574759 4177123 320.799987793
574759.0625 4177122.75 321.709991455
574759.125 4177123 321.160003662
574760.1875 4177122.5 321.040008545
574760.25 4177122.75 322.209991455
574760.375 4177123 320.880004883
574762.8125 4177122.75 320.559997559
574762.9375 4177123 320.980010986
574764.0625 4177122.5 322.589996338
574764.125 4177123 322.209991455
574765.3125 4177123 321.980010986
574765.4375 4177122.75 321.769989014
574757.75 4177123.75 321.010009766
574757.875 4177123.25 320.739990234
574759 4177123.75 320.989990234
574759.1875 4177123.5 320.929992676
574760.25 4177123.25 321.109985352
574762.875 4177123.25 320.179992676
574765.375 4177123.25 321.420013428
574765.4375 4177123.5 322.809997559
574765.5625 4177123.75 321.649993896
574757.8125 4177124 320.489990234
574757.9375 4177123.75 320.75
574758 4177124.25 320.549987793
574759.1875 4177124 321.170013428
574760.25 4177123.75 321.380004883
574760.4375 4177124 321.359985352
574761.75 4177124 321.109985352
574763.0625 4177124.25 319.429992676
574763.0625 4177123.75 320.450012207
574764.0625 4177123.75 323.589996338
574764.0625 4177124 322.019989014
574764.125 4177124.25 323.260009766
574764.25 4177124.25 320.440002441
574764.3125 4177124.25 321.799987793
574765.4375 4177124 321.519989014
574765.625 4177124 321.459991455
574755.4375 4177124.75 319.209991455
574756.75 4177124.75 318.709991455
574757.875 4177124.75 320.850006104
574758.0625 4177124.75 320.480010986
574760.3125 4177124.5 321.640014648
574760.5 4177124.5 321.570007324
574764.3125 4177124.75 321.709991455
574765.625 4177124.75 320.149993896
574765.625 4177124.5 321.820007324
574765.8125 4177124.5 319.769989014
574765.875 4177124.75 319.140014648
574755.625 4177125 319.339996338
574755.6875 4177125.25 319.179992676
574757 4177125.25 318.739990234
574757.875 4177125.25 320.790008545
574758.0625 4177125.25 320.799987793
574759.125 4177125.5 321.459991455
574759.25 4177125 321.739990234
574763.0625 4177125.25 322.299987793
574765.6875 4177125.25 319.75
574765.9375 4177125.25 319.200012207
574756.75 4177125.75 319.989990234
574756.9375 4177126 319.869995117
574758 4177125.75 320.619995117
574758.0625 4177126 321.429992676
574759.1875 4177126 321.299987793
574759.3125 4177125.5 321.600006104
574759.4375 4177125.75 320.959991455
574761.875 4177126 320.109985352
574762.0625 4177126 319.890014648
574763.0625 4177125.75 322.579986572
574763.375 4177125.75 319.679992676
574764.375 4177126 321.130004883
574764.4375 4177125.5 321.450012207
574764.5625 4177125.75 320.540008545
574765.875 4177126 318.700012207
574767.125 4177125.5 318.649993896
574755.6875 4177126.25 318.329986572
574756.75 4177126.5 320.410003662
574757.9375 4177126.5 321.700012207
574758.1875 4177126 320.549987793
574759.3125 4177126.25 320.540008545
574760.8125 4177126.5 320.320007324
574761.9375 4177126.25 319.579986572
574763.3125 4177126.25 318.589996338
574764.5 4177126.5 321.570007324
574765.6875 4177126 321.160003662
574765.875 4177126.25 320.989990234
574766 4177126.25 319.220001221
574767.25 4177126.5 318.290008545
574755.8125 4177126.75 318.839996338
574756.8125 4177127 320.739990234
574756.9375 4177126.75 320.529998779
574757 4177127.25 320.640014648
574758 4177127.25 321.809997559
574758.125 4177127 321.799987793
574758.1875 4177127.25 319.609985352
574761.9375 4177127.25 320.640014648
574762.125 4177127 320.290008545
574763.5625 4177127 318.609985352
574764.4375 4177127.25 321.269989014
574757.0625 4177127.5 319.869995117
574757.1875 4177127.75 319.399993896
574758.1875 4177127.25 321.540008545
574758.375 4177127.5 320.029998779
574762.1875 4177127.5 319.850006104
574764.625 4177127.5 321.690002441
574757 4177128 319.649993896
574757.0625 4177128.25 318.709991455
574757.1875 4177128.25 319.320007324
574758.3125 4177128.25 319.700012207
574759.375 4177128.5 321.929992676
574759.5 4177128.25 322.660003662
574763.5 4177128.5 318.470001221
574763.625 4177128 318.820007324
574758.375 4177129 319.619995117
574758.4375 4177128.5 320.420013428
574759.5 4177128.5 320.609985352
574759.5625 4177128.5 322.019989014
574759.6875 4177128.75 320.809997559
574760.8125 4177128.5 320.299987793
574761.0625 4177128.75 320.049987793
574762.3125 4177129 319.929992676
574758.375 4177129.25 321.470001221
574759.75 4177129 320.5
574760.875 4177129 320.010009766
574761.0625 4177129.5 320.25
574762.1875 4177129.25 319.910003662
574762.4375 4177129.25 319.5
574763.5 4177129.25 319.25
574764.875 4177129.25 318.829986572
574765.0625 4177129.5 318.540008545
574752.1875 4177130.25 318.670013428
574752.3125 4177129.75 318.75
574753.4375 4177129.75 318.459991455
574753.625 4177129.75 318.309997559
574758.25 4177130 321.820007324
574758.4375 4177129.75 321.640014648
574758.5 4177129.75 318.910003662
574759.75 4177129.75 321.679992676
574760.8125 4177130 321.75
574762.3125 4177129.75 319.429992676
574762.5 4177129.75 319.429992676
574764.9375 4177130 318.769989014
574765.125 4177130.25 318.989990234
574752.375 4177130.25 318.829986572
574753.5 4177130.25 318.809997559
574753.6875 4177130.25 318.429992676
574757.1875 4177130.25 319.850006104
574757.375 4177130.25 319.470001221
574758.5 4177130.25 321.489990234
574758.5625 4177130.25 318.529998779
574758.75 4177130.5 318.970001221
574759.75 4177130.5 321.839996338
574759.9375 4177130.25 319.839996338
574761 4177130.25 321.940002441
574762.25 4177130.5 320.489990234
574762.5 4177130.25 319.890014648
574763.4375 4177130.5 322.029998779
574763.6875 4177130.25 318.859985352
574763.6875 4177130.5 320.799987793
574763.75 4177130.75 318.25
574752.1875 4177131 319.470001221
574752.3125 4177131.25 318.619995117
574752.375 4177131 319.239990234
574753.5625 4177130.75 318.269989014
574755.875 4177131 321.130004883
574756.0625 4177131 320.859985352
574757.25 4177130.75 320.160003662
574759.6875 4177131 321.279998779
574759.875 4177131.25 319.600006104
574760 4177130.75 319.890014648
574760.0625 4177131 318.950012207
574760.875 4177130.75 322.220001221
574760.9375 4177131.25 321.600006104
574761.0625 4177130.75 322
574761.125 4177131.25 321.670013428
574762.3125 4177131.25 320.709991455
574762.5 4177131 320.640014648
574762.6875 4177131 318.399993896
574763.9375 4177131 318.839996338
574752.375 4177132 318.760009766
574752.4375 4177131.5 319.239990234
574752.5 4177131.75 318.690002441
574755.9375 4177131.5 320.859985352
574757.1875 4177131.75 321.299987793
574758.6875 4177131.25 318.309997559
574759.9375 4177131.75 319.279998779
574760.125 4177131.75 319.329986572
574761.25 4177131.75 319.029998779
574761.25 4177131.25 320.329986572
574761.375 4177131.75 319.709991455
574762.4375 4177131.5 320.089996338
574762.6875 4177131.5 318.920013428
574763.75 4177131.5 318.910003662
574763.9375 4177131.5 318.880004883
574753.4375 4177132 321.119995117
574753.5625 4177132.25 319.790008545
574753.6875 4177132.25 320.489990234
574754.625 4177132.25 322.059997559
574754.9375 4177132 320.410003662
574756.0625 4177132 322.130004883
574756.0625 4177132.5 322.25
574757.3125 4177132 320.079986572
574757.4375 4177132.5 319.579986572
574757.4375 4177132 321.170013428
574760 4177132.25 319.309997559
574760.1875 4177132 318.929992676
574761.25 4177132.5 319.899993896
574761.375 4177132.25 319.859985352
574762.625 4177132.5 320.260009766
574752.5 4177133 318.700012207
574752.625 4177132.75 318.940002441
574753.6875 4177133 321.200012207
574754.6875 4177133 322.239990234
574754.9375 4177132.75 321.510009766
574755.125 4177132.75 319.380004883
574755.875 4177132.5 322.459991455
574756 4177133 321.799987793
574756.1875 4177132.75 321.809997559
574758.6875 4177133 320.320007324
574758.875 4177132.75 319.769989014
574760.1875 4177132.75 319.790008545
574761.5 4177132.5 319.410003662
574763.8125 4177132.75 320.089996338
574765.0625 4177132.5 320.209991455
574765.1875 4177132.5 320.739990234
574765.25 4177133 320.510009766
574752.6875 4177133.25 318.420013428
574752.75 4177133.75 318.410003662
574753.5625 4177133.25 321.079986572
574753.6875 4177133.5 320.179992676
574753.75 4177133.25 320.809997559
574753.875 4177133.5 320.079986572
574754.75 4177133.25 321.709991455
574757.5 4177133.5 319.970001221
574757.625 4177133.25 320.119995117
574758.75 4177133.5 319.950012207
574760.1875 4177133.5 320.350006104
574761.5 4177133.25 320.260009766
574762.375 4177133.25 322.049987793
574762.5 4177133.5 321.160003662
574762.5625 4177133.5 322.5
574762.6875 4177133.75 321.359985352
574763.8125 4177133.5 320.5
574764 4177133.25 320.470001221
574765.125 4177133.25 320.339996338
574765.25 4177133.75 321.089996338
574752.75 4177134.25 318.760009766
574753.75 4177134 319.660003662
574754.8125 4177134 321.959991455
574754.9375 4177134 322.570007324
574755.125 4177134 320.890014648
574756 4177133.75 323.179992676
574756.1875 4177134 322.679992676
574757.6875 4177133.75 319.709991455
574757.75 4177134.25 319.920013428
574758.8125 4177134.25 320.429992676
574758.9375 4177133.75 320.149993896
574761.4375 4177134 319.149993896
574761.625 4177134 319.339996338
574762.75 4177134.25 321.25
574764 4177134 321.380004883
574764.0625 4177134.25 318.880004883
574765.0625 4177134 321.640014648
574766.375 4177134 321.369995117
574753.8125 4177134.5 319.489990234
574754 4177134.5 319.829986572
574754.9375 4177134.25 320.899993896
574755.125 4177134.5 320.940002441
574755.25 4177134.75 320.010009766
574756.0625 4177134.25 322.920013428
574756.125 4177134.75 322.589996338
574756.25 4177134.5 322.570007324
574757.5 4177134.25 320.369995117
574762.5625 4177134.25 321.559997559
574762.625 4177134.75 320.920013428
574762.8125 4177134.5 321.119995117
574763.8125 4177134.25 321.309997559
574764.0625 4177134.5 321.390014648
574765.125 4177134.75 321.809997559
574765.25 4177134.25 321.989990234
574765.3125 4177134.75 321.640014648
574754.0625 4177135 319.390014648
574755 4177135 320.920013428
574755.0625 4177135.25 320.339996338
574755.4375 4177135.5 318.299987793
574756.1875 4177135.25 321.920013428
574756.3125 4177135 322.130004883
574757.75 4177135 320.630004883
574758.875 4177135.5 320.529998779
574759.125 4177135.25 319.869995117
574762.75 4177135 319.829986572
574762.875 4177135.25 318.399993896
574762.875 4177134.75 320.290008545
574763 4177135.25 319.459991455
574764 4177135 320.010009766
574764.125 4177135 320.679992676
574764.25 4177135 319.429992676
574764.375 4177135.5 318.769989014
574765.1875 4177135.25 321.359985352
574765.375 4177135.25 319.619995117
574765.375 4177135.25 321.649993896
574765.5 4177135.25 320.059997559
574754 4177135.5 318.989990234
574754 4177135.75 320.450012207
574754.125 4177136 319.5
574755.25 4177135.5 320.510009766
574757.5625 4177135.75 321.160003662
574757.75 4177135.75 321.809997559
574758.9375 4177136 320.649993896
574759.125 4177136 320.920013428
574762.9375 4177135.75 318.309997559
574763.0625 4177135.5 319.170013428
574765.4375 4177135.75 319.320007324
574765.625 4177135.75 319.230010986
574755.25 4177136 319.059997559
574755.4375 4177136 319.070007324
574755.5625 4177136.5 318.339996338
574756.5625 4177136.25 318.890014648
574756.6875 4177136.25 320.019989014
574757.625 4177136.25 321.130004883
574757.8125 4177136 321.290008545
574759 4177136.5 320.130004883
574759.1875 4177136.25 320.279998779
574756.625 4177136.75 319.149993896
574757.6875 4177136.75 321.290008545
574757.875 4177136.75 321.399993896
574757.875 4177137 321.320007324
574759.25 4177136.75 320.630004883
574765.5625 4177136.75 318.470001221
574756.75 4177137.5 320.279998779
574757.75 4177137.25 320.950012207
574758 4177137.5 320.980010986
574757.8125 4177138 320.920013428
574757.9375 4177138.25 319.739990234
574758.0625 4177138 320.75
574758.125 4177138.25 319.980010986
