# .PCD v.7 - Point Cloud Data file format
VERSION .7
FIELDS x y z
SIZE 4 4 4
TYPE F F F
COUNT 1 1 1
WIDTH 82
HEIGHT 1
VIEWPOINT 0 0 0 1 0 0 0
POINTS 82
DATA ascii
574755.8125 4177118.25 307.390014648
574755.9375 4177118 307.609985352
574756 4177118.25 307.359985352
574756.8125 4177118.25 307.299987793
574756.8125 4177118.25 307.589996338
574756.875 4177118 307.709991455
574756.875 4177117.75 307.890014648
574756.875 4177117.75 307.630004883
574757.0625 4177117.75 307.640014648
574757.125 4177118.25 307.529998779
574757.25 4177117.75 307.380004883
574754.5625 4177118.75 307.940002441
574755.875 4177119 307.769989014
574756 4177119 307.820007324
574757.25 4177118.5 307.820007324
574754.625 4177119.25 307.709991455
574754.8125 4177119.25 307.640014648
574756.0625 4177119.25 307.779998779
574757.6875 4177119.25 307.619995117
574758.625 4177119 307.380004883
574754.6875 4177120 308.010009766
574754.875 4177119.75 307.470001221
574755.875 4177119.75 308.380004883
574754.75 4177120.5 308.100006104
574754.9375 4177120.25 307.619995117
574755.875 4177120.5 309.609985352
574753.5625 4177121 307.790008545
574753.75 4177121 307.420013428
574754.8125 4177121 307.640014648
574754.9375 4177120.75 307.790008545
574755 4177121.25 307.679992676
574756 4177121 309.859985352
574753.5625 4177122 308.609985352
574753.75 4177121.5 307.510009766
574754.875 4177121.75 307.920013428
574755.0625 4177121.75 307.739990234
574753.8125 4177122 307.489990234
574754.875 4177122.25 307.950012207
574755.0625 4177122.25 307.970001221
574753.6875 4177122.75 307.910003662
574753.875 4177123 307.760009766
574755 4177122.75 307.700012207
574755.125 4177122.75 307.920013428
574750.125 4177123.25 307.959991455
574751.375 4177123.5 307.929992676
574753.75 4177123.5 307.869995117
574753.9375 4177123.5 307.890014648
574755 4177123.25 307.730010986
574755.1875 4177123.25 307.760009766
574750 4177124 308.070007324
574750.1875 4177123.75 307.950012207
574751.25 4177123.75 308.019989014
574752.6875 4177124 308.049987793
574753.8125 4177124 307.890014648
574754 4177124 308.029998779
574755.0625 4177124 307.820007324
574755.25 4177123.75 307.690002441
574755.25 4177124.25 307.720001221
574753.875 4177124.75 308.140014648
574754 4177124.5 307.880004883
574755.125 4177124.5 308.010009766
574755.3125 4177124.75 307.980010986
574752.625 4177125 308.190002441
574753.9375 4177125.25 308.029998779
574754.0625 4177125 308.070007324
574755.1875 4177125 307.890014648
574755.375 4177125.25 307.899993896
574752.6875 4177125.5 308.190002441
574752.8125 4177125.5 308.070007324
574753.9375 4177126 308.640014648
574754.125 4177125.5 308.170013428
574755.1875 4177125.75 308.609985352
574755.4375 4177125.75 308.070007324
574752.9375 4177126.5 308.179992676
574754.125 4177126 308.410003662
574754.1875 4177126.5 308.230010986
574755.25 4177126.5 308.820007324
574755.4375 4177126.25 308.160003662
574755.25 4177127 308.950012207
574755.5 4177126.75 308.200012207
574755.375 4177128.25 308.809997559
574754.375 4177128.5 308.359985352
