# .PCD v.7 - Point Cloud Data file format
VERSION .7
FIELDS x y z
SIZE 4 4 4
TYPE F F F
COUNT 1 1 1
WIDTH 1382
HEIGHT 1
VIEWPOINT 0 0 0 1 0 0 0
POINTS 1382
DATA ascii
574717.5625 4177127 308.739990234
574718.6875 4177127 308.850006104
574718.8125 4177126.75 308.890014648
574720 4177127 308.799987793
574720.125 4177126.75 308.850006104
574721.1875 4177126.75 308.700012207
574721.375 4177126.75 308.690002441
574722.5 4177126.75 308.649993896
574722.625 4177126.75 308.709991455
574723.75 4177127 308.890014648
574723.9375 4177127 308.619995117
574725 4177127 308.720001221
574725.1875 4177127 308.839996338
574730 4177127 309.950012207
574730.25 4177126.75 308.670013428
574733.875 4177127 308.829986572
574734.0625 4177127.25 308.779998779
574735.125 4177127 308.589996338
574735.3125 4177127 308.429992676
574768.1875 4177126.75 307.779998779
574768.3125 4177126.75 307.970001221
574768.375 4177127.25 308.279998779
574771.9375 4177127 309.549987793
574772.1875 4177126.75 308.380004883
574773.4375 4177127 308.029998779
574773.5625 4177127 308.100006104
574774.5625 4177127 309.510009766
574774.75 4177127 307.779998779
574774.875 4177126.75 307.950012207
574776 4177126.75 308.140014648
574776.1875 4177127 308.369995117
574782.625 4177126.75 307.980010986
574782.875 4177127.25 307.940002441
574783.9375 4177127 308.549987793
574784.125 4177126.75 308.399993896
574784.1875 4177127 308.040008545
574786.625 4177127 307.970001221
574786.8125 4177126.75 307.649993896
574788 4177126.75 307.720001221
574788.1875 4177126.75 307.570007324
574696.1875 4177127.5 310.269989014
574697.4375 4177127.5 310.279998779
574698.75 4177127.25 310.079986572
574698.8125 4177127.75 310.239990234
574699.875 4177127.25 310.220001221
574700.0625 4177127.25 310.230010986
574701.125 4177127.25 310.109985352
574701.3125 4177127.75 310.260009766
574702.625 4177127.5 310.079986572
574703.75 4177127.75 310.100006104
574703.875 4177127.5 309.970001221
574704.9375 4177127.25 309.799987793
574705.1875 4177127.75 309.820007324
574706.4375 4177127.5 309.510009766
574707.5 4177127.25 309.619995117
574707.6875 4177127.5 309.559997559
574708.75 4177127.25 309.579986572
574708.9375 4177127.75 309.420013428
574710 4177127.5 309.279998779
574710.125 4177127.25 309.220001221
574710.1875 4177127.75 309.470001221
574711.25 4177127.5 309.290008545
574711.375 4177127.5 309.209991455
574712.4375 4177127.5 309.190002441
574712.625 4177127.5 309.450012207
574713.625 4177127.25 309.230010986
574713.6875 4177127.75 309.109985352
574713.875 4177127.75 309.220001221
574714.875 4177127.5 309.329986572
574715.125 4177127.5 308.910003662
574716.1875 4177127.25 309.070007324
574716.3125 4177127.5 309.100006104
574717.4375 4177127.25 308.75
574717.625 4177127.5 308.769989014
574718.75 4177127.75 309.019989014
574718.875 4177127.5 308.959991455
574720 4177127.75 308.929992676
574720.1875 4177127.25 308.769989014
574720.1875 4177127.75 308.709991455
574721.25 4177127.25 308.859985352
574721.4375 4177127.25 308.730010986
574721.5 4177127.75 308.790008545
574722.5625 4177127.5 308.640014648
574722.6875 4177127.25 308.730010986
574722.75 4177127.75 308.839996338
574723.8125 4177127.5 308.790008545
574724 4177127.75 308.809997559
574725.0625 4177127.5 308.839996338
574725.25 4177127.5 308.920013428
574730.125 4177127.25 308.880004883
574735.1875 4177127.75 308.619995117
574735.3125 4177127.5 308.540008545
574768.1875 4177127.25 308.140014648
574768.4375 4177127.75 307.989990234
574769.5 4177127.5 307.850006104
574769.75 4177127.75 307.989990234
574772.0625 4177127.25 308.709991455
574773.4375 4177127.75 307.980010986
574773.625 4177127.5 307.890014648
574774.75 4177127.75 307.980010986
574774.8125 4177127.75 309.410003662
574776.0625 4177127.25 308.070007324
574782.6875 4177127.25 307.799987793
574782.875 4177127.75 307.980010986
574785.375 4177127.5 307.910003662
574785.5 4177127.5 308.179992676
574786.6875 4177127.5 307.570007324
574786.875 4177127.25 307.519989014
574788.0625 4177127.5 307.679992676
574788.25 4177127.5 307.779998779
574701.375 4177128.25 310.279998779
574702.5 4177127.75 310.059997559
574702.6875 4177128 310.100006104
574703.9375 4177128 310.029998779
574705 4177128 310.070007324
574705.1875 4177128.25 310.049987793
574706.25 4177128 310.019989014
574706.4375 4177128 309.769989014
574707.5 4177128 309.730010986
574707.6875 4177128 309.809997559
574708.75 4177128 309.820007324
574709 4177128.25 309.820007324
574710 4177128.25 309.480010986
574710.1875 4177128.25 309.769989014
574711.25 4177128.25 309.579986572
574711.4375 4177128.25 309.720001221
574712.5 4177128.25 309.570007324
574712.625 4177128.25 309.609985352
574713.875 4177128.25 309.279998779
574714.9375 4177128 309.549987793
574715.125 4177128 309.130004883
574716.25 4177128 308.929992676
574716.375 4177128 309.119995117
574716.4375 4177128.5 309.010009766
574717.5 4177128 308.970001221
574717.6875 4177128 308.929992676
574718.75 4177128.25 309.109985352
574718.9375 4177128 308.929992676
574719 4177128.25 308.899993896
574720.0625 4177128.25 308.920013428
574720.25 4177128.25 308.970001221
574721.3125 4177128 309.059997559
574721.5 4177128.25 308.970001221
574722.5625 4177128 308.700012207
574722.75 4177128.25 309.200012207
574723.8125 4177128 308.989990234
574724 4177128.25 309.040008545
574725.125 4177128.25 309.029998779
574725.3125 4177128 308.989990234
574726.375 4177128.25 309.149993896
574726.5 4177128.25 309.549987793
574729.0625 4177128 309.369995117
574734 4177128.25 308.880004883
574767.0625 4177128 309.290008545
574768.25 4177128 308.089996338
574768.5 4177128 307.940002441
574769.75 4177128 307.929992676
574772.375 4177128.25 307.929992676
574773.5 4177128.25 307.920013428
574774.8125 4177128.25 308.170013428
574774.9375 4177127.75 308.190002441
574775 4177128.25 307.950012207
574776.125 4177128 308.059997559
574782.75 4177128 307.720001221
574782.9375 4177128 307.820007324
574784.0625 4177128.25 308.5
574785.625 4177128 307.859985352
574786.75 4177128 307.75
574786.9375 4177127.75 307.829986572
574786.9375 4177128.5 307.929992676
574788.0625 4177128 307.820007324
574788.25 4177128 307.880004883
574788.3125 4177128.5 307.760009766
574701.4375 4177128.75 310.25
574705 4177128.5 310.109985352
574705.25 4177128.75 310.059997559
574706.3125 4177128.5 310
574706.5 4177128.5 309.829986572
574707.5625 4177128.5 310.019989014
574707.75 4177128.5 309.989990234
574708.8125 4177128.75 310.089996338
574709 4177128.75 309.809997559
574710.0625 4177128.75 309.779998779
574710.25 4177128.75 309.779998779
574711.3125 4177128.75 309.609985352
574711.4375 4177128.75 309.779998779
574712.5 4177129 309.809997559
574712.6875 4177128.75 309.600006104
574713.75 4177128.5 309.369995117
574713.9375 4177128.75 309.390014648
574715 4177128.75 309.549987793
574715.1875 4177128.75 309.269989014
574716.25 4177128.5 309.109985352
574716.5 4177129 309.350006104
574717.5 4177128.75 309.309997559
574717.6875 4177128.5 308.940002441
574718.8125 4177129 309.339996338
574719 4177129 309.350006104
574720.125 4177129 308.970001221
574720.25 4177129 309.279998779
574721.3125 4177128.5 309
574721.5625 4177128.75 309.019989014
574722.625 4177128.5 308.809997559
574722.8125 4177128.75 308.809997559
574723.875 4177128.75 308.970001221
574724.0625 4177128.75 309.350006104
574725.1875 4177128.75 309.160003662
574725.3125 4177128.5 309.079986572
574726.4375 4177128.75 309.25
574726.6875 4177129 308.869995117
574727.6875 4177129 309.5
574732.75 4177128.75 309
574734.0625 4177128.5 310.040008545
574765.75 4177128.75 308.25
574767 4177129 308.429992676
574767.1875 4177128.75 308.049987793
574768.3125 4177128.5 307.890014648
574768.4375 4177129 308.920013428
574769.5625 4177128.75 308.929992676
574772.25 4177129 308.019989014
574772.4375 4177128.75 307.970001221
574773.5625 4177128.75 308.070007324
574773.75 4177128.5 307.890014648
574774.875 4177128.75 307.880004883
574775.0625 4177128.75 308.070007324
574776.1875 4177128.5 307.839996338
574776.375 4177128.75 308.160003662
574784.0625 4177128.75 308.570007324
574784.3125 4177128.5 307.950012207
574785.5 4177128.75 307.899993896
574785.6875 4177129 307.799987793
574786.8125 4177128.75 307.739990234
574787 4177128.75 307.720001221
574788.125 4177128.5 307.75
574788.375 4177128.75 307.709991455
574789.6875 4177128.75 307.959991455
574704 4177129 310.170013428
574705.0625 4177129 310.119995117
574706.375 4177129 310.149993896
574706.5 4177129 310.109985352
574706.5625 4177129.5 310.269989014
574707.625 4177129.25 310.230010986
574707.75 4177129 310.260009766
574709.0625 4177129.25 309.859985352
574710.125 4177129.5 310.070007324
574710.25 4177129.5 310.059997559
574711.375 4177129.5 309.75
574711.5 4177129.25 309.850006104
574712.5625 4177129.5 310.029998779
574712.75 4177129 309.450012207
574713.75 4177129 309.679992676
574714 4177129.25 309.339996338
574715.0625 4177129.25 309.429992676
574715.25 4177129.25 309.290008545
574716.3125 4177129.25 309.269989014
574716.5 4177129.5 309.649993896
574717.5625 4177129.25 309.380004883
574717.75 4177129 309.269989014
574718.875 4177129.5 309.190002441
574719 4177129.5 309.519989014
574720.1875 4177129.5 309.190002441
574720.3125 4177129.25 309.049987793
574721.375 4177129 309.149993896
574721.625 4177129.25 309.100006104
574722.6875 4177129.25 308.959991455
574722.875 4177129.25 308.910003662
574723.9375 4177129.25 309.059997559
574724.125 4177129.25 308.829986572
574725.25 4177129.25 308.950012207
574725.4375 4177129 308.769989014
574725.4375 4177129.5 308.940002441
574726.5 4177129.5 309.179992676
574726.6875 4177129.5 309.149993896
574727.75 4177129.5 309.540008545
574727.9375 4177129.5 309.109985352
574729.0625 4177129.5 309.059997559
574729.25 4177129.25 309.179992676
574731.5625 4177129.25 309.019989014
574731.6875 4177129.25 309.290008545
574767.25 4177129.25 308.459991455
574768.3125 4177129.25 308.489990234
574768.5 4177129.5 309.290008545
574770.9375 4177129.25 308.399993896
574772.3125 4177129.5 308.079986572
574772.4375 4177129.25 308.25
574773.625 4177129.5 308.239990234
574773.75 4177129 308.410003662
574774.9375 4177129.25 307.880004883
574775.125 4177129.25 307.950012207
574776.25 4177129 307.899993896
574776.4375 4177129.25 308.070007324
574785.5 4177129.25 307.760009766
574785.75 4177129.5 308.019989014
574786.8125 4177129.25 307.980010986
574787.0625 4177129.25 307.850006104
574788.1875 4177129.25 307.649993896
574788.375 4177129.5 307.890014648
574706.4375 4177129.75 310.160003662
574708.875 4177129.75 310.070007324
574709.0625 4177130 310.239990234
574710.125 4177130 310.070007324
574710.3125 4177130 310.059997559
574711.375 4177130 310.019989014
574711.5625 4177129.75 309.980010986
574712.75 4177129.75 310.190002441
574713.8125 4177129.75 309.809997559
574714 4177129.75 309.790008545
574715.0625 4177130 309.779998779
574715.25 4177129.75 309.529998779
574716.375 4177129.75 309.519989014
574716.5625 4177130 309.609985352
574717.625 4177130 309.709991455
574717.75 4177129.5 309.609985352
574717.8125 4177130 309.359985352
574718.875 4177130 309.649993896
574719.0625 4177130 309.489990234
574720.375 4177130 309.320007324
574721.4375 4177129.75 309.440002441
574721.625 4177130 309.299987793
574722.6875 4177130 309.399993896
574722.9375 4177129.75 308.940002441
574724 4177129.75 309.109985352
574724.1875 4177129.75 308.970001221
574725.25 4177130 309.450012207
574725.5 4177130 308.910003662
574726.5625 4177130 308.959991455
574726.75 4177130 309.429992676
574727.8125 4177130 309.350006104
574728 4177130 308.989990234
574729.125 4177130.25 309.25
574729.25 4177129.75 309.109985352
574768.375 4177129.75 308.350006104
574768.5 4177130 309.510009766
574771 4177130 308.290008545
574772.5 4177129.75 308.230010986
574773.75 4177129.75 308.970001221
574773.875 4177130 308.440002441
574775 4177130 307.829986572
574775.125 4177129.75 308.040008545
574776.3125 4177129.5 307.839996338
574776.5 4177129.75 307.850006104
574782.875 4177129.75 308.290008545
574783.125 4177130 307.839996338
574784.25 4177129.75 307.910003662
574784.4375 4177130 307.890014648
574785.5625 4177129.75 307.959991455
574786.875 4177130 308.260009766
574787.0625 4177130 307.950012207
574788.25 4177129.75 307.760009766
574788.4375 4177130 307.820007324
574710.375 4177130.5 310.200012207
574711.4375 4177130.75 310.010009766
574711.5625 4177130.25 309.899993896
574712.625 4177130.25 310.140014648
574713.875 4177130.25 309.959991455
574714.0625 4177130.25 309.809997559
574715.125 4177130.5 310.019989014
574715.3125 4177130.25 309.609985352
574716.375 4177130.5 309.799987793
574716.5625 4177130.75 310.010009766
574717.625 4177130.5 309.920013428
574717.8125 4177130.75 309.890014648
574718.9375 4177130.75 309.850006104
574719.125 4177130.5 309.600006104
574720.1875 4177130.25 309.820007324
574720.375 4177130.5 309.429992676
574721.5 4177130.25 309.170013428
574721.6875 4177130.5 309.350006104
574722.75 4177130.5 309.470001221
574722.9375 4177130.5 309.329986572
574724 4177130.5 309.279998779
574724.1875 4177130.25 309.049987793
574724.25 4177130.75 309.119995117
574725.3125 4177130.5 309.619995117
574725.5 4177130.5 309.010009766
574726.625 4177130.5 309.049987793
574726.75 4177130.5 309.320007324
574727.875 4177130.5 309.059997559
574728.0625 4177130.25 308.809997559
574729.1875 4177130.75 309.160003662
574729.3125 4177130.25 308.839996338
574730.375 4177130.25 308.959991455
574730.5625 4177130.25 309.369995117
574731.8125 4177130.25 309.320007324
574731.875 4177130.75 309.339996338
574732.9375 4177130.5 309.190002441
574733.0625 4177130.25 309.019989014
574735.625 4177130.5 308.899993896
574767.375 4177130.75 308.339996338
574772.375 4177130.75 308.179992676
574772.625 4177130.75 308.309997559
574773.5625 4177130.25 309.470001221
574775.1875 4177130.25 307.940002441
574776.3125 4177130.25 307.920013428
574776.5625 4177130.25 307.850006104
574782.9375 4177130.25 308
574784.25 4177130.25 307.920013428
574785.8125 4177130.5 307.920013428
574786.9375 4177130.5 307.940002441
574787.125 4177130.5 307.989990234
574711.625 4177130.75 310.040008545
574712.6875 4177130.75 310.220001221
574713.9375 4177131 310.029998779
574714.0625 4177130.75 309.980010986
574715.1875 4177131.25 310.029998779
574715.3125 4177130.75 309.880004883
574715.375 4177131.25 309.950012207
574716.4375 4177131 309.920013428
574716.625 4177131.25 310.019989014
574717.6875 4177131.25 310.119995117
574717.875 4177131.25 310.109985352
574719 4177131.25 309.75
574719.125 4177131 309.929992676
574720.25 4177130.75 309.700012207
574720.4375 4177131 309.420013428
574721.5625 4177131 309.320007324
574721.75 4177131 309.299987793
574722.8125 4177131 309.480010986
574723 4177130.75 309.269989014
574724.0625 4177131 309.470001221
574724.3125 4177131.25 309.230010986
574725.375 4177131.25 309.510009766
574725.5625 4177131 309.140014648
574726.6875 4177131 309.089996338
574726.8125 4177131 309.480010986
574727.9375 4177131.25 309.369995117
574728.125 4177131 309.010009766
574729.25 4177131.25 309.200012207
574729.375 4177130.75 308.790008545
574729.4375 4177131.25 308.920013428
574730.4375 4177130.75 309.149993896
574730.625 4177130.75 309.320007324
574730.6875 4177131.25 309.149993896
574731.6875 4177131 309.149993896
574731.9375 4177131.25 309.179992676
574732.9375 4177131 309.290008545
574733.125 4177130.75 309.600006104
574733.1875 4177131.25 309.290008545
574735.625 4177131.25 309.450012207
574768.5 4177131 308.519989014
574771.375 4177131 307.790008545
574773.75 4177131.25 308.290008545
574775.0625 4177131.25 308.170013428
574775.25 4177130.75 308.329986572
574776.375 4177130.75 307.970001221
574785.625 4177131.25 308.450012207
574785.875 4177131 307.970001221
574714.125 4177131.25 310.130004883
574715.4375 4177131.75 310.200012207
574716.6875 4177131.75 310.040008545
574717.75 4177131.75 310.170013428
574717.9375 4177131.75 310.089996338
574719.1875 4177131.5 309.760009766
574720.3125 4177131.5 309.609985352
574720.5 4177131.5 309.779998779
574721.5625 4177131.5 309.75
574721.75 4177131.5 309.450012207
574722.875 4177131.75 309.619995117
574723 4177131.5 309.510009766
574724.125 4177131.75 309.519989014
574724.3125 4177131.75 309.339996338
574725.4375 4177131.75 309.350006104
574725.625 4177131.75 309.329986572
574726.6875 4177131.75 309.470001221
574726.875 4177131.5 309.549987793
574728 4177131.75 309.359985352
574728.125 4177131.5 309.160003662
574729.25 4177132 309.320007324
574729.5 4177131.75 309.100006104
574730.5 4177131.5 309.290008545
574730.75 4177131.75 309.079986572
574731.75 4177131.5 309.079986572
574732 4177131.75 309.019989014
574733 4177131.75 309.380004883
574733.25 4177131.75 309.140014648
574734.25 4177131.75 309.359985352
574734.4375 4177131.75 309.450012207
574735.4375 4177131.5 309.920013428
574735.5 4177131.75 309.209991455
574735.6875 4177131.5 308.850006104
574736.75 4177131.75 309.399993896
574736.9375 4177132 309.470001221
574768.5 4177131.75 309.420013428
574769.875 4177131.5 308.459991455
574770.125 4177131.5 308.079986572
574771.1875 4177131.75 308.190002441
574771.375 4177131.5 308.010009766
574716.6875 4177132.25 310.119995117
574717.8125 4177132.25 310.059997559
574718 4177132.25 310.070007324
574719 4177132 310
574719.25 4177132 310.029998779
574720.3125 4177132 310.070007324
574720.5 4177132 309.739990234
574721.625 4177132.25 309.920013428
574721.8125 4177132 309.619995117
574721.875 4177132.5 309.649993896
574722.875 4177132.25 309.769989014
574723.0625 4177132 309.519989014
574723.125 4177132.5 309.700012207
574724.1875 4177132.25 309.690002441
574724.375 4177132.25 309.619995117
574725.4375 4177132.5 309.75
574725.625 4177132.25 309.640014648
574726.75 4177132.5 309.440002441
574726.9375 4177132 309.540008545
574728 4177132.5 309.549987793
574728.1875 4177132 309.410003662
574728.25 4177132.5 309.329986572
574729.5 4177132.25 309.049987793
574730.5625 4177132 309.190002441
574730.75 4177132.25 308.920013428
574731.8125 4177132 309.010009766
574732 4177132.25 309.220001221
574733.0625 4177132.25 309.529998779
574733.25 4177132.25 309.549987793
574734.3125 4177132.25 309.070007324
574734.5 4177132.25 309.440002441
574735.625 4177132.25 308.859985352
574735.75 4177132 309.070007324
574736.8125 4177132.25 309.019989014
574737 4177132.25 308.980010986
574768.625 4177132 308.420013428
574775.1875 4177132.25 308.119995117
574775.375 4177132.25 308.350006104
574718 4177132.75 310.130004883
574719.25 4177132.75 310.079986572
574721.6875 4177132.75 309.829986572
574721.875 4177133 309.839996338
574722.9375 4177133 309.970001221
574723.125 4177133 309.989990234
574724.25 4177133 309.739990234
574724.4375 4177132.75 309.570007324
574725.5 4177133 309.859985352
574725.6875 4177132.75 309.790008545
574726.8125 4177133 309.589996338
574726.9375 4177132.75 309.690002441
574727 4177133 309.440002441
574728.0625 4177133 309.429992676
574728.25 4177133 309.320007324
574729.3125 4177132.5 309.420013428
574729.375 4177133 309.209991455
574729.5625 4177133 309.220001221
574730.625 4177132.5 309.190002441
574730.8125 4177132.75 309.25
574731.875 4177132.75 309.040008545
574732.0625 4177132.75 309.239990234
574733.125 4177133 309.299987793
574733.3125 4177132.75 309.540008545
574734.375 4177133 309.309997559
574734.5 4177132.75 309.489990234
574735.625 4177133 309.089996338
574735.8125 4177132.5 309.010009766
574735.8125 4177133 309.160003662
574736.875 4177132.75 308.989990234
574737.0625 4177132.75 309.260009766
574739.4375 4177133 308.950012207
574742.125 4177133 308.989990234
574743.125 4177133 309.820007324
574761 4177133 308.630004883
574761.125 4177133 309.209991455
574768.875 4177132.75 308.630004883
574770 4177132.75 308.350006104
574775.25 4177133 308.070007324
574775.4375 4177132.75 308.109985352
574719.3125 4177133.25 310.170013428
574720.625 4177133.5 310.059997559
574721.75 4177133.25 309.980010986
574721.9375 4177133.5 310.029998779
574723 4177133.5 309.959991455
574723.1875 4177133.5 309.970001221
574724.4375 4177133.5 309.910003662
574725.5625 4177133.5 309.670013428
574725.75 4177133.25 309.910003662
574726.8125 4177133.75 309.809997559
574727.0625 4177133.75 309.660003662
574728.125 4177133.75 309.660003662
574728.3125 4177133.5 309.440002441
574729.625 4177133.5 309.399993896
574730.625 4177133.25 309.399993896
574730.875 4177133.25 309.450012207
574731.9375 4177133.25 309.209991455
574732.125 4177133.25 309.269989014
574733.1875 4177133.5 309.130004883
574733.375 4177133.25 309.170013428
574734.4375 4177133.5 309.089996338
574734.625 4177133.25 309.190002441
574734.6875 4177133.75 309.100006104
574735.6875 4177133.5 309.040008545
574735.875 4177133.5 308.920013428
574736.9375 4177133.5 309.089996338
574737.125 4177133.25 309.059997559
574739.625 4177133 309.010009766
574741.9375 4177133.25 309.100006104
574742.125 4177133.5 309.140014648
574761 4177133.75 309.119995117
574761.1875 4177133.5 308.790008545
574762.25 4177133.75 309.029998779
574768.6875 4177133.25 308.760009766
574721.75 4177134 310.089996338
574722 4177134 310.059997559
574723.25 4177134 309.869995117
574724.5 4177134 310.119995117
574725.5625 4177134.25 310.089996338
574725.75 4177133.75 309.970001221
574726.875 4177134.25 309.850006104
574727.0625 4177134.25 309.779998779
574728.1875 4177134.25 309.700012207
574728.375 4177134 309.640014648
574729.4375 4177133.75 309.829986572
574729.625 4177134 309.399993896
574730.6875 4177133.75 309.329986572
574730.875 4177133.75 309.320007324
574732 4177134 309.209991455
574732.125 4177133.75 309.399993896
574733.25 4177134 309.320007324
574733.4375 4177133.75 309.149993896
574733.5 4177134.25 309.109985352
574734.5 4177134 309.019989014
574734.6875 4177134.25 309.309997559
574735.75 4177134.25 309.179992676
574735.9375 4177134 309.019989014
574737 4177134 309
574737.1875 4177133.75 309.070007324
574739.5 4177134.25 309.269989014
574739.6875 4177134.25 309.230010986
574742.1875 4177134 309.179992676
574761.0625 4177134.25 308.899993896
574762.375 4177134.25 308.660003662
574763.625 4177133.75 308.320007324
574769 4177134.25 308.390014648
574721.8125 4177134.5 310.140014648
574725.8125 4177134.25 309.989990234
574725.875 4177134.75 310.070007324
574727.125 4177134.75 310.079986572
574728.375 4177134.75 310.010009766
574729.4375 4177134.5 310
574729.6875 4177134.5 309.450012207
574730.75 4177134.5 309.630004883
574730.9375 4177134.5 309.529998779
574732 4177134.5 309.309997559
574732.1875 4177134.25 309.529998779
574732.25 4177134.75 309.399993896
574733.3125 4177134.75 309.339996338
574733.5 4177134.75 309.200012207
574734.5625 4177134.75 309.160003662
574734.75 4177134.75 309.440002441
574735.8125 4177134.75 309.420013428
574736 4177134.5 309.059997559
574737.0625 4177134.5 309.029998779
574737.1875 4177134.25 309.130004883
574737.25 4177134.75 309.269989014
574738.3125 4177134.5 309.200012207
574738.5 4177134.75 309.25
574739.5625 4177134.75 309.279998779
574739.75 4177134.75 309.320007324
574742 4177134.5 309.299987793
574742.25 4177134.5 309.019989014
574743.3125 4177134.5 309.579986572
574743.5 4177134.5 309.320007324
574761.125 4177134.75 308.660003662
574761.3125 4177134.5 308.970001221
574766.25 4177134.75 308.739990234
574766.375 4177134.5 308.769989014
574767.5 4177134.25 308.670013428
574767.6875 4177134.25 308.619995117
574727.1875 4177135.25 310.089996338
574728.25 4177135 309.910003662
574728.4375 4177135.25 309.910003662
574729.5 4177135 309.739990234
574729.75 4177135 309.640014648
574730.8125 4177135 309.630004883
574731 4177135 309.660003662
574731 4177135.5 309.640014648
574732.0625 4177135.25 309.640014648
574732.25 4177135.25 309.739990234
574733.375 4177135.25 309.369995117
574733.5625 4177135.25 309.519989014
574734.625 4177135.25 309.320007324
574734.75 4177135.25 309.480010986
574735.875 4177135.25 309.130004883
574736 4177135.25 309.440002441
574737.125 4177135.25 309.350006104
574737.25 4177135.5 309.450012207
574738.375 4177135.25 309.299987793
574738.5625 4177135.25 309.190002441
574739.625 4177135.25 309.190002441
574739.75 4177135.25 309.279998779
574740.875 4177135.25 309.109985352
574741 4177135 309.540008545
574742.0625 4177135 309.619995117
574742.25 4177135.25 309.609985352
574743.375 4177135.25 309.470001221
574743.5625 4177135 309.200012207
574761.1875 4177135.25 309.010009766
574761.3125 4177135 309.130004883
574765.25 4177135.25 308.640014648
574767.5625 4177135 308.679992676
574728.25 4177135.5 310.109985352
574729.5625 4177135.5 309.910003662
574729.75 4177135.5 309.959991455
574730.8125 4177135.5 309.720001221
574731.0625 4177136 309.730010986
574732.125 4177135.75 309.920013428
574732.3125 4177136 309.899993896
574733.375 4177135.75 309.450012207
574733.5625 4177136 309.609985352
574734.625 4177136 309.470001221
574734.8125 4177135.75 309.410003662
574735.9375 4177136 309.410003662
574736.0625 4177135.5 309.170013428
574737.125 4177135.75 309.429992676
574737.3125 4177136 309.420013428
574738.4375 4177135.75 309.369995117
574738.5625 4177135.75 309.190002441
574739.6875 4177136 309.369995117
574739.8125 4177135.75 309.209991455
574740.9375 4177136 309.25
574741.0625 4177135.5 309.010009766
574741.125 4177136 308.980010986
574742.1875 4177135.5 309.170013428
574742.3125 4177135.5 309.329986572
574743.4375 4177135.75 309.130004883
574743.5625 4177135.5 309.559997559
574758.875 4177136 308.940002441
574759.8125 4177135.5 309.859985352
574759.9375 4177135.75 308.820007324
574760.125 4177135.75 308.690002441
574761.4375 4177136 309
574729.8125 4177136 309.940002441
574731.125 4177136.5 310.059997559
574732.1875 4177136.5 309.880004883
574732.375 4177136.5 309.980010986
574733.4375 4177136.5 309.859985352
574733.625 4177136.5 309.630004883
574734.6875 4177136.5 309.709991455
574734.875 4177136.25 309.609985352
574735.9375 4177136.5 309.5
574736.125 4177136.25 309.440002441
574737.1875 4177136.5 309.410003662
574737.375 4177136.5 309.420013428
574738.4375 4177136.5 309.489990234
574738.625 4177136.25 309.109985352
574739.6875 4177136.5 309.5
574739.875 4177136.25 309.230010986
574741 4177136.5 309.089996338
574741.1875 4177136.5 309.059997559
574742.25 4177136.25 309.119995117
574742.375 4177136 309.290008545
574742.4375 4177136.5 309.089996338
574743.5 4177136.25 309.269989014
574743.625 4177136 309.359985352
574743.6875 4177136.5 309.200012207
574744.9375 4177136.5 309.369995117
574746.0625 4177136.25 309.070007324
574746.25 4177136.25 309.359985352
574760 4177136.5 308.929992676
574760.1875 4177136.25 308.739990234
574762.5 4177136 309.029998779
574762.5625 4177136.5 308.589996338
574762.75 4177136.25 308.640014648
574765.0625 4177136.25 308.980010986
574733.5 4177137.25 310
574733.6875 4177137 309.869995117
574734.75 4177137.25 309.720001221
574734.9375 4177136.75 309.630004883
574736.125 4177136.75 309.730010986
574737.25 4177137 309.630004883
574737.4375 4177137 309.5
574738.5 4177137 309.239990234
574738.6875 4177136.75 309.299987793
574739.75 4177137.25 309.290008545
574739.9375 4177136.75 309.420013428
574741.0625 4177137 309.079986572
574741.25 4177137 309.230010986
574742.25 4177136.75 309.200012207
574742.5 4177137 308.910003662
574743.5 4177136.75 309.260009766
574743.75 4177137 309.079986572
574744.8125 4177137 309.200012207
574745 4177137 309.170013428
574746.0625 4177137 309.359985352
574746.25 4177136.75 309.220001221
574747.375 4177137 309.540008545
574760.0625 4177137 308.970001221
574760.25 4177137 308.910003662
574761.3125 4177137.25 309.25
574762.8125 4177137 309.070007324
574763.875 4177136.75 308.75
574764.0625 4177137 308.970001221
574765.1875 4177136.75 308.570007324
574765.375 4177136.75 308.769989014
574766.5 4177137 308.540008545
574766.625 4177137 308.779998779
574733.6875 4177137.5 310.040008545
574734.8125 4177137.75 309.940002441
574734.9375 4177137.5 309.760009766
574736 4177137.25 309.630004883
574736.1875 4177137.25 309.820007324
574737.3125 4177137.75 309.850006104
574737.4375 4177137.5 309.75
574738.5625 4177137.75 309.630004883
574738.75 4177137.25 309.299987793
574739.8125 4177137.75 309.459991455
574740 4177137.25 309.519989014
574740 4177137.75 309.429992676
574741.125 4177137.75 309.230010986
574741.25 4177137.5 309.149993896
574742.3125 4177137.5 309.339996338
574742.5625 4177137.5 309.170013428
574743.5625 4177137.5 309.140014648
574743.8125 4177137.5 309.149993896
574744.875 4177137.5 309.260009766
574745.0625 4177137.25 309.049987793
574746.1875 4177137.5 309.239990234
574746.3125 4177137.25 309.450012207
574746.375 4177137.75 309.269989014
574747.4375 4177137.5 309.179992676
574747.625 4177137.75 309.440002441
574751.4375 4177137.5 309.040008545
574760.125 4177137.75 308.890014648
574760.3125 4177137.5 308.910003662
574762.625 4177137.25 309.209991455
574762.6875 4177137.75 308.880004883
574762.8125 4177137.5 309.149993896
574763.9375 4177137.25 308.690002441
574764.125 4177137.5 308.779998779
574765.25 4177137.5 308.630004883
574766.5 4177137.75 308.850006104
574766.6875 4177137.5 308.589996338
574767.75 4177137.25 309.209991455
574735 4177138 309.859985352
574736.0625 4177138 309.950012207
574736.25 4177138 310.019989014
574737.375 4177138.25 309.720001221
574737.5 4177138 309.769989014
574738.625 4177138.25 309.820007324
574738.75 4177137.75 309.619995117
574738.8125 4177138.25 309.600006104
574740.0625 4177138.25 309.570007324
574741.125 4177138.25 309.450012207
574741.3125 4177138 309.399993896
574742.375 4177138 309.399993896
574742.5625 4177138.25 309.269989014
574743.625 4177138 309.089996338
574743.875 4177138 309.260009766
574744.9375 4177138 309.380004883
574745.125 4177138 309.130004883
574746.25 4177138 309.010009766
574746.4375 4177138.25 309.160003662
574747.5 4177138 309.380004883
574747.6875 4177138.25 309.609985352
574748.75 4177138 309.450012207
574748.875 4177138 309.579986572
574749 4177138.5 309.279998779
574751.25 4177138.25 309.799987793
574751.4375 4177138.25 309.309997559
574759.0625 4177138 309.269989014
574760.1875 4177138.25 309.040008545
574760.3125 4177138 309.010009766
574761.3125 4177138 309.880004883
574761.4375 4177138.25 308.820007324
574761.6875 4177138 308.640014648
574762.75 4177138.25 308.839996338
574762.875 4177138 308.890014648
574765.25 4177138 308.769989014
574766.75 4177138 308.850006104
574736.25 4177138.5 310.059997559
574736.3125 4177139 310.079986572
574737.5625 4177138.5 309.970001221
574738.625 4177139 309.989990234
574738.8125 4177139 310.059997559
574739.875 4177138.5 309.720001221
574740.125 4177139 309.709991455
574741.3125 4177138.75 309.649993896
574742.4375 4177138.5 309.470001221
574742.625 4177138.75 309.480010986
574743.6875 4177138.75 309.369995117
574743.9375 4177138.5 309.100006104
574745 4177138.75 309.369995117
574745.125 4177138.5 309.350006104
574746.25 4177138.75 309.260009766
574746.5 4177138.75 309.100006104
574747.5625 4177138.75 309.170013428
574747.75 4177138.75 309.350006104
574748.8125 4177138.5 309.309997559
574749.0625 4177138.75 308.950012207
574750.0625 4177138.75 309.220001221
574750.1875 4177138.5 309.519989014
574750.25 4177139 309.359985352
574751.3125 4177138.75 309.440002441
574756.5625 4177138.75 309.420013428
574759.0625 4177138.5 309.339996338
574760.1875 4177139 309.190002441
574760.375 4177138.5 308.799987793
574760.4375 4177139 308.959991455
574761.5 4177138.75 308.829986572
574761.6875 4177138.5 308.839996338
574762.9375 4177138.5 308.920013428
574765.3125 4177138.5 308.660003662
574765.5625 4177138.75 308.519989014
574766.625 4177139 308.959991455
574738.875 4177139.5 309.910003662
574739.9375 4177139 309.959991455
574740.125 4177139.5 309.859985352
574741.1875 4177139 309.640014648
574741.375 4177139.25 309.679992676
574742.5 4177139.25 309.390014648
574742.6875 4177139.25 309.429992676
574743.75 4177139.25 309.549987793
574743.9375 4177139 309.119995117
574745 4177139.25 309.600006104
574745.1875 4177139 309.470001221
574745.25 4177139.5 309.399993896
574746.3125 4177139.5 309.540008545
574746.5 4177139.25 309.309997559
574747.625 4177139.25 309.179992676
574747.8125 4177139.25 309.260009766
574748.875 4177139 309.049987793
574749.0625 4177139.25 309.130004883
574750.125 4177139.25 309.459991455
574750.3125 4177139.5 309.380004883
574751.375 4177139.25 309.279998779
574751.5625 4177139.25 309.329986572
574752.5625 4177139.5 309.959991455
574752.875 4177139.5 309.25
574753.875 4177139.5 309.929992676
574756.4375 4177139.5 309.470001221
574756.625 4177139.25 309.239990234
574757.875 4177139 309.109985352
574758.9375 4177139 309.149993896
574759.125 4177139 309.160003662
574761.75 4177139 308.890014648
574762.8125 4177139.5 308.920013428
574763.0625 4177139.5 308.809997559
574764.0625 4177139.25 308.790008545
574766.8125 4177139.25 309.260009766
574739.9375 4177139.75 310
574741.25 4177139.75 309.790008545
574741.4375 4177139.75 309.579986572
574742.5 4177139.75 309.760009766
574742.75 4177139.75 309.670013428
574743.8125 4177139.75 309.549987793
574744 4177139.75 309.470001221
574745.0625 4177140 309.600006104
574745.3125 4177140 309.5
574746.375 4177140 309.399993896
574746.5625 4177139.75 309.429992676
574747.6875 4177139.75 309.149993896
574747.8125 4177139.75 309.339996338
574748.9375 4177139.75 309.079986572
574749.125 4177140 309.329986572
574750.1875 4177139.75 308.929992676
574750.375 4177140 309.25
574751.4375 4177140 309.260009766
574751.625 4177139.75 309.290008545
574752.6875 4177139.75 309.089996338
574752.875 4177140 309.369995117
574755.25 4177140.25 309.450012207
574755.375 4177140 309.690002441
574756.5 4177140 309.369995117
574756.6875 4177139.75 309.130004883
574757.6875 4177139.5 309.440002441
574757.9375 4177139.75 309.279998779
574758 4177140.25 309.100006104
574759 4177139.75 309.429992676
574759.1875 4177139.5 309.279998779
574761.75 4177139.75 309.089996338
574765.625 4177140 309.140014648
574740.25 4177140.5 309.970001221
574741.3125 4177140.25 309.929992676
574741.5 4177140.25 310
574742.5625 4177140.5 309.820007324
574742.75 4177140.25 309.760009766
574743.8125 4177140.5 309.859985352
574744 4177140.25 309.75
574745.125 4177140.5 309.480010986
574745.3125 4177140.5 309.619995117
574746.4375 4177140.5 309.369995117
574746.625 4177140.25 309.429992676
574747.6875 4177140.5 309.170013428
574747.875 4177140.25 309.299987793
574747.9375 4177140.75 309.170013428
574748.9375 4177140.25 309.190002441
574749.1875 4177140.5 309.359985352
574750.25 4177140.5 309.119995117
574750.4375 4177140.5 309.399993896
574751.5 4177140.5 309.239990234
574751.6875 4177140.25 309.100006104
574751.75 4177140.75 308.989990234
574752.75 4177140.25 308.959991455
574752.9375 4177140.5 309.429992676
574754 4177140.5 309.309997559
574754.1875 4177140.5 309.630004883
574755.3125 4177140.75 309.239990234
574755.5 4177140.5 309.239990234
574756.5625 4177140.75 309.279998779
574756.6875 4177140.25 309.570007324
574757.75 4177140.25 309.369995117
574757.8125 4177140.75 309.070007324
574763.125 4177140.5 308.910003662
574765.6875 4177140.5 309.149993896
574766.9375 4177140.75 309.339996338
574741.3125 4177140.75 309.929992676
574741.5 4177140.75 310.029998779
574741.5625 4177141.25 309.929992676
574742.625 4177141 310.010009766
574742.8125 4177141 310.040008545
574743.875 4177141 309.799987793
574744.0625 4177140.75 309.600006104
574744.125 4177141.25 309.640014648
574745.1875 4177141 309.690002441
574745.375 4177141 309.510009766
574746.5 4177141.25 309.600006104
574746.6875 4177140.75 309.320007324
574747.75 4177141 309.279998779
574748 4177141.25 309.540008545
574749 4177141 309.279998779
574749.25 4177141 309.230010986
574750.3125 4177141 309.160003662
574750.5 4177141 309.279998779
574751.5625 4177141 309.220001221
574751.75 4177141.25 309.049987793
574752.8125 4177141 309.200012207
574753 4177141 309.239990234
574754.0625 4177141 309.059997559
574754.25 4177141 309.170013428
574755.375 4177141.25 309.299987793
574755.5 4177141 309.179992676
574756.5625 4177141.25 309.510009766
574756.75 4177140.75 309.350006104
574756.8125 4177141.25 309.380004883
574757.875 4177141.25 309.019989014
574758 4177140.75 309.5
574758.0625 4177141.25 309.609985352
574762.9375 4177140.75 309.239990234
574765.5 4177141 309.230010986
574767 4177141.25 309.220001221
574742.6875 4177141.75 309.950012207
574743.9375 4177141.75 309.940002441
574744.1875 4177141.75 309.809997559
574745.25 4177141.75 309.859985352
574745.4375 4177141.75 309.839996338
574746.5 4177141.75 309.649993896
574747.8125 4177141.75 309.320007324
574748.0625 4177141.75 309.329986572
574749.0625 4177141.5 309.420013428
574749.25 4177141.5 309.299987793
574750.375 4177141.75 309.320007324
574750.5625 4177141.5 309.209991455
574751.625 4177141.75 309.209991455
574751.8125 4177141.75 309.119995117
574752.875 4177141.5 308.959991455
574753.0625 4177141.5 308.910003662
574754.125 4177141.75 309.149993896
574754.3125 4177141.5 309.290008545
574755.4375 4177141.75 309.320007324
574755.5625 4177141.5 309.220001221
574756.6875 4177141.75 309.190002441
574756.875 4177141.75 309.100006104
574757.9375 4177142 309.25
574758.125 4177141.75 309.359985352
574766.8125 4177141.5 309.869995117
574744 4177142.25 310.019989014
574745.25 4177142.5 309.989990234
574745.5 4177142.25 309.779998779
574746.75 4177142 309.760009766
574747.875 4177142.25 309.489990234
574748.0625 4177142.25 309.559997559
574749.125 4177142.25 309.450012207
574749.3125 4177142 309.440002441
574750.375 4177142.25 309.450012207
574750.5625 4177142 309.489990234
574751.6875 4177142.25 309.390014648
574751.875 4177142.25 309.260009766
574752.9375 4177142.25 309.140014648
574753.125 4177142 309.359985352
574754.1875 4177142.25 309.010009766
574754.375 4177142 309.220001221
574754.375 4177142.5 309.279998779
574755.5 4177142.5 309.119995117
574755.625 4177142 309.079986572
574755.6875 4177142.5 309.160003662
574756.75 4177142.25 309.079986572
574756.9375 4177142.25 309.179992676
574758.1875 4177142.25 309.040008545
574767.0625 4177142.5 309.739990234
574768.1875 4177142 309.25
574746.8125 4177142.5 309.779998779
574747.9375 4177143 309.739990234
574748.125 4177143 309.859985352
574749.1875 4177142.75 309.420013428
574749.375 4177142.5 309.420013428
574749.4375 4177143 309.510009766
574750.4375 4177143 309.609985352
574750.625 4177142.5 309.309997559
574750.6875 4177143 309.359985352
574751.6875 4177143 309.510009766
574751.9375 4177142.75 309.220001221
574752.9375 4177142.75 309.269989014
574753.125 4177142.5 309.269989014
574754.25 4177142.75 309.100006104
574754.4375 4177143 309.440002441
574755.5 4177143 309.209991455
574755.75 4177143 309.390014648
574756.8125 4177143 309.049987793
574757 4177142.75 309.160003662
574758 4177142.5 309.660003662
574758.25 4177142.75 309.230010986
574766.9375 4177142.75 309.589996338
574768.25 4177142.5 309.059997559
574768.4375 4177142.75 309.299987793
574746.6875 4177143.75 309.920013428
574748.1875 4177143.5 309.779998779
574749.25 4177143.5 309.649993896
574750.5 4177143.5 309.850006104
574750.75 4177143.5 309.450012207
574751.75 4177143.5 309.480010986
574752 4177143.5 309.329986572
574753 4177143.5 309.269989014
574753.1875 4177143.25 309.399993896
574754.25 4177143.5 309.299987793
574754.5 4177143.5 309.540008545
574755.5625 4177143.5 309.25
574755.75 4177143.5 309.489990234
574756.8125 4177143.5 309.200012207
574757 4177143.25 309.100006104
574758.0625 4177143 309.369995117
574758.25 4177143.25 309.170013428
574759.3125 4177143.25 309.429992676
574759.5625 4177143.25 309.220001221
574760.625 4177143.75 309.399993896
574767 4177143.25 309.320007324
574767.1875 4177143.25 309.410003662
574748.1875 4177144 310
574749.25 4177144 309.75
574749.4375 4177143.75 309.829986572
574749.5 4177144.25 309.739990234
574750.5625 4177144.25 309.779998779
574750.75 4177144.25 309.549987793
574751.8125 4177144 309.429992676
574752 4177144 309.410003662
574753.0625 4177144 309.339996338
574753.25 4177143.75 309.529998779
574753.3125 4177144.25 309.609985352
574754.3125 4177144 309.309997559
574754.5625 4177144 309.429992676
574755.625 4177144.25 309.239990234
574755.8125 4177144 309.339996338
574756.875 4177144.25 309.179992676
574757.0625 4177143.75 309.320007324
574758.125 4177143.75 309.309997559
574758.1875 4177144.25 309.190002441
574758.3125 4177143.75 309.239990234
574759.375 4177143.75 309.089996338
574759.625 4177143.75 309.140014648
574759.6875 4177144.25 309.160003662
574760.6875 4177144.25 309.209991455
574760.875 4177143.75 309.290008545
574760.9375 4177144.25 309.329986572
574765.8125 4177144 309.350006104
574765.9375 4177143.75 309.600006104
574767.0625 4177143.75 309.390014648
574767.25 4177143.75 309.359985352
574769.6875 4177144 309.399993896
574749.5625 4177144.75 309.920013428
574750.625 4177144.75 309.850006104
574750.8125 4177144.75 309.700012207
574751.875 4177144.75 309.829986572
574752.0625 4177144.5 309.799987793
574753.125 4177144.75 309.510009766
574753.3125 4177144.75 309.709991455
574754.375 4177144.75 309.450012207
574754.5625 4177144.75 309.609985352
574755.6875 4177144.75 309.390014648
574755.875 4177144.75 309.420013428
574756.9375 4177144.75 309.329986572
574757.125 4177144.5 309.369995117
574758.375 4177144.25 309.140014648
574759.4375 4177144.25 309.089996338
574759.6875 4177144.75 309.059997559
574760.75 4177144.75 309.049987793
574761 4177144.75 309.100006104
574762.0625 4177144.75 309.070007324
574765.8125 4177144.75 309.839996338
574766 4177144.25 309.660003662
574767.125 4177144.25 309.170013428
574767.3125 4177144.5 309.459991455
574768.4375 4177144.5 309.200012207
574768.625 4177144.5 309.559997559
574750.6875 4177145.25 309.809997559
574751.9375 4177145.25 309.600006104
574752.125 4177145 309.760009766
574753.1875 4177145.25 309.600006104
574753.375 4177145.25 309.679992676
574754.4375 4177145.25 309.519989014
574754.625 4177145.25 309.649993896
574755.9375 4177145 309.230010986
574757.1875 4177145 309.529998779
574758.25 4177144.75 309.260009766
574758.4375 4177144.75 309.220001221
574759.5 4177145 309.260009766
574759.75 4177145.25 309.329986572
574760.8125 4177145.25 309.190002441
574761 4177145.25 309.149993896
574762.3125 4177145 309.100006104
574762.3125 4177145.5 309.079986572
574763.3125 4177145 309.359985352
574763.5625 4177145.25 309.299987793
574764.625 4177145.25 309.350006104
574764.875 4177145.5 309.339996338
574765.9375 4177145.25 309.339996338
574766.0625 4177145 309.709991455
574766.125 4177145.25 309.510009766
574767.1875 4177145 309.130004883
574767.3125 4177145 309.640014648
574752 4177146 309.880004883
574752.125 4177145.5 309.75
574753.1875 4177146 309.920013428
574753.4375 4177145.75 309.679992676
574754.5 4177146 309.809997559
574754.6875 4177145.75 309.579986572
574755.75 4177145.5 309.549987793
574755.9375 4177145.75 309.709991455
574757 4177145.5 309.730010986
574757.0625 4177146 309.510009766
574757.1875 4177145.5 309.570007324
574757.25 4177146 309.579986572
574758.25 4177145.5 309.489990234
574758.4375 4177145.5 309.5
574758.5 4177146 309.369995117
574759.5625 4177145.5 309.549987793
574759.8125 4177145.75 309.220001221
574760.875 4177146 309.320007324
574761.0625 4177145.75 309.089996338
574762.125 4177145.5 309.209991455
574762.375 4177146 309.260009766
574763.375 4177145.5 309.239990234
574763.625 4177145.75 309.299987793
574764.6875 4177145.75 309.540008545
574764.875 4177146 309.619995117
574765.9375 4177146 309.399993896
574766.1875 4177145.75 309.390014648
574767.375 4177145.5 309.540008545
574767.4375 4177146 309.359985352
574753.5 4177146.25 309.579986572
574754.5625 4177146.5 309.760009766
574754.75 4177146.25 309.790008545
574755.75 4177146 309.709991455
574756 4177146.25 309.709991455
574757.125 4177146.5 309.519989014
574757.3125 4177146.5 309.600006104
574758.3125 4177146 309.420013428
574758.5625 4177146.5 309.489990234
574759.5625 4177146.25 309.640014648
574759.875 4177146.5 309.390014648
574760.9375 4177146.5 309.399993896
574761.125 4177146.25 309.290008545
574762.125 4177146 309.369995117
574762.4375 4177146.5 309.220001221
574763.4375 4177146 309.070007324
574763.6875 4177146.25 309.190002441
574764.75 4177146.25 309.130004883
574764.9375 4177146.5 309.440002441
574766 4177146.5 309.420013428
574766.25 4177146.25 309.339996338
574768.8125 4177146.5 309.200012207
574753.5 4177147 309.959991455
574755.8125 4177146.75 309.630004883
574756.0625 4177146.75 309.709991455
574757.125 4177147.25 309.559997559
574757.375 4177147 309.670013428
574758.375 4177146.75 309.510009766
574758.625 4177147 309.350006104
574759.6875 4177146.75 309.529998779
574759.875 4177147 309.350006104
574761 4177147.25 309.200012207
574761.1875 4177147 309.380004883
574762.1875 4177146.75 309.410003662
574762.5 4177147 309.140014648
574763.5 4177146.75 309.089996338
574763.75 4177147 309.179992676
574764.8125 4177147 309.040008545
574765 4177147 309.209991455
574766.0625 4177147 309.450012207
574766.25 4177147 309.480010986
574767.3125 4177146.75 309.510009766
574767.5625 4177147 309.600006104
574768.8125 4177147 309.640014648
574755.875 4177147.25 309.630004883
574756.125 4177147.25 309.730010986
574757.1875 4177147.75 309.649993896
574757.375 4177147.75 309.720001221
574758.4375 4177147.25 309.529998779
574758.625 4177147.5 309.690002441
574759.75 4177147.25 309.230010986
574759.9375 4177147.5 309.440002441
574761 4177147.75 309.399993896
574761.1875 4177147.5 309.559997559
574762.25 4177147.25 309.269989014
574762.5625 4177147.5 309.200012207
574763.5625 4177147.25 309.130004883
574763.8125 4177147.5 309.149993896
574764.875 4177147.5 309.149993896
574765.0625 4177147.5 309.440002441
574766.125 4177147.75 309.519989014
574766.3125 4177147.5 309.440002441
574767.375 4177147.5 309.640014648
574768.6875 4177147.5 309.339996338
574768.9375 4177147.5 309.410003662
574755.9375 4177148 309.929992676
574756.125 4177148 309.920013428
574758.5 4177148 309.690002441
574758.6875 4177148.25 309.660003662
574759.75 4177148 309.809997559
574760 4177148 309.489990234
574761.0625 4177148.25 309.320007324
574761.25 4177148 309.489990234
574762.3125 4177147.75 309.279998779
574762.5625 4177148 309.160003662
574763.625 4177148 309.420013428
574763.8125 4177148 309.279998779
574764.9375 4177148 309.179992676
574765.125 4177148 309.130004883
574766.1875 4177148.25 309.309997559
574766.375 4177148 309.290008545
574767.4375 4177148 309.579986572
574767.625 4177148.25 309.579986572
574768.75 4177148 309.579986572
574768.9375 4177148 309.390014648
574771.375 4177148.25 309.410003662
574756 4177148.5 309.910003662
574756.25 4177149 309.899993896
574757.25 4177148.5 309.790008545
574757.5 4177148.75 309.940002441
574758.5 4177148.5 309.760009766
574758.75 4177148.75 309.940002441
574760.0625 4177148.5 309.570007324
574761.3125 4177148.5 309.399993896
574762.375 4177148.5 309.329986572
574762.625 4177148.75 309.290008545
574763.625 4177148.5 309.480010986
574763.875 4177148.5 309.489990234
574764.9375 4177148.75 309.239990234
574765.1875 4177148.5 309.170013428
574766.25 4177148.75 309.350006104
574766.4375 4177148.5 309.200012207
574767.5 4177148.5 309.489990234
574767.75 4177148.5 309.299987793
574768.8125 4177148.5 309.410003662
574769 4177148.5 309.5
574770.0625 4177148.75 309.700012207
574771.375 4177149 309.559997559
574771.625 4177148.5 309.450012207
574757.5625 4177149.25 309.940002441
574758.8125 4177149.25 309.730010986
574759.875 4177149.25 309.660003662
574760.0625 4177149.25 309.799987793
574761.125 4177149 309.600006104
574761.375 4177149 309.459991455
574762.4375 4177149 309.670013428
574762.6875 4177149.25 309.369995117
574763.6875 4177149 309.399993896
574763.9375 4177149 309.440002441
574765 4177149.25 309.279998779
574765.25 4177149 309.230010986
574766.3125 4177149.5 309.390014648
574766.5 4177149 309.230010986
574767.5625 4177149 309.440002441
574767.8125 4177149 309.100006104
574768.875 4177149.25 309.510009766
574769.0625 4177149 309.480010986
574770.125 4177149.5 309.739990234
574770.375 4177149 309.579986572
574771.625 4177149 309.540008545
574759.9375 4177149.75 309.850006104
574760.125 4177149.75 309.890014648
574761.1875 4177149.5 309.640014648
574761.4375 4177149.5 309.529998779
574762.5 4177149.75 309.730010986
574762.6875 4177149.75 309.880004883
574763.75 4177149.75 309.450012207
