# .PCD v.7 - Point Cloud Data file format
VERSION .7
FIELDS x y z
SIZE 4 4 4
TYPE F F F
COUNT 1 1 1
WIDTH 1491
HEIGHT 1
VIEWPOINT 0 0 0 1 0 0 0
POINTS 1491
DATA ascii
0.2327519 -0.4250742 -0.3650928
0.244215 -0.4277885 -0.3612517
0.2170523 -0.4170869 -0.3645306
0.2273977 -0.4139012 -0.363294
0.2312567 -0.4144888 -0.3608769
0.2142577 -0.4026051 -0.3679033
0.2241774 -0.4069189 -0.3639284
0.2321467 -0.4046938 -0.3653738
0.2096832 -0.3973637 -0.3656549
0.2166963 -0.393768 -0.3648117
0.2252556 -0.3942455 -0.364892
0.2327519 -0.3965564 -0.3655987
0.2135422 -0.385873 -0.3663294
0.2242435 -0.385705 -0.3648117
0.2333642 -0.3845731 -0.3649242
0.2425489 -0.3835585 -0.3625632
0.2267889 -0.3706782 -0.3676223
0.2343895 -0.3771534 -0.3669665
0.2460395 -0.3750661 -0.3660765
0.2567462 -0.3707965 -0.366217
0.2640086 -0.3733583 -0.3603148
0.2398362 -0.3685552 -0.3660764
0.2450338 -0.3655891 -0.3695896
0.2548173 -0.3646204 -0.365936
0.2634211 -0.3659991 -0.3636172
0.2289071 -0.3598373 -0.3673412
0.2445176 -0.3562735 -0.3659359
0.2542898 -0.3572522 -0.366498
0.2643645 -0.3541497 -0.3657826
0.2707725 -0.3538962 -0.363828
0.2584906 -0.3438741 -0.3653738
0.2647104 -0.3456939 -0.3665784
0.2758831 -0.3445252 -0.3641871
0.266942 -0.3346373 -0.3666105
0.2737095 -0.3356433 -0.3639685
0.2822866 -0.3334941 -0.3676223
0.2911356 -0.3325124 -0.361439
0.2841322 -0.3265994 -0.3660892
0.2954788 -0.3292974 -0.366498
0.3017586 -0.3220942 -0.3645868
0.3151833 -0.3232364 -0.3618606
0.2663581 -0.3194663 -0.3684654
0.2897829 -0.3172845 -0.3639685
0.2953542 -0.3152321 -0.365163
0.3046707 -0.3135881 -0.3646431
0.2991812 -0.3021026 -0.3653738
0.3077726 -0.3070519 -0.3639686
0.3175864 -0.3029009 -0.3673412
0.3273763 -0.3004417 -0.3608769
0.2996322 -0.2974379 -0.3666854
0.3050671 -0.2974379 -0.3687465
0.3162217 -0.296757 -0.3651864
0.2844429 -0.2876801 -0.3687465
0.304806 -0.2852617 -0.3646243
0.3153198 -0.2860518 -0.3633127
0.3255093 -0.2861041 -0.3649991
0.2885012 -0.2724522 -0.3693086
0.301246 -0.2797581 -0.3617201
0.3144892 -0.2759339 -0.3664981
0.3236333 -0.2741673 -0.3629647
0.2891065 -0.2650834 -0.3627506
0.2957992 -0.266119 -0.3663575
0.3048629 -0.2632869 -0.3648117
0.3142349 -0.2662246 -0.3679435
0.3216981 -0.2678981 -0.3618606
0.2745461 -0.2532857 -0.3693086
0.2824493 -0.2516249 -0.3698707
0.2961145 -0.2556888 -0.3642095
0.3048772 -0.2539983 -0.3608769
0.3136792 -0.2560079 -0.3636172
0.3285629 -0.2572393 -0.3646244
0.2838733 -0.2459491 -0.362938
0.2960573 -0.244311 -0.3654792
0.3062656 -0.2435763 -0.3615327
0.3140905 -0.2459804 -0.3632378
0.3236027 -0.2468348 -0.3608769
0.2686365 -0.2340733 -0.361439
0.2865724 -0.2351162 -0.3653227
0.294243 -0.2340964 -0.3658155
0.3046229 -0.2337069 -0.3650526
0.3248843 -0.232744 -0.3603148
0.247775 -0.2217847 -0.3653738
0.2687281 -0.2218465 -0.3641693
0.2756711 -0.2251207 -0.3639685
0.2848523 -0.2258891 -0.3655846
0.2951762 -0.2242822 -0.3637577
0.3006052 -0.226339 -0.3608769
0.2471484 -0.2127623 -0.3661608
0.2547763 -0.2120527 -0.3661233
0.2638519 -0.2177531 -0.3679596
0.2759345 -0.2142189 -0.3638749
0.2856176 -0.2154051 -0.3645306
0.2942685 -0.2186229 -0.3654675
0.3018156 -0.2123915 -0.3608769
0.2279103 -0.2069363 -0.3642496
0.2398006 -0.207506 -0.3698707
0.244708 -0.204207 -0.3663251
0.2555358 -0.2029697 -0.3648117
0.2642221 -0.205393 -0.3649847
0.2754498 -0.2054514 -0.3637739
0.2081168 -0.1968784 -0.3698707
0.2260896 -0.1935246 -0.3676223
0.2334876 -0.1984451 -0.3640622
0.2454692 -0.1949996 -0.364509
0.2549092 -0.1961205 -0.3649241
0.2671057 -0.1962031 -0.3629848
0.2719829 -0.1949348 -0.3605958
0.2072624 -0.1835011 -0.3693086
0.2153079 -0.1839283 -0.3656549
0.2243448 -0.185344 -0.36559
0.2364827 -0.1874287 -0.3629005
0.2460468 -0.1842558 -0.3653738
0.2652901 -0.1874392 -0.3653738
0.1657529 -0.1709298 -0.3653738
0.2042364 -0.1732616 -0.3646243
0.2138661 -0.1740068 -0.3643901
0.2244769 -0.1716252 -0.3665605
0.2336775 -0.1758332 -0.3644029
0.246446 -0.1749039 -0.3648741
0.2539694 -0.1774607 -0.3608769
0.1484158 -0.1659483 -0.3648117
0.1644001 -0.1612273 -0.3667791
0.1873773 -0.1630811 -0.3645708
0.1958277 -0.1648993 -0.3661046
0.2047704 -0.16345 -0.3677159
0.2156877 -0.1653627 -0.3662638
0.2251731 -0.1659478 -0.3652489
0.2368696 -0.167134 -0.3626569
0.2439658 -0.1663752 -0.3634064
0.1144179 -0.151779 -0.3674349
0.1234176 -0.1540215 -0.3671726
0.1346861 -0.1514469 -0.3670602
0.149377 -0.1538027 -0.3610643
0.1742257 -0.1529116 -0.3660484
0.1857838 -0.1558711 -0.365046
0.1963383 -0.1560533 -0.3654541
0.2055481 -0.1547595 -0.3656765
0.2167438 -0.1547759 -0.3659359
0.2240181 -0.1587215 -0.3633127
0.2321111 -0.1567681 -0.3631254
0.2584906 -0.1564358 -0.361158
0.09521776 -0.1434769 -0.3691213
0.102848 -0.1423217 -0.3653738
0.1118548 -0.1456677 -0.366217
0.1262371 -0.146334 -0.3682469
0.1366322 -0.144908 -0.361158
0.1455322 -0.1453115 -0.3618138
0.1554764 -0.1440836 -0.3670602
0.165995 -0.1438598 -0.3663294
0.174202 -0.1430345 -0.3630317
0.184705 -0.1463033 -0.3657826
0.1964875 -0.1442757 -0.3663107
0.205162 -0.1455254 -0.3634064
0.2142281 -0.1457491 -0.3633751
0.2262015 -0.1480621 -0.3648117
0.09754361 -0.1325025 -0.3676223
0.1034532 -0.1347161 -0.3670602
0.1126024 -0.1358703 -0.3652333
0.1369527 -0.1344239 -0.3650225
0.1447389 -0.1337496 -0.3682647
0.1557138 -0.1356536 -0.3646511
0.1675533 -0.1337698 -0.3672208
0.1749804 -0.135401 -0.3650928
0.1835707 -0.1367598 -0.3667791
0.1951584 -0.1386701 -0.3662732
0.2038092 -0.1375904 -0.3659359
0.2130651 -0.1370101 -0.3636875
0.05578498 -0.1222909 -0.3643901
0.06447134 -0.1240104 -0.3684654
0.0749911 -0.1228839 -0.3645306
0.09752326 -0.1247758 -0.3681041
0.10445 -0.1223981 -0.3693086
0.112638 -0.1217819 -0.3659359
0.1246707 -0.1267194 -0.3663856
0.1342293 -0.1258843 -0.3655143
0.1446371 -0.1267013 -0.3630451
0.1548211 -0.125423 -0.3650279
0.167524 -0.1254222 -0.3657954
0.1757446 -0.1242002 -0.3633127
0.184075 -0.1246751 -0.3640622
0.1948024 -0.1251964 -0.3635469
0.2065148 -0.1288496 -0.361158
0.06388395 -0.115792 -0.3676925
0.07629762 -0.1174928 -0.3675099
0.08235434 -0.1117077 -0.3621885
0.09716388 -0.1181517 -0.366217
0.1058265 -0.1134242 -0.3649054
0.1140619 -0.1129096 -0.3640622
0.124288 -0.1138998 -0.3653738
0.1369052 -0.1161196 -0.3640153
0.1461018 -0.1137328 -0.3619501
0.1526878 -0.1136572 -0.3643901
0.161742 -0.1163963 -0.3643433
0.1758115 -0.1144663 -0.3660382
0.1831969 -0.1191712 -0.3670601
0.192524 -0.1199542 -0.3608769
0.2076184 -0.1149969 -0.3603148
0.05678177 -0.1096831 -0.3684654
0.0747597 -0.1022824 -0.3681844
0.08199834 -0.1077382 -0.3691213
0.09296903 -0.1044538 -0.3657954
0.1073069 -0.1057991 -0.3641091
0.1152154 -0.1055896 -0.3652614
0.1234745 -0.1054044 -0.3646993
0.1363604 -0.1065786 -0.3642496
0.1475543 -0.105357 -0.3658235
0.1555205 -0.104831 -0.3640087
0.1668067 -0.1042475 -0.364362
0.1775325 -0.105319 -0.3631878
0.1850623 -0.1061441 -0.3641372
0.0752581 -0.09533292 -0.3676223
0.08532574 -0.09403691 -0.3661608
0.09693129 -0.09620105 -0.3632378
0.1076836 -0.09445108 -0.3659359
0.1158894 -0.09856706 -0.3640622
0.1248436 -0.09515361 -0.3624829
0.147953 -0.09983941 -0.3634064
0.1629192 -0.09459765 -0.3620012
0.1715913 -0.09860596 -0.3656549
0.1850481 -0.09659092 -0.361439
0.06685653 -0.08216788 -0.3678097
0.0739765 -0.08178851 -0.3622822
0.08370119 -0.08498308 -0.3659359
0.0910502 -0.08464405 -0.3637999
0.1040465 -0.08325126 -0.3635001
0.1154859 -0.08624781 -0.3631254
0.1248843 -0.08600266 -0.3659359
0.131872 -0.08593637 -0.3615194
0.1485938 -0.08298955 -0.3610643
0.1547882 -0.08799148 -0.3639685
0.03994304 -0.07123274 -0.3684654
0.05793284 -0.07450892 -0.3662482
0.06667344 -0.07312749 -0.3656147
0.0767533 -0.07462403 -0.361439
0.08326806 -0.07188541 -0.3649522
0.09536232 -0.07689343 -0.3653738
0.1061113 -0.07516217 -0.3651865
0.115747 -0.07402402 -0.3651864
0.1263083 -0.07600155 -0.3612517
0.1378189 -0.07851464 -0.3616264
0.1408331 -0.07441925 -0.3638749
0.01623354 -0.06608568 -0.3676223
0.02292631 -0.06255183 -0.3634064
0.03182627 -0.06210114 -0.3693086
0.04480242 -0.06433026 -0.3672007
0.05446778 -0.066323 -0.3650928
0.06851786 -0.06489959 -0.3636875
0.07658716 -0.06308119 -0.3659359
0.08500356 -0.06688618 -0.3653036
0.09334283 -0.0641641 -0.3620011
0.1055994 -0.06639757 -0.3654541
0.1163403 -0.0640597 -0.3641693
0.1251691 -0.06492385 -0.366217
0.1341687 -0.0654031 -0.3646993
0.1406194 -0.06826747 -0.3625633
0.02365611 -0.05395215 -0.3673412
0.04769194 -0.05553805 -0.3652801
0.05330824 -0.05509309 -0.3668193
0.06718405 -0.05571948 -0.3649803
0.07677703 -0.05577589 -0.3646244
0.08686365 -0.05280326 -0.361439
0.09391242 -0.05354358 -0.3653035
0.1023038 -0.05478099 -0.363286
0.1149218 -0.05361267 -0.3641631
0.1279459 -0.0547953 -0.3605958
0.1348726 -0.05588568 -0.3625633
0.1419722 -0.05121282 -0.3617201
0.01545034 -0.04905498 -0.3687465
0.0245639 -0.04253095 -0.3664981
0.03410466 -0.0472762 -0.3656549
0.04449982 -0.04094312 -0.3617201
0.05290139 -0.04392139 -0.3646993
0.0659428 -0.04611367 -0.3639686
0.07689569 -0.04490553 -0.3643007
0.08645425 -0.04466614 -0.3636875
0.09488548 -0.04471394 -0.3640622
0.1030438 -0.04739432 -0.3622822
0.1117302 -0.04293515 -0.3657954
-0.0001423994 -0.03819109 -0.3681844
0.01885012 -0.03144267 -0.3691681
0.02608961 -0.03472027 -0.3664178
0.03529133 -0.03678305 -0.364718
0.04499822 -0.0352493 -0.3698707
0.0515842 -0.03319738 -0.3690275
0.06438097 -0.03355969 -0.3642496
0.07524387 -0.03544846 -0.3646431
0.08707726 -0.03400161 -0.3648679
0.09510501 -0.03473315 -0.3646009
0.1116412 -0.03150102 -0.361439
0.1296547 -0.0327359 -0.3605958
-0.005482378 -0.02972224 -0.3670602
0.01124956 -0.02047156 -0.3681844
0.02687789 -0.0268879 -0.3655143
0.03584906 -0.02476493 -0.3642496
0.04435743 -0.02332574 -0.3630317
0.05397829 -0.02300394 -0.3674115
0.06509434 -0.02502016 -0.3629848
0.07458883 -0.02370255 -0.3607645
0.08592025 -0.02423051 -0.3639685
0.09505162 -0.02806253 -0.3631254
-0.01381274 -0.01418568 -0.3684654
0.0160674 -0.01314199 -0.3635938
0.02748309 -0.01856207 -0.3631254
0.03651655 -0.01601814 -0.3655846
0.04564613 -0.01474059 -0.3640247
0.05493058 -0.01694945 -0.3653738
0.06313832 -0.01586244 -0.3645619
0.07356574 -0.01475143 -0.3634713
0.08095407 -0.01935623 -0.3608769
0.01273051 -0.007810143 -0.3671726
0.02728984 -0.002833626 -0.3669799
0.03771212 -0.005156475 -0.3653738
0.04626201 -0.003956248 -0.3650225
0.05529844 -0.003116372 -0.3640622
0.06355546 -0.004748845 -0.3657315
0.07218634 -0.005761388 -0.3633663
-0.02029192 0.003070947 -0.3629848
0.004139755 0.002675784 -0.3668996
0.01431114 0.004565029 -0.3662872
0.02365017 0.002971994 -0.3646244
0.03603723 0.004292322 -0.3655745
0.04658835 0.005207079 -0.3644994
0.05584 0.004821127 -0.3644029
0.06525454 0.00235922 -0.3642496
0.07212532 0.004964025 -0.3616264
0.08088288 0.006592343 -0.3603148
-0.00256319 0.01963993 -0.3660764
0.004780552 0.0147732 -0.3649723
0.01227008 0.01704667 -0.3689339
0.02468596 0.01497703 -0.3672609
0.03339267 0.01547251 -0.3622822
0.04776853 0.01451181 -0.3637896
0.05736917 0.01533422 -0.3632659
0.06614453 0.01470468 -0.361439
0.08180847 0.01812135 -0.3636875
-0.01067996 0.02590256 -0.3698707
-0.001983421 0.02561012 -0.3652132
0.006585973 0.02516557 -0.3656549
0.01407381 0.024858 -0.3666854
0.02455204 0.02292108 -0.3640622
0.03207547 0.02806015 -0.3618606
0.04548238 0.02359585 -0.3646993
0.05774297 0.02009038 -0.3628443
0.07408331 0.02984012 -0.3622822
-0.02328231 0.03769059 -0.3693086
-0.01456034 0.03499423 -0.3635001
-0.003306831 0.03526274 -0.3648742
0.006526641 0.03146797 -0.3685591
0.01566394 0.03719247 -0.3693086
0.02341454 0.03571476 -0.3666586
0.03278473 0.03549169 -0.3655468
0.04562477 0.03669871 -0.3629005
0.05487125 0.03747759 -0.3606896
0.06692773 0.03394231 -0.3622822
0.08490566 0.03154692 -0.3652333
-0.02242791 0.04864984 -0.3687465
-0.01701673 0.04345415 -0.3693086
-0.006313042 0.04163623 -0.367716
0.004585262 0.04446084 -0.3681844
0.01623354 0.04537549 -0.3659359
0.023665 0.04455774 -0.3647414
0.03320645 0.0448011 -0.365936
0.04088644 0.04724963 -0.3640388
-0.03659665 0.05832772 -0.3684654
0.008134568 0.05580103 -0.3683249
0.01590127 0.05477715 -0.3635469
0.02475377 0.05460348 -0.3649054
0.049911 0.05730632 -0.3608769
-0.03766465 0.06686608 -0.3670601
0.006589211 0.06286196 -0.3672135
0.01751513 0.06179088 -0.3690276
0.04396582 0.0675542 -0.3669196
-0.01473834 0.07222757 -0.3667791
0.00510858 0.07805055 -0.363828
0.01245995 0.07403784 -0.3656549
0.02623709 0.07818089 -0.3621417
0.03505399 0.07479751 -0.3685591
0.04350303 0.07475366 -0.3636172
0.06208615 0.07744533 -0.361439
-0.02103952 0.08826201 -0.3670601
0.002729323 0.08444329 -0.3675286
0.01714619 0.0850382 -0.3647095
0.0260769 0.08695775 -0.3642496
0.03450338 0.08413985 -0.3661608
0.04529489 0.08509117 -0.3671538
0.05243859 0.08303145 -0.3612985
0.004224516 0.09778975 -0.3674349
0.01279006 0.09457418 -0.3664981
0.02631153 0.09372016 -0.3651694
0.03620505 0.09364652 -0.3687465
0.04528302 0.09506077 -0.3652614
0.05405838 0.09414454 -0.3646009
-0.004165183 0.109184 -0.3608769
0.01480954 0.1042897 -0.3660296
0.0259345 0.1062536 -0.366498
0.03732052 0.1050089 -0.3636875
0.04556782 0.1011898 -0.3653738
0.05558325 0.1049855 -0.3655612
0.08159488 0.1027549 -0.3622822
-0.003666786 0.1149788 -0.3636875
0.01324315 0.1120297 -0.3653738
0.02471925 0.1145636 -0.3653227
0.03787825 0.115802 -0.3639685
0.04770381 0.1174154 -0.3603148
0.05466358 0.1166318 -0.3673412
-0.001459594 0.1228462 -0.3673412
0.01342115 0.124044 -0.3679033
0.0246173 0.1248274 -0.3669899
0.03602706 0.1257878 -0.3666104
0.04783434 0.1269587 -0.3649054
0.05590068 0.1269855 -0.3643198
0.005624778 0.1333189 -0.3684654
0.01431114 0.1337242 -0.3689713
0.0256675 0.1343509 -0.3690275
0.03844785 0.1354419 -0.361439
0.04588822 0.135281 -0.3653176
0.05788537 0.1355253 -0.3627037
0.01609114 0.1494378 -0.3693086
0.02372731 0.1437794 -0.3681844
0.0341189 0.1409166 -0.3669477
0.04350303 0.1472234 -0.3649991
0.05831257 0.1415133 -0.3617201
0.02317551 0.1570508 -0.361158
0.048843 0.1549757 -0.3659359
0.05817907 0.156073 -0.366217
0.06657173 0.1579994 -0.3636875
0.01708793 0.1626254 -0.3656549
0.02363831 0.1628384 -0.3631254
0.0498398 0.1677954 -0.3636875
0.05564767 0.1616635 -0.3673814
0.05176219 0.1706912 -0.3693086
-0.1055496 0.3230487 -0.3670602
-0.1151833 0.3395666 -0.3684655
-0.1370417 0.3426035 -0.3676223
-0.1236383 0.3480464 -0.3653738
-0.1163403 0.3479041 -0.3642496
-0.1321823 0.3588037 -0.3650928
-0.1153151 0.353991 -0.3638561
-0.1405838 0.3672129 -0.3659359
-0.1265219 0.3637023 -0.3628443
-0.1188323 0.3620656 -0.3676223
-0.1572802 0.3743764 -0.3653738
-0.1427554 0.3763216 -0.363828
-0.1649697 0.3907791 -0.3642496
-0.1568174 0.3929099 -0.3654675
-0.2718049 0.4990979 -0.3631254
-0.2612495 0.5024364 -0.3659359
-0.2537558 0.5050524 -0.3650928
-0.2922392 0.5178599 -0.3649522
-0.2882164 0.5136624 -0.3653738
-0.2599502 0.515417 -0.361439
-0.3010324 0.5279662 -0.3631254
-0.2831511 0.5262033 -0.3653738
-0.2732645 0.5245011 -0.3603148
-0.3260769 0.5346186 -0.3643901
-0.3149163 0.5304796 -0.3656549
-0.3024564 0.5398729 -0.3650928
-0.312638 0.5446402 -0.3625633
0.6126024 -0.8427349 -0.3535694
0.6247775 -0.841929 -0.3535694
0.6341047 -0.8452495 -0.3570826
0.6483446 -0.8432563 -0.3530073
0.6644357 -0.8407894 -0.3527263
0.5651833 -0.8309702 -0.351321
0.5758396 -0.8325836 -0.3555368
0.5858491 -0.8330733 -0.3538973
0.5974368 -0.8331059 -0.351602
0.6073335 -0.8356898 -0.3544126
0.6142578 -0.837588 -0.3559584
0.6212175 -0.838276 -0.3527263
0.6373798 -0.834718 -0.3552558
0.6424706 -0.836616 -0.3583474
0.6555358 -0.8329864 -0.3542721
0.6650359 -0.8351313 -0.3537301
0.6728373 -0.8348128 -0.3546937
0.546885 -0.8255413 -0.3546134
0.5551205 -0.8231575 -0.3518831
0.5682164 -0.8268805 -0.3550309
0.5777678 -0.827697 -0.3577853
0.581678 -0.8285663 -0.3576916
0.6727187 -0.8247232 -0.3542252
0.6857423 -0.822917 -0.353991
0.6942329 -0.8246292 -0.3529136
0.6709149 -0.8185398 -0.3586285
0.6864365 -0.8174975 -0.3569421
0.7029311 -0.8155842 -0.3543189
0.7156283 -0.8107128 -0.3541315
0.7231044 -0.8123735 -0.35638
0.7351015 -0.8104753 -0.3560989
0.7292987 -0.8094317 -0.3580663
0.7363593 -0.8058266 -0.35638
0.7444405 -0.8035502 -0.3530073
0.7500178 -0.8008449 -0.351602
0.7373239 -0.7950501 -0.3580664
0.7462087 -0.7946224 -0.3555368
0.7556426 -0.7921847 -0.3560588
0.7648931 -0.7957873 -0.3533533
0.7717338 -0.7926382 -0.3567313
0.7840513 -0.7914516 -0.3507589
0.7938056 -0.7989478 -0.3507589
0.8027768 -0.7923065 -0.3524452
0.7362763 -0.7857602 -0.3583474
0.7479531 -0.7856884 -0.3560989
0.759701 -0.7873723 -0.3580663
0.7649104 -0.7868189 -0.3561926
0.7795514 -0.7854466 -0.3554806
0.7848203 -0.7875618 -0.3531197
0.7919545 -0.787728 -0.3564737
0.8029667 -0.7814903 -0.3554431
0.8298327 -0.7808259 -0.3530073
0.8381275 -0.7820355 -0.3504778
0.756853 -0.7769833 -0.3572232
0.7674333 -0.7756261 -0.3566048
0.7730628 -0.7736931 -0.3574105
0.7833393 -0.7753097 -0.3559712
0.7948736 -0.7750617 -0.3565205
0.8051857 -0.7740419 -0.3526326
0.8131008 -0.7771246 -0.3501967
0.8364365 -0.7786196 -0.3508994
0.7273051 -0.7625608 -0.3577853
0.7393379 -0.7609 -0.3530073
0.7464578 -0.7674003 -0.3560989
0.7555803 -0.7636758 -0.3554665
0.7664649 -0.7626562 -0.3555368
0.7752463 -0.7674159 -0.3545063
0.7020292 -0.7520281 -0.3532884
0.7173015 -0.7516495 -0.3552558
0.7359914 -0.7555082 -0.3535694
0.743503 -0.7577684 -0.3524452
0.7512994 -0.7580531 -0.3541315
0.7667497 -0.7599525 -0.3521641
0.6607333 -0.7407866 -0.3591906
0.6751275 -0.7420668 -0.3575042
0.6818085 -0.7451506 -0.3535694
0.69644 -0.7462175 -0.3549747
0.7099324 -0.7490398 -0.3586285
0.7251691 -0.7493714 -0.3549747
0.6178711 -0.730965 -0.3518831
0.6237451 -0.7327926 -0.3545531
0.6343183 -0.7304436 -0.3560989
0.643954 -0.7361128 -0.3545063
0.653115 -0.7362788 -0.3504778
0.6631898 -0.7374173 -0.3560989
0.6884301 -0.7395056 -0.3501967
0.5950872 -0.7214109 -0.357167
0.602492 -0.7224266 -0.3530073
0.6134745 -0.725249 -0.3560989
0.6250339 -0.7254244 -0.3532321
0.6302599 -0.728118 -0.3521641
0.5752225 -0.7102813 -0.3594716
0.5845639 -0.7147221 -0.3555931
0.5947906 -0.7167251 -0.3558179
0.602848 -0.7196746 -0.3566611
0.5777323 -0.706984 -0.3575042
0.5477394 -0.6919214 -0.3552558
0.5571911 -0.6941272 -0.355326
0.5634603 -0.6955279 -0.3546937
0.5744037 -0.69937 -0.3523046
0.5458984 -0.6843922 -0.3538906
0.5546458 -0.6873674 -0.3560989
0.5160319 -0.6710641 -0.3590032
0.5230806 -0.6759033 -0.3535694
0.5340691 -0.675032 -0.3527262
0.4972588 -0.661465 -0.3530073
0.5065962 -0.6656873 -0.357183
0.5135636 -0.6629195 -0.3550684
0.4799573 -0.6539689 -0.356661
0.4846565 -0.6510919 -0.3566611
0.4947194 -0.6548074 -0.3539442
0.5047755 -0.6572222 -0.3532482
0.5110716 -0.6576218 -0.351321
0.458099 -0.6447194 -0.3589095
0.4672481 -0.6415169 -0.3562395
0.4737807 -0.6454293 -0.3530073
0.4835529 -0.6464087 -0.3537802
0.4938412 -0.6473277 -0.3501967
0.4436929 -0.6316015 -0.3551621
0.4538003 -0.6338902 -0.3549044
0.4655038 -0.6385751 -0.3548341
0.4728373 -0.6359889 -0.351321
0.4231399 -0.624568 -0.3549044
0.4349163 -0.62264 -0.3561552
0.4459772 -0.624655 -0.3551153
0.406942 -0.6145223 -0.3549747
0.415135 -0.6156919 -0.3557376
0.4244215 -0.6148226 -0.3522578
0.4374155 -0.6173924 -0.3548342
0.4423876 -0.616919 -0.3551621
0.3873264 -0.6028521 -0.3558179
0.3988893 -0.6049258 -0.3572794
0.4046517 -0.604157 -0.3548186
0.4164472 -0.6069205 -0.3530073
0.3591314 -0.591965 -0.3572232
0.3677643 -0.5920113 -0.3580663
0.374838 -0.5927524 -0.3525576
0.3837095 -0.5916994 -0.3540191
0.3936158 -0.5984803 -0.3545063
0.4004272 -0.5988424 -0.35638
0.3559274 -0.5854411 -0.35638
0.3652071 -0.5839713 -0.3546937
0.3724457 -0.5819787 -0.3532884
0.3804201 -0.5880269 -0.351321
0.3379138 -0.5721827 -0.3591906
0.3534069 -0.5745065 -0.3550309
0.3295835 -0.5662526 -0.3586285
0.336917 -0.5620296 -0.3570826
0.3466572 -0.5670392 -0.3536818
0.3527946 -0.5652564 -0.351602
0.3341403 -0.5542279 -0.3563289
0.3484514 -0.5560046 -0.3501967
0.3162335 -0.5421361 -0.3576916
0.3249377 -0.5471924 -0.3552558
0.3311499 -0.5495531 -0.3589095
0.3061588 -0.5316196 -0.3597527
0.3138721 -0.5356061 -0.35638
0.3241011 -0.5341035 -0.3547873
0.2942328 -0.5234365 -0.3555368
0.3054705 -0.5264962 -0.3570358
0.2826154 -0.5165333 -0.3595653
0.2909932 -0.5128495 -0.3539442
0.2726949 -0.5043413 -0.3591906
0.2859381 -0.5032191 -0.3556305
0.2914916 -0.5072358 -0.3520705
0.275266 -0.4943262 -0.3540066
0.2841492 -0.4952213 -0.3569421
0.2653186 -0.4840751 -0.3561551
0.2752462 -0.4870733 -0.3551621
0.2818797 -0.489398 -0.3524452
0.2673549 -0.4750704 -0.3580663
0.2734781 -0.4753321 -0.3546234
0.2549425 -0.4660413 -0.3556305
0.2655868 -0.4651085 -0.3555368
0.2737629 -0.4652038 -0.3523047
0.2321467 -0.4550982 -0.3566611
0.247063 -0.4501411 -0.3589095
0.2555358 -0.4572623 -0.3566048
0.2194375 -0.4401063 -0.3580663
0.2456746 -0.4462928 -0.3560989
0.255162 -0.4450408 -0.3569421
0.2653613 -0.4442341 -0.3510399
0.2346861 -0.4361863 -0.3549747
0.2465646 -0.4349025 -0.3549747
0.2546577 -0.43594 -0.3535694
0.2658597 -0.4386598 -0.3541315
0.2359855 -0.423922 -0.3542252
0.2438056 -0.4250332 -0.35638
0.2571327 -0.4216935 -0.3518028
0.2314703 -0.4117368 -0.3558179
0.2525454 -0.418332 -0.3518831
0.2263024 -0.404088 -0.3567548
0.2362834 -0.4035971 -0.3544126
0.2244215 -0.397162 -0.3577853
0.2333215 -0.3939348 -0.3569932
0.2416993 -0.3933786 -0.3526326
0.2549306 -0.3904839 -0.3510399
0.2624421 -0.3901988 -0.3501967
0.2105376 -0.386358 -0.3594716
0.226157 -0.3841097 -0.3569421
0.2370683 -0.3860367 -0.3548342
0.247593 -0.3839109 -0.3539442
0.2562003 -0.3849254 -0.3533821
0.2629406 -0.3845538 -0.3524452
0.2709861 -0.3802381 -0.3501967
0.2259701 -0.3791217 -0.358769
0.2355821 -0.3761334 -0.3579258
0.2462086 -0.3776275 -0.3597527
0.254634 -0.3744578 -0.3542252
0.2643527 -0.3735877 -0.3561926
0.2468494 -0.3693254 -0.351321
0.2574582 -0.3624479 -0.3591906
0.2646227 -0.3657618 -0.3554665
0.27335 -0.3641547 -0.3528949
0.2410822 -0.3531961 -0.3532884
0.2576718 -0.3596959 -0.3594716
0.2651477 -0.3594113 -0.356661
0.2752652 -0.3545628 -0.3528387
0.2861992 -0.3557572 -0.3511336
0.2743278 -0.3459153 -0.3555556
0.2849311 -0.3449142 -0.3528467
0.298398 -0.3402448 -0.3535694
0.2756734 -0.3365911 -0.3553495
0.2854634 -0.3350264 -0.3538505
0.2953364 -0.3343539 -0.3544126
0.3060449 -0.3334132 -0.3528949
0.3208259 -0.3378244 -0.3501967
0.289498 -0.320129 -0.3591906
0.2984692 -0.3240913 -0.3560989
0.30676 -0.3246371 -0.3574418
0.3136822 -0.3230243 -0.3552558
0.3221787 -0.3237355 -0.3521641
0.3340691 -0.3243057 -0.351321
0.2978284 -0.3162883 -0.3552558
0.3080011 -0.31675 -0.3542018
0.3156426 -0.3144799 -0.3541315
0.3232467 -0.3125404 -0.3507589
0.2962264 -0.3047839 -0.3559584
0.3098255 -0.304332 -0.3528668
0.314766 -0.3049803 -0.3561302
0.3246548 -0.3045589 -0.3533196
0.3329299 -0.3038095 -0.3541315
0.3451406 -0.3014619 -0.3527263
0.2940548 -0.2990194 -0.3507589
0.313889 -0.2951494 -0.3544527
0.3266643 -0.2946635 -0.3540191
0.33472 -0.2940035 -0.3542119
0.3009612 -0.2825101 -0.3591906
0.327122 -0.2845899 -0.354533
0.3361961 -0.2853564 -0.3560989
0.3280329 -0.2754565 -0.3560053
0.3358016 -0.2728947 -0.3522578
0.2888929 -0.266997 -0.3586285
0.3029073 -0.2610197 -0.3575042
0.3188323 -0.2678979 -0.3586285
0.3255251 -0.2638369 -0.3553682
0.3367035 -0.2635486 -0.3516957
0.3056426 -0.2524086 -0.3565205
0.314854 -0.2572534 -0.3569421
0.3255251 -0.2545543 -0.354847
0.3314584 -0.2549391 -0.3540379
0.306942 -0.2452687 -0.3577853
0.3131838 -0.247332 -0.3527263
0.3237184 -0.2457428 -0.352656
0.3322179 -0.2465821 -0.3524452
0.2688145 -0.2313447 -0.3580663
0.2892132 -0.2343816 -0.3591906
0.2982378 -0.238224 -0.35905
0.3076361 -0.2369436 -0.3520236
0.3154415 -0.2349502 -0.355045
0.3236027 -0.2344807 -0.3562676
0.3329441 -0.2343296 -0.353457
0.2674973 -0.2205038 -0.3591906
0.2747953 -0.224086 -0.3552558
0.2863144 -0.2240697 -0.3574239
0.294126 -0.2241972 -0.3574106
0.3053598 -0.2247535 -0.3549435
0.3226534 -0.2266717 -0.3535694
0.2644002 -0.2135777 -0.3546937
0.2750516 -0.2154667 -0.3560427
0.2837843 -0.215209 -0.3553963
0.2946737 -0.2142353 -0.3547369
0.3073454 -0.2158396 -0.3538505
0.3133737 -0.2157296 -0.3576916
0.2492939 -0.2033792 -0.3575042
0.2639551 -0.2038946 -0.356661
0.2759078 -0.2024359 -0.3542018
0.2853898 -0.2064386 -0.3549747
0.2929299 -0.2037962 -0.3540191
0.302136 -0.2082771 -0.3528668
0.310146 -0.2089772 -0.3521641
0.2446511 -0.1959066 -0.3573637
0.2546191 -0.1917023 -0.3553963
0.2646493 -0.1953772 -0.3565674
0.2760334 -0.1951028 -0.3524452
0.2073336 -0.1808928 -0.3532884
0.2159131 -0.1873903 -0.3580663
0.2270678 -0.1826235 -0.3569421
0.2368815 -0.1822827 -0.3590032
0.2436597 -0.187591 -0.3590781
0.254177 -0.1843434 -0.3552558
0.2642043 -0.1858255 -0.3530073
0.2807405 -0.1808928 -0.3501967
0.2032894 -0.1746486 -0.3575042
0.2258862 -0.1774426 -0.3548543
0.2350659 -0.1742347 -0.3557242
0.2433535 -0.1745539 -0.3566611
0.2560911 -0.1743826 -0.3536818
0.2657743 -0.1756451 -0.3553682
0.1483802 -0.1660188 -0.3586285
0.1937522 -0.1668847 -0.3573637
0.2034176 -0.1652128 -0.3524452
0.2177999 -0.1650946 -0.3591906
0.2282805 -0.1643062 -0.3564924
0.2341205 -0.163671 -0.3540066
0.2448355 -0.1641456 -0.3531679
0.2540762 -0.1670899 -0.3533687
0.2657173 -0.1663658 -0.354525
0.2798149 -0.1677978 -0.3507589
0.1495194 -0.1519536 -0.3586285
0.1748665 -0.1515504 -0.356661
0.1817254 -0.1527519 -0.3557242
0.1958419 -0.1525987 -0.3561552
0.2055892 -0.158535 -0.3573637
0.2116767 -0.1524515 -0.3541315
0.2249911 -0.1539618 -0.3535694
0.2346565 -0.1579896 -0.353991
0.2462205 -0.1547441 -0.3529136
0.2535636 -0.1558905 -0.3549185
0.2670227 -0.1574882 -0.3509462
0.2749496 -0.1521582 -0.3524452
0.2808117 -0.1565074 -0.3507589
0.1733001 -0.144504 -0.3541315
0.1836715 -0.1421495 -0.3584411
0.1942898 -0.1461939 -0.3544688
0.2045805 -0.1434692 -0.3552558
0.2132788 -0.1430992 -0.3559584
0.2260448 -0.1443723 -0.3536819
0.2355999 -0.1443868 -0.3545531
0.2462205 -0.1470747 -0.3545063
0.2522606 -0.1446628 -0.3509462
0.09498043 -0.1350824 -0.3549044
0.103382 -0.1339732 -0.3524452
0.1198291 -0.1303202 -0.3541315
0.1288122 -0.134503 -0.3573169
0.1354575 -0.1310084 -0.3521641
0.1431114 -0.1338299 -0.3558179
0.1562122 -0.1312456 -0.356661
0.162549 -0.1341967 -0.3572634
0.1753649 -0.1325499 -0.3558179
0.1870213 -0.1358304 -0.3553361
0.197026 -0.134232 -0.3542181
0.205963 -0.134542 -0.3532884
0.2143966 -0.1360556 -0.3561552
0.2235553 -0.1362902 -0.3546937
0.2320755 -0.1362735 -0.3558179
0.246446 -0.1366148 -0.3505715
0.255251 -0.1328336 -0.351321
0.1368601 -0.1248173 -0.3561551
0.1452474 -0.1228341 -0.35638
0.1553934 -0.1249122 -0.354881
0.1650837 -0.1240297 -0.3528949
0.1765832 -0.1244641 -0.3548186
0.1848345 -0.1268335 -0.3549044
0.1966323 -0.1255188 -0.3546937
0.2061944 -0.1223028 -0.3549185
0.2149163 -0.1236552 -0.3534289
0.2242791 -0.123214 -0.3519955
0.2418654 -0.1230144 -0.3535694
0.08216447 -0.1135746 -0.3591906
0.104984 -0.1140716 -0.3538505
0.1155571 -0.110964 -0.3597527
0.1253432 -0.1141003 -0.3551933
0.1376291 -0.1131146 -0.3522578
0.145283 -0.1194796 -0.3549747
0.1561232 -0.1187926 -0.3558179
0.1645629 -0.115075 -0.3545732
0.1738697 -0.1157179 -0.3570545
0.1845259 -0.1142852 -0.3551152
0.1958989 -0.1165674 -0.3553682
0.20556 -0.1148333 -0.3565844
0.2147977 -0.1143879 -0.3514147
0.2334639 -0.1194563 -0.3501967
0.09156284 -0.1024721 -0.3597527
0.1141687 -0.1019024 -0.3569421
0.1258526 -0.1047548 -0.3533446
0.1353665 -0.1046072 -0.3568172
0.145105 -0.1081892 -0.351321
0.1533108 -0.105242 -0.3571529
0.1640506 -0.1049265 -0.354387
0.1738412 -0.1048449 -0.3570545
0.1853837 -0.1055634 -0.3550952
0.1954005 -0.1043605 -0.3516582
0.2037024 -0.1023148 -0.3522578
0.09687433 -0.09628579 -0.3561552
0.1034176 -0.09540372 -0.3575042
0.1153613 -0.092967 -0.3542018
0.123045 -0.09448677 -0.3557242
0.1332102 -0.0955284 -0.3550099
0.1433606 -0.09443166 -0.3507589
0.1547407 -0.09622626 -0.3565674
0.162193 -0.09304806 -0.3556305
0.1755607 -0.09469511 -0.3551855
0.19525 -0.09498343 -0.3548543
0.0762015 -0.08168225 -0.3560989
0.0955073 -0.08278429 -0.3582912
0.1061232 -0.08679919 -0.3555368
0.1169811 -0.08287135 -0.3516957
0.1242435 -0.08412092 -0.3582537
0.1367123 -0.08527557 -0.3544829
0.1444083 -0.08546485 -0.3539709
0.1570666 -0.08434255 -0.3540379
0.1647561 -0.08586793 -0.3507589
0.1754272 -0.0844631 -0.3520236
0.1802065 -0.08484866 -0.3504778
0.195372 -0.08399402 -0.3530073
0.2025632 -0.08629631 -0.3501967
0.06550374 -0.07908534 -0.3597527
0.0745461 -0.07336733 -0.3538505
0.08435979 -0.07494125 -0.3512273
0.09310549 -0.07437173 -0.3550684
0.1047989 -0.07698264 -0.3532884
0.1149448 -0.07641786 -0.3551433
0.1252545 -0.07844879 -0.3558179
0.1344833 -0.07463785 -0.3537227
0.1470701 -0.07550311 -0.3559303
0.1549751 -0.07263236 -0.3540613
0.1763973 -0.07244295 -0.3507589
0.1811321 -0.07377153 -0.3524452
0.0491278 -0.06321552 -0.3575042
0.0671922 -0.06519136 -0.3550952
0.0750445 -0.06760283 -0.3597527
0.08549306 -0.06275274 -0.3553963
0.09345674 -0.06517909 -0.3571669
0.1038187 -0.0639729 -0.3547686
0.1158301 -0.06553604 -0.3553963
0.1337639 -0.06546244 -0.3562997
0.1458882 -0.06336959 -0.353991
0.1528075 -0.06474445 -0.3526496
0.1645426 -0.06387273 -0.3509462
0.05650884 -0.05266837 -0.3565674
0.06551021 -0.05327223 -0.3554602
0.07702793 -0.05419836 -0.3574239
0.08552729 -0.05432413 -0.3547801
0.09359915 -0.05773575 -0.3588533
0.1064614 -0.05606361 -0.3552558
0.1172125 -0.05681116 -0.3583474
0.1261012 -0.05432465 -0.3551024
0.13472 -0.05675365 -0.3559785
0.1426415 -0.05704408 -0.3510961
0.1566631 -0.05541234 -0.3516957
0.001495194 -0.04084824 -0.3580663
0.04190103 -0.04440557 -0.3565205
0.05768957 -0.04476653 -0.3565205
0.06180136 -0.04191471 -0.3555368
0.07435624 -0.04548049 -0.354881
0.08508366 -0.04786897 -0.3538505
0.09555002 -0.04983704 -0.3566611
0.1037024 -0.04431027 -0.3545531
0.1139314 -0.04427092 -0.3544595
0.1252537 -0.04521464 -0.3539559
0.1351905 -0.04872219 -0.3532884
0.1423994 -0.04560309 -0.3556773
0.1588466 -0.04904241 -0.3518831
0.001708793 -0.03814223 -0.3572232
0.03559986 -0.03134328 -0.3547873
0.04382343 -0.03483467 -0.3583474
0.0552815 -0.03619791 -0.3550952
0.06453068 -0.03532869 -0.3584411
0.07553104 -0.03358066 -0.3559116
0.08552866 -0.03492907 -0.355045
0.09640442 -0.03283021 -0.3571669
0.1031684 -0.03591362 -0.3528199
0.1152317 -0.03667943 -0.3554164
0.1291054 -0.03536404 -0.3535694
0.1441972 -0.0353679 -0.3553963
0.01719473 -0.02514493 -0.3537099
0.02840869 -0.02011576 -0.3583474
0.03574226 -0.02493074 -0.3572232
0.04348522 -0.0243133 -0.3575042
0.05389819 -0.02950899 -0.35638
0.06360325 -0.02511205 -0.3568124
0.07371205 -0.02508339 -0.3542921
0.08656591 -0.02585184 -0.3557668
0.09676041 -0.02420324 -0.3543189
0.1057316 -0.02448029 -0.3552558
0.1124172 -0.02549125 -0.354244
0.1223389 -0.02363857 -0.3577853
0.1369171 -0.02701836 -0.3520236
0.01772873 -0.01802884 -0.3535694
0.02776789 -0.0144466 -0.3576448
0.03535066 -0.01596494 -0.358769
0.05290139 -0.01484938 -0.3534289
0.06194375 -0.0118369 -0.3555368
0.0757565 -0.0145171 -0.3578415
0.08499304 -0.0164197 -0.3534672
0.09709608 -0.01676083 -0.352124
0.1043076 -0.01712637 -0.351321
0.1136419 -0.01440865 -0.3534008
0.123576 -0.01458317 -0.3547639
0.1309363 -0.0152931 -0.3522578
0.01886792 -0.003677357 -0.3549747
0.02863652 -0.005978367 -0.3582912
0.03673906 -0.006100181 -0.3554967
0.04644595 -0.005313978 -0.3560053
0.05368459 -0.005307856 -0.358227
0.06450695 -0.006436738 -0.359378
0.0758277 -0.007506713 -0.3577291
0.08147621 -0.002657938 -0.3530073
0.09818441 -0.005638155 -0.3525389
0.1240655 -0.0003799991 -0.351321
0.1315771 -0.007829593 -0.3569421
0.01628693 0.004434746 -0.3556773
0.02363831 0.003730965 -0.3576916
0.04805981 0.006703671 -0.3522578
0.05532218 0.006594083 -0.359378
0.06329655 0.005360311 -0.3549747
0.07379343 0.004851545 -0.3532482
0.08466358 0.006555055 -0.3558741
0.09334283 0.005232855 -0.3530073
0.107654 0.0002827459 -0.3558179
0.1152189 0.00317757 -0.3524452
0.1228551 0.007565943 -0.351321
0.1305091 0.003272926 -0.3501967
0.148309 0.004624745 -0.3510399
0.005695977 0.01411286 -0.3591906
0.01402634 0.0178851 -0.3552558
0.02071912 0.01930737 -0.3591906
0.04535422 0.018738 -0.3561926
0.05574938 0.01269716 -0.3569421
0.06558918 0.01387068 -0.3525576
0.0743325 0.01331116 -0.3527825
0.09386496 0.01185951 -0.3528199
0.1087576 0.01534632 -0.351602
0.1234603 0.01477655 -0.351321
0.139053 0.01143176 -0.351321
0.006763973 0.02779971 -0.3597527
0.02313991 0.02616301 -0.3597527
0.03703176 0.02502722 -0.3537568
0.04866501 0.02816678 -0.3559584
0.05675804 0.02621005 -0.3514147
0.06586863 0.02552226 -0.3537802
0.07356118 0.02405158 -0.3544126
0.08334436 0.02417294 -0.35373
0.09150181 0.02338075 -0.3535694
0.1055892 0.02750297 -0.3537099
-0.001566394 0.03351594 -0.3555368
0.03782129 0.03311286 -0.3544688
0.04407263 0.03242808 -0.3541315
0.05568411 0.03551612 -0.3541784
0.06662513 0.03534187 -0.3536397
0.07452237 0.03643278 -0.3533821
0.09156284 0.03491556 -0.3507589
0.0244571 0.04383367 -0.3569421
0.04429413 0.04367607 -0.3547561
0.05482378 0.04593316 -0.3517425
0.06769906 0.04493303 -0.3531947
0.0748665 0.0412012 -0.351321
0.1191171 0.04198302 -0.3501967
0.01612674 0.05614451 -0.3597527
0.0244571 0.05561115 -0.3570826
0.03285867 0.05149651 -0.3572232
0.04579159 0.05442729 -0.35638
0.05545745 0.05516775 -0.3543564
0.06308295 0.05290305 -0.3542252
0.09320043 0.05510105 -0.3541315
0.01587754 0.06466103 -0.3575042
0.04203835 0.06596843 -0.354533
0.05332439 0.0646714 -0.3537678
0.06324315 0.06512305 -0.3515318
0.07696689 0.06729351 -0.3535694
0.08672126 0.06581503 -0.3516957
0.09498042 0.06722306 -0.3504778
0.0261659 0.07796776 -0.353991
0.03510146 0.07483669 -0.3562395
0.04382343 0.07619677 -0.3523515
0.0537863 0.07449404 -0.3543323
0.06417468 0.07555577 -0.3535694
0.07517799 0.07180683 -0.3523046
0.08733831 0.07324795 -0.3533821
0.009683161 0.08762133 -0.3589095
0.01124956 0.08757531 -0.3552558
0.02754242 0.08464879 -0.3558179
0.03576599 0.08559752 -0.354881
0.04325382 0.08506642 -0.3536397
0.05325738 0.08469199 -0.3560989
0.06335131 0.08526792 -0.354391
0.07484385 0.08416278 -0.3537227
0.08419366 0.08676751 -0.3530073
0.09697402 0.08131126 -0.351321
0.01801353 0.09193866 -0.3558179
0.0263439 0.09117937 -0.3586285
0.03503026 0.09208074 -0.3594716
0.04539694 0.09286874 -0.3560427
0.05375578 0.09457256 -0.3562395
0.06255785 0.09671254 -0.3548342
0.07140145 0.09301399 -0.3532884
0.08935564 0.09250914 -0.3501967
0.03809185 0.1081403 -0.3560989
0.04569598 0.1066027 -0.3558179
0.05430165 0.1056966 -0.3556305
0.06329655 0.1064205 -0.3546937
0.07081999 0.101632 -0.3516957
0.005624778 0.1173666 -0.3586285
0.01331435 0.1144736 -0.3530073
0.02961908 0.1116751 -0.3597527
0.03535066 0.1179918 -0.3579726
0.04672125 0.1153934 -0.354525
0.05605791 0.1155008 -0.3523203
0.06329655 0.1174154 -0.3535694
0.07372731 0.1151615 -0.3549747
0.02067165 0.1261129 -0.3546937
0.03730865 0.1209016 -0.3586285
0.04681382 0.1225935 -0.3553494
0.05688857 0.1235177 -0.3518831
0.06412721 0.1280247 -0.3535694
0.02997508 0.1373879 -0.3586285
0.03859025 0.1373399 -0.3588158
0.04623235 0.1375291 -0.3588158
0.05689747 0.1352227 -0.3551855
0.06619793 0.1326194 -0.3556773
0.07326451 0.1324294 -0.3544126
0.03196868 0.142812 -0.3590032
0.04065504 0.142771 -0.351321
0.05667497 0.1436491 -0.3575042
0.0240299 0.1590319 -0.3568016
0.03325027 0.1596371 -0.35638
0.04150943 0.1534219 -0.351602
0.05930936 0.1547493 -0.3572232
0.06792453 0.155319 -0.3589095
0.0249911 0.162562 -0.3535694
0.0493414 0.1620091 -0.35638
0.05605791 0.1655518 -0.3586285
0.06002136 0.1651872 -0.3501967
-0.1135635 0.3385585 -0.3541315
-0.1325739 0.3585782 -0.3583474
-0.1154005 0.354105 -0.357167
-0.1410466 0.3676156 -0.3501967
-0.1328587 0.3601442 -0.3583474
-0.1261659 0.3623967 -0.3501967
-0.1189985 0.3632593 -0.3539442
-0.1414026 0.3738541 -0.3538505
-0.1571734 0.387375 -0.3551152
-0.1439836 0.3859869 -0.3531478
-0.1601994 0.3947287 -0.3586285
-0.1558562 0.3923322 -0.3535694
-0.2686365 0.4989554 -0.35638
-0.2660971 0.5017151 -0.3591906
-0.2557494 0.5078505 -0.3565205
-0.2955263 0.5148717 -0.3584411
-0.2896404 0.514801 -0.3521641
-0.2623709 0.5118234 -0.352937
-0.2584313 0.5138283 -0.3550684
-0.3013884 0.5284868 -0.3552558
-0.2871484 0.5286289 -0.3597527
-0.2732645 0.5245011 -0.3591906
-0.2675685 0.5282025 -0.3558179
-0.3112852 0.5375241 -0.3577853
-0.3089356 0.5315001 -0.3538505
-0.2936988 0.5305977 -0.35638
-0.3191171 0.5438814 -0.3510399
0.6390886 -0.8524133 -0.3426082
0.6467426 -0.8557814 -0.3428892
0.6049217 -0.8427474 -0.3446459
0.6151062 -0.8437314 -0.3443882
0.6243504 -0.844434 -0.3441821
0.6373205 -0.8451551 -0.3424208
0.6443005 -0.8425647 -0.3419899
0.6660377 -0.8421543 -0.3409218
0.6754005 -0.8445372 -0.3434514
0.5666501 -0.8326777 -0.3473862
0.5739647 -0.8360941 -0.3421398
0.5845972 -0.836995 -0.3422335
0.5928088 -0.837516 -0.3412029
0.6051976 -0.8365303 -0.3456998
0.6344963 -0.8358885 -0.3456062
0.6447846 -0.8382295 -0.3426082
0.65712 -0.8364251 -0.3486509
0.6673075 -0.837043 -0.3479483
0.6765753 -0.8348361 -0.3447161
0.6839445 -0.8368537 -0.3420461
0.555728 -0.8268338 -0.3477235
0.5656105 -0.8273331 -0.3479483
0.5738697 -0.8257996 -0.346824
0.676326 -0.8264949 -0.3460746
0.68665 -0.8252307 -0.3461683
0.6938412 -0.8236074 -0.3459247
0.7034057 -0.8213235 -0.3410155
0.697686 -0.8158831 -0.341765
0.7091492 -0.8166426 -0.3459809
0.7150587 -0.8148409 -0.3462619
0.728729 -0.8135585 -0.3442945
0.7363119 -0.8158843 -0.3412029
0.702314 -0.8098581 -0.3471051
0.7452539 -0.8045157 -0.3445756
0.7578498 -0.8011784 -0.3440135
0.7654326 -0.802743 -0.3456998
0.7733001 -0.8033921 -0.3428892
0.7812745 -0.8026491 -0.3440135
0.7444643 -0.7928909 -0.3470114
0.7538199 -0.7952288 -0.3472738
0.7652072 -0.7952003 -0.3475735
0.7759558 -0.7949054 -0.3447443
0.7862585 -0.795081 -0.344154
0.7944643 -0.7938484 -0.3433577
0.7761379 -0.7853324 -0.3469044
0.7866572 -0.7850758 -0.3443508
0.7969651 -0.7860318 -0.3457701
0.8056782 -0.7860919 -0.3433811
0.8124599 -0.7826282 -0.3479483
0.8294055 -0.7836245 -0.3456998
0.8359737 -0.7820469 -0.3478078
0.8426486 -0.7807776 -0.3485104
0.762848 -0.7742029 -0.3461495
0.7768601 -0.774801 -0.3442945
0.7868485 -0.7763322 -0.3452984
0.7932538 -0.7719544 -0.3480888
0.8037279 -0.7755325 -0.3454188
0.815898 -0.7751191 -0.3443347
0.8229738 -0.7783422 -0.3470114
0.8301175 -0.7781204 -0.3431703
0.847063 -0.7784055 -0.341765
0.758811 -0.7603791 -0.346543
0.7659131 -0.7675956 -0.3442945
0.7736134 -0.7630252 -0.3464868
0.785499 -0.7652594 -0.3415152
0.7947391 -0.7662135 -0.3445756
0.8045365 -0.7638083 -0.3427287
0.7262372 -0.7546979 -0.3433108
0.7362229 -0.7535001 -0.3437324
0.7420256 -0.7538327 -0.3440135
0.7546814 -0.7562799 -0.3462057
0.7670345 -0.757247 -0.3406408
0.7746529 -0.7599041 -0.3406408
0.6672125 -0.7415132 -0.3415777
0.684075 -0.742367 -0.348323
0.695372 -0.7428493 -0.3458404
0.7037854 -0.7466216 -0.3444819
0.7177643 -0.7475227 -0.3462619
0.7233891 -0.7471659 -0.3448566
0.7487362 -0.7481389 -0.3406408
0.6378427 -0.7313449 -0.3440135
0.6442032 -0.7333447 -0.3462619
0.6559155 -0.7360179 -0.3453251
0.6652427 -0.7358835 -0.3438261
0.6739409 -0.7375361 -0.3409219
0.6883588 -0.7395056 -0.3479483
0.6064792 -0.7214304 -0.3451377
0.6147892 -0.7219113 -0.3448968
0.6269135 -0.723754 -0.3485104
0.6305091 -0.7253684 -0.3420461
0.6459238 -0.7286878 -0.3412029
0.6500534 -0.7296841 -0.341484
0.583268 -0.7107562 -0.3496346
0.5944524 -0.7135908 -0.3455124
0.6044144 -0.7165598 -0.3438261
0.5779993 -0.7042564 -0.3480888
0.5847775 -0.7055942 -0.3448567
0.5938056 -0.707554 -0.3451377
0.5648273 -0.6919932 -0.3454188
0.5731221 -0.6926447 -0.3442945
0.535315 -0.6805826 -0.3428892
0.5472309 -0.6838363 -0.344415
0.5542424 -0.6836826 -0.3490725
0.5624303 -0.6864508 -0.3430766
0.5323603 -0.6723288 -0.3442945
0.5411534 -0.6722805 -0.3456998
0.5578498 -0.6791603 -0.3409219
0.4882877 -0.6600887 -0.3448566
0.5147943 -0.6614038 -0.3463423
0.5279459 -0.6687225 -0.3456998
0.5330011 -0.6668253 -0.3400787
0.4948618 -0.6529728 -0.3462619
0.5055655 -0.6536529 -0.3451377
0.5150689 -0.6574188 -0.3428089
0.4758277 -0.6437696 -0.341765
0.4847989 -0.6442677 -0.3465992
0.491373 -0.644735 -0.3466367
0.4549306 -0.6332375 -0.3452314
0.4651477 -0.6353101 -0.3460746
0.4745699 -0.637555 -0.3449504
0.4855109 -0.6393107 -0.341765
0.4344607 -0.6223032 -0.3434514
0.442791 -0.6246985 -0.3423271
0.4558465 -0.6256947 -0.3421738
0.4600213 -0.6254097 -0.3471051
0.4072624 -0.6103715 -0.3454188
0.4185119 -0.6146891 -0.3459809
0.4267711 -0.6145942 -0.3406408
0.4339702 -0.6155585 -0.3473862
0.4469681 -0.6144983 -0.3437324
0.4520233 -0.61755 -0.3425145
0.3857601 -0.6005043 -0.349213
0.407832 -0.6049163 -0.3459809
0.4165438 -0.6049496 -0.3452582
0.4251098 -0.6074612 -0.3436387
0.4339979 -0.6089954 -0.3427487
0.3777572 -0.5973825 -0.3485104
0.3883944 -0.5916799 -0.3490725
0.3951483 -0.5954889 -0.3469847
0.4036454 -0.5960729 -0.3446319
0.3598434 -0.5836859 -0.346543
0.364329 -0.5816697 -0.341484
0.3746351 -0.5846287 -0.3464727
0.3850481 -0.5898776 -0.3442945
0.3455322 -0.5726082 -0.344763
0.3538389 -0.5752283 -0.3443258
0.3634745 -0.5781236 -0.3451377
0.3725881 -0.57925 -0.3420461
0.3470132 -0.562674 -0.3445756
0.352937 -0.5625509 -0.341765
0.3613623 -0.5679914 -0.3442008
0.3394803 -0.5542371 -0.3448566
0.3465646 -0.5550239 -0.3458872
0.35356 -0.5563959 -0.3412029
0.3279459 -0.5423421 -0.3471051
0.333528 -0.5444478 -0.3442945
0.3453186 -0.5475611 -0.341765
0.3137692 -0.5326641 -0.3459497
0.3256319 -0.538879 -0.3469646
0.3320043 -0.5385455 -0.3406408
0.3051264 -0.5226306 -0.3444351
0.3147312 -0.5253007 -0.3435638
0.3222855 -0.5272797 -0.3445756
0.2872196 -0.5171972 -0.3431703
0.2965231 -0.515316 -0.3444351
0.3069928 -0.5155921 -0.3423272
0.3126736 -0.5160601 -0.3426082
0.2883945 -0.5046736 -0.3458403
0.294539 -0.5041093 -0.344407
0.2690637 -0.4900137 -0.3434514
0.2859262 -0.4966958 -0.3482293
0.2964756 -0.4956508 -0.3431141
0.3058028 -0.4969401 -0.3400787
0.2653435 -0.4880217 -0.3444351
0.2776967 -0.4815822 -0.3410624
0.2836775 -0.485863 -0.3448567
0.2929868 -0.4896826 -0.3409219
0.2674973 -0.4723189 -0.3456998
0.2736917 -0.4737773 -0.346543
0.2833037 -0.4726984 -0.3406408
0.2646493 -0.4652263 -0.3480888
0.2775721 -0.4658912 -0.3423271
0.2840869 -0.4643503 -0.3406408
0.2351015 -0.451399 -0.3451377
0.2566275 -0.4560783 -0.3477609
0.2634211 -0.4544463 -0.3440838
0.2731577 -0.4574593 -0.3443648
0.2354931 -0.4471877 -0.3442945
0.247775 -0.4417211 -0.3490725
0.2539287 -0.4418896 -0.3466635
0.2638394 -0.4445724 -0.3444351
0.2296903 -0.4313549 -0.3428892
0.2437522 -0.4345684 -0.3456998
0.2557672 -0.4335905 -0.3475969
0.2638662 -0.4363116 -0.3440135
0.2289605 -0.4249741 -0.344435
0.2378071 -0.420704 -0.3485104
0.2460597 -0.4241714 -0.3445756
0.2555442 -0.4262491 -0.3449062
0.2641272 -0.4253059 -0.3415777
0.2356284 -0.4166052 -0.346824
0.2442684 -0.4167352 -0.3452314
0.2541321 -0.4143541 -0.3440938
0.2670227 -0.4138559 -0.3404534
0.2224991 -0.4040049 -0.3496346
0.2365136 -0.4076107 -0.3459809
0.2445568 -0.4066997 -0.3449129
0.2518215 -0.4051751 -0.3427956
0.2659131 -0.4057252 -0.3448567
0.2768957 -0.4010627 -0.3406408
0.2236027 -0.3914567 -0.3482293
0.2304023 -0.3935438 -0.3412029
0.2446015 -0.3922869 -0.3460211
0.2536401 -0.3970428 -0.3452782
0.2665444 -0.3937619 -0.3443594
0.2755904 -0.3937739 -0.3410155
0.2380918 -0.3868305 -0.3490725
0.2455322 -0.3832969 -0.341484
0.2542644 -0.384649 -0.343612
0.2616946 -0.3836117 -0.3434514
0.2730509 -0.3850197 -0.3422147
0.2865077 -0.3828 -0.3400787
0.2464222 -0.3735713 -0.3442945
0.2551798 -0.3769635 -0.3452314
0.2646315 -0.3748887 -0.3438027
0.2758003 -0.3738181 -0.3436243
0.29199 -0.3779126 -0.3400787
0.2468494 -0.3693254 -0.3496346
0.2740995 -0.3648359 -0.3443712
0.2853863 -0.3636805 -0.3448566
0.2740477 -0.3580943 -0.3433108
0.2828409 -0.3561669 -0.3454188
0.2943396 -0.3527212 -0.341484
0.2854804 -0.3468938 -0.3429696
0.2945735 -0.3430237 -0.3441741
0.3060876 -0.3448343 -0.3444351
0.2719829 -0.3387277 -0.3479483
0.2879079 -0.3361488 -0.3455125
0.2959417 -0.3364923 -0.3453626
0.3059737 -0.333461 -0.3455874
0.3146226 -0.3356963 -0.3426785
0.3209327 -0.3364251 -0.3451377
0.295016 -0.3265027 -0.3451377
0.3156141 -0.3269231 -0.346262
0.321977 -0.3256255 -0.3484167
0.3321161 -0.3254974 -0.3439332
0.3432538 -0.3211272 -0.3431703
0.3055892 -0.3191328 -0.3462619
0.3250267 -0.3139306 -0.3451377
0.3336656 -0.3131354 -0.3438261
0.3422214 -0.3154731 -0.3424208
0.3178355 -0.3087438 -0.3409219
0.3259523 -0.3080319 -0.3445756
0.3336419 -0.3045692 -0.3460211
0.3432716 -0.3042377 -0.341484
0.3506586 -0.3052806 -0.3428892
0.3260032 -0.2958612 -0.3465029
0.3361949 -0.2963153 -0.3467438
0.3456034 -0.2959828 -0.3469177
0.3514418 -0.2968836 -0.3412029
0.3260947 -0.2817501 -0.3482293
0.3344607 -0.2869576 -0.3486509
0.343325 -0.287349 -0.341765
0.3297259 -0.2726884 -0.3426082
0.3363712 -0.277117 -0.3449503
0.3451406 -0.2768467 -0.3464727
0.3535778 -0.2743977 -0.3428892
0.3164649 -0.2618375 -0.3458404
0.3356558 -0.2648384 -0.3457802
0.3545746 -0.2641662 -0.3408282
0.3634034 -0.2672817 -0.341484
0.3144179 -0.2527649 -0.346543
0.3201851 -0.2525274 -0.3475267
0.3344429 -0.2546617 -0.3454188
0.3438336 -0.2551427 -0.3453786
0.355429 -0.2548034 -0.3400787
0.3041652 -0.2461819 -0.3424677
0.3153673 -0.2424859 -0.3490725
0.324377 -0.2454946 -0.3454188
0.3354219 -0.244213 -0.3454188
0.3412602 -0.2462892 -0.3462619
0.3590602 -0.2488733 -0.3423271
0.2996796 -0.2349027 -0.3456998
0.3065504 -0.2345351 -0.3471051
0.3149163 -0.2326488 -0.3472457
0.3224546 -0.2353654 -0.3445756
0.3328508 -0.2365664 -0.3453875
0.2901388 -0.2232094 -0.3485104
0.3068352 -0.2242292 -0.3452783
0.3154147 -0.2256888 -0.3445756
0.322772 -0.2249327 -0.3462619
0.332289 -0.2253672 -0.3461682
0.2760413 -0.2100683 -0.3496346
0.2966418 -0.2111916 -0.3488851
0.3053115 -0.215144 -0.3455874
0.3165094 -0.2150903 -0.3459106
0.3248309 -0.2168277 -0.3420461
0.3342115 -0.214179 -0.3427019
0.2849056 -0.2041458 -0.3473862
0.2948808 -0.2054474 -0.3448005
0.3035671 -0.2051152 -0.343339
0.3186187 -0.2054191 -0.3403597
0.2410466 -0.1909251 -0.3479483
0.2662157 -0.1925506 -0.3473862
0.2776992 -0.1956732 -0.3457802
0.2851956 -0.1953138 -0.3416847
0.2934141 -0.1959147 -0.3451377
0.3059689 -0.1968637 -0.341765
0.3112852 -0.195171 -0.3440135
0.2343895 -0.185588 -0.3409219
0.2554567 -0.1849609 -0.3468241
0.2637416 -0.1843373 -0.3449269
0.2731488 -0.1863771 -0.3442594
0.2843859 -0.1850382 -0.3437886
0.3013884 -0.1883865 -0.3423271
0.2375934 -0.173207 -0.3490725
0.2492702 -0.1777124 -0.3420461
0.2562834 -0.1745465 -0.3464962
0.2648202 -0.1754649 -0.3442384
0.2748902 -0.176836 -0.3420461
0.2879317 -0.1741438 -0.3416245
0.3028836 -0.1715461 -0.3400787
0.2105613 -0.1646359 -0.343264
0.2228907 -0.1629124 -0.3473862
0.2358372 -0.1659317 -0.3464493
0.2457102 -0.1603506 -0.3496346
0.2542661 -0.1635839 -0.3468709
0.2641154 -0.1627222 -0.3473862
0.274119 -0.1640232 -0.3451377
0.2842457 -0.1652951 -0.3446621
0.2933903 -0.1664463 -0.3423272
0.1335707 -0.1537094 -0.3482293
0.2148452 -0.1561277 -0.3454188
0.2257743 -0.1511232 -0.3454188
0.2344607 -0.1532935 -0.3458052
0.2437166 -0.1598757 -0.3459809
0.255518 -0.1537499 -0.3456998
0.264848 -0.1546076 -0.344191
0.2738239 -0.1550364 -0.3464226
0.2819153 -0.1551375 -0.3459809
0.2902812 -0.1599706 -0.3400787
0.1353506 -0.1452041 -0.3455593
0.142257 -0.1425604 -0.3431703
0.1657529 -0.1417544 -0.3440135
0.1751157 -0.1475296 -0.3449972
0.1905304 -0.1424655 -0.3471051
0.2052332 -0.1429634 -0.3485104
0.2192951 -0.1457378 -0.3461682
0.2244826 -0.1442683 -0.3467438
0.2352439 -0.1452492 -0.3443648
0.2458289 -0.1432244 -0.3453251
0.2550184 -0.1463868 -0.3432265
0.2676842 -0.1452816 -0.3448566
0.2760413 -0.1468458 -0.3421398
0.1369527 -0.1395237 -0.3482293
0.1426486 -0.1382193 -0.3464025
0.160769 -0.1359192 -0.3496346
0.1893912 -0.1312216 -0.3426082
0.1930936 -0.1323603 -0.3456998
0.2046992 -0.1329537 -0.3486041
0.2137149 -0.131441 -0.3454891
0.2253115 -0.135553 -0.3436762
0.2340967 -0.1357546 -0.3447005
0.2418299 -0.1362419 -0.3443882
0.2543396 -0.1338118 -0.3464868
0.2653756 -0.1358613 -0.3421023
0.1141331 -0.1278301 -0.3459809
0.1519402 -0.1209028 -0.3473862
0.1648558 -0.1263547 -0.3469365
0.1849769 -0.1205959 -0.3485104
0.1947401 -0.1230733 -0.3453485
0.2054824 -0.1255962 -0.3456998
