# .PCD v.7 - Point Cloud Data file format
VERSION .7
FIELDS x y z
SIZE 4 4 4
TYPE F F F
COUNT 1 1 1
WIDTH 149
HEIGHT 1
VIEWPOINT 0 0 0 1 0 0 0
POINTS 149
DATA ascii
0.1178593 -0.3629057 -0.4770471
0.1461018 -0.3934741 -0.4612142
0.1274119 -0.3724086 -0.4659922
0.1622642 -0.4125433 -0.4541878
0.1584431 -0.406725 -0.4519393
0.1613386 -0.4074094 -0.4522204
0.1463154 -0.3906272 -0.4586847
0.139053 -0.3858347 -0.4508151
0.141545 -0.3888946 -0.4575604
0.1260472 -0.3661319 -0.4554994
0.159701 -0.4105508 -0.445475
0.1664649 -0.4166246 -0.4432265
0.1541118 -0.4026288 -0.4464587
0.1627626 -0.4056535 -0.445756
0.1483802 -0.3962887 -0.443695
0.1389818 -0.3858347 -0.4491287
0.1345437 -0.3777704 -0.4457561
0.2196155 -0.4758537 -0.4311411
0.2133143 -0.4681446 -0.4300169
0.1679957 -0.4131373 -0.435638
0.155429 -0.401964 -0.4395728
0.1650053 -0.404633 -0.4312816
0.1485226 -0.3944541 -0.4386359
0.154717 -0.3975243 -0.438561
0.1375579 -0.3818422 -0.4382612
0.1461968 -0.3855941 -0.4355443
0.1326451 -0.3674282 -0.4390107
0.3400498 -0.6081892 -0.4204609
0.3272695 -0.5965188 -0.4215851
0.3158419 -0.5826666 -0.4238336
0.3002492 -0.563262 -0.4266442
0.2940548 -0.5587554 -0.427909
0.2636525 -0.5219901 -0.4204609
0.252403 -0.5121685 -0.4235526
0.2430046 -0.502539 -0.4235526
0.2392311 -0.4938569 -0.421023
0.2273407 -0.4837286 -0.4257073
0.2301175 -0.4838939 -0.4204609
0.2237451 -0.4779883 -0.4250984
0.2069954 -0.4618113 -0.4246768
0.2131008 -0.465322 -0.4248642
0.2042008 -0.4560944 -0.4255199
0.1923816 -0.4467963 -0.421023
0.1795657 -0.4303335 -0.4213041
0.1845212 -0.4354203 -0.4220348
0.1686009 -0.4208938 -0.4286116
0.1754005 -0.4227442 -0.4241849
0.1813813 -0.424547 -0.423131
0.1678889 -0.4132321 -0.4252389
0.1748258 -0.4138112 -0.4251185
0.1673702 -0.4046487 -0.4257609
0.1532218 -0.3937568 -0.421023
0.3249792 -0.5926451 -0.4159641
0.3194731 -0.5837333 -0.4168072
0.3078854 -0.5727755 -0.4146993
0.3133944 -0.5748265 -0.4125211
0.2999288 -0.5660625 -0.4176503
0.3055358 -0.564536 -0.4131535
0.2881452 -0.5504056 -0.415683
0.286589 -0.5458728 -0.4149202
0.2706301 -0.5318583 -0.4139966
0.2656462 -0.52326 -0.415277
0.2595586 -0.5162498 -0.4137156
0.2638662 -0.5191916 -0.4139966
0.2478462 -0.5051483 -0.4152614
0.2517835 -0.5053242 -0.41276
0.2377715 -0.4940944 -0.4151208
0.2433962 -0.4970042 -0.4164324
0.2337091 -0.4861885 -0.4153394
0.2241367 -0.472461 -0.4163856
0.2316127 -0.4775616 -0.4161515
0.2143823 -0.4648228 -0.4193367
0.2060164 -0.4550094 -0.4146993
0.213884 -0.456545 -0.4129661
0.1941854 -0.4447083 -0.4183999
0.2037202 -0.4467852 -0.4117482
0.1871627 -0.4348605 -0.4166386
0.1930224 -0.4385426 -0.4103429
0.1754717 -0.4246297 -0.4168072
0.1844683 -0.4259152 -0.4145186
0.1686721 -0.4181906 -0.4120292
0.1750659 -0.4158556 -0.4163013
0.1533642 -0.3919237 -0.417463
0.1538626 -0.3854557 -0.4145587
0.3275662 -0.5919487 -0.4084692
0.3174706 -0.577341 -0.4059865
0.296001 -0.5544077 -0.4048154
0.2843005 -0.5425794 -0.4049325
0.2756141 -0.5372658 -0.4068297
0.2729678 -0.5286949 -0.4050965
0.257807 -0.5149119 -0.4062395
0.2639107 -0.5138898 -0.4055649
0.2454966 -0.5042459 -0.405846
0.2535185 -0.5043492 -0.404347
0.2376219 -0.4919782 -0.407982
0.2444998 -0.4939211 -0.4050965
0.2350036 -0.4838714 -0.4039488
0.244037 -0.4887817 -0.4047217
0.2197223 -0.4718694 -0.4059865
0.2264436 -0.47546 -0.4043845
0.2154978 -0.463954 -0.406127
0.1986472 -0.4517767 -0.4072513
0.2041296 -0.4518155 -0.406633
0.2141759 -0.4535376 -0.4037662
0.1881097 -0.4422885 -0.4047217
0.1966536 -0.4445787 -0.4049091
0.2050694 -0.4461178 -0.4061833
0.1850908 -0.4329816 -0.4060708
0.1951901 -0.4364544 -0.4071576
0.1863602 -0.4259625 -0.4056854
0.3164115 -0.5744594 -0.3979764
0.2926308 -0.5523517 -0.3934795
0.2853685 -0.5418673 -0.3996627
0.2770203 -0.5334226 -0.395728
0.2852261 -0.5354862 -0.3958082
0.2731079 -0.5235366 -0.3930298
0.2651952 -0.5140824 -0.3925426
0.2575294 -0.5038831 -0.3955406
0.2387327 -0.4967987 -0.3915121
0.2462086 -0.495375 -0.3952783
0.2520945 -0.4950332 -0.3932921
0.238277 -0.4860388 -0.3939292
0.2439872 -0.4841029 -0.3906689
0.2264151 -0.4754969 -0.3991006
0.2051976 -0.4529162 -0.3996627
0.2184407 -0.4551701 -0.3922147
0.1954195 -0.4447725 -0.3971332
0.2061232 -0.4426573 -0.3957279
0.1971046 -0.4344613 -0.3958216
0.1882317 -0.4225475 -0.3961295
0.3120683 -0.5663475 -0.3887015
0.2922748 -0.5551986 -0.3870152
0.2660021 -0.5286797 -0.3878583
0.27564 -0.5244133 -0.3863253
0.2674024 -0.512929 -0.387671
0.2575769 -0.5021118 -0.3854226
0.2465646 -0.4904426 -0.3864531
0.2328943 -0.4817117 -0.3889826
0.1934852 -0.430287 -0.386172
0.2580278 -0.4966251 -0.3781151
0.239765 -0.4830414 -0.3715571
0.2170167 -0.470565 -0.3797077
0.19377 -0.4261712 -0.3780214
0.2465646 -0.487832 -0.3608769
0.2166607 -0.4734096 -0.3693086
0.2084016 -0.4386356 -0.3631254
0.2465646 -0.487832 -0.3597527
0.208544 -0.435932 -0.3538505
0.2128872 -0.4347948 -0.3485104
