# .PCD v.7 - Point Cloud Data file format
VERSION .7
FIELDS x y z
SIZE 4 4 4
TYPE F F F
COUNT 1 1 1
WIDTH 86
HEIGHT 1
VIEWPOINT 0 0 0 1 0 0 0
POINTS 86
DATA ascii
-0.3768601 0.3439907 -0.282181
-0.3776433 0.34532 -0.2692524
-0.3771449 0.34532 -0.2422709
-0.3777145 0.3485934 -0.2366498
-0.3772873 0.3470274 -0.2181001
-0.3771449 0.3490659 -0.2085441
-0.3765753 0.3465525 -0.158516
-0.3782841 0.3520077 -0.1506464
-0.3777857 0.3498254 -0.1450253
-0.3782841 0.3519612 -0.1495222
-0.3760057 0.3458413 -0.1231029
-0.3774534 0.3524192 -0.1150459
-0.3721609 0.3451767 -0.1079258
-0.3715913 0.3443702 -0.08825183
-0.3789961 0.3529086 -0.07363687
-0.3765041 0.352529 -0.06127037
-0.3653969 0.3470274 -0.0500281
-0.3777501 0.3528623 -0.05255762
-0.3755785 0.3462214 -0.04777965
-0.3646137 0.3485934 -0.02754356
-0.3686009 0.3507752 -0.00786959
-0.3727305 0.344134 0.01911186
-0.3663225 0.347692 0.03822372
-0.3750801 0.3529575 0.09724564
-0.3738697 0.3440856 0.1191681
-0.3819153 0.3535737 0.1118606
-0.3664649 0.3472171 0.1315346
-0.3817017 0.3547132 0.1871838
-0.3797793 0.3452251 0.1944913
-0.3671057 0.3479747 0.1950534
-0.3800641 0.3494459 0.2051715
-0.3681025 0.3466474 0.2001124
-0.3796369 0.3481645 0.2186622
-0.3808473 0.3547132 0.2169758
-0.3801353 0.3486394 0.2220349
-0.3741189 0.3457939 0.2324339
-0.3802777 0.3503003 0.2315908
-0.3797081 0.3479041 0.2445194
-0.3809185 0.3550444 0.2551996
-0.3800997 0.3540595 0.2887858
-0.3767889 0.3436591 0.3108488
-0.3694553 0.3465525 0.3209668
-0.3718049 0.3508705 0.3333333
-0.3709505 0.3508705 0.3681844
-0.3705945 0.3496845 0.3827993
-0.3770737 0.3439442 0.4182125
-0.3705945 0.3453665 0.5008432
-0.3786401 0.3510114 0.5598651
-0.3789961 0.3484032 0.5626757
-0.3749377 0.3536444 0.5680157
-0.3819153 0.3446065 0.5750422
-0.3766821 0.3463273 0.5723721
-0.3777857 0.3533374 0.5756043
-0.3644713 0.3506319 0.5761664
-0.3750801 0.3456976 0.5896571
-0.3831969 0.3520566 0.584036
-0.3765753 0.3532138 0.584926
-0.3825561 0.3494943 0.5992131
-0.3784621 0.3486638 0.5913435
-0.366726 0.3488303 0.5932172
-0.3831969 0.3503956 0.5919056
-0.374952 0.3519697 0.594941
-0.3687433 0.3524826 0.5966835
-0.3819627 0.3459997 0.6031479
-0.3739053 0.3460429 0.6079258
-0.3640441 0.3497075 0.6006184
-0.3728255 0.354396 0.6025857
-0.3687908 0.3528933 0.6033353
-0.3823425 0.3472171 0.6115795
-0.3761481 0.3477384 0.6152332
-0.3740121 0.3519135 0.6160765
-0.3687433 0.3525774 0.613828
-0.3818441 0.3450814 0.6205733
-0.3734425 0.3465999 0.6281619
-0.3680313 0.3498743 0.6284429
-0.3834105 0.3539997 0.6290051
-0.3809897 0.3435642 0.6374367
-0.3673905 0.3492096 0.638561
-0.3767177 0.3569415 0.6312535
-0.3682449 0.3535272 0.6363125
-0.3802777 0.3439675 0.6430579
-0.3740833 0.346506 0.6520517
-0.3675329 0.3496845 0.6689151
-0.3750089 0.3502761 0.6686341
-0.3724101 0.3475255 0.6888701
-0.3733001 0.3482599 0.6998314
