# .PCD v.7 - Point Cloud Data file format
VERSION .7
FIELDS x y z
SIZE 4 4 4
TYPE F F F
COUNT 1 1 1
WIDTH 1240
HEIGHT 1
VIEWPOINT 0 0 0 1 0 0 0
POINTS 1240
DATA ascii
578194.4 4179270 295.27
578197.5 4179267 295.3
578192.6 4179270 295.32
578194.3 4179269 295.36
578193.2 4179270 295.35
578193.5 4179270 295.36
578191.8 4179271 295.35
578193.3 4179271 295.37
578194.2 4179270 295.38
578192.7 4179271 295.39
578194.2 4179269 295.4
578193.5 4179270 295.42
578191.6 4179272 295.44
578191.8 4179272 295.45
578191.8 4179272 295.45
578194.1 4179269 295.5
578194.2 4179270 295.5
578195.1 4179268 295.52
578195.2 4179269 295.51
578192.4 4179270 295.51
578193.2 4179270 295.51
578195.8 4179268 295.53
578195.2 4179270 295.55
578194.4 4179270 295.55
578195 4179269 295.56
578195.8 4179268 295.59
578196.7 4179268 295.59
578193.4 4179269 295.59
578191.6 4179272 295.63
578195.7 4179267 295.65
578194.9 4179268 295.65
578194 4179268 295.66
578197.6 4179266 295.67
578195 4179270 295.68
578196.5 4179264 295.69
578196.6 4179267 295.69
578195.1 4179268 295.69
578191.6 4179270 295.69
578189 4179265 295.7
578195 4179267 295.71
578196.2 4179264 295.72
578190.1 4179286 295.72
578196.2 4179290 295.72
578181.8 4179264 295.73
578194.9 4179268 295.73
578196.7 4179266 295.74
578197.4 4179265 295.75
578190.9 4179265 295.77
578194.8 4179264 295.77
578197.2 4179265 295.76
578193.2 4179268 295.76
578190.8 4179272 295.76
578191.1 4179265 295.78
578196.4 4179266 295.78
578179.8 4179267 295.78
578196.7 4179267 295.78
578189.3 4179269 295.78
578196 4179269 295.78
578192.4 4179269 295.78
578189.8 4179272 295.78
578197 4179290 295.78
578189.1 4179264 295.8
578178.8 4179264 295.8
578196.4 4179265 295.79
578196.6 4179266 295.8
578193.8 4179266 295.79
578194 4179266 295.8
578186.1 4179268 295.8
578191.4 4179270 295.8
578178.6 4179272 295.8
578190.1 4179287 295.79
578196.6 4179288 295.79
578197.4 4179264 295.81
578179.8 4179265 295.81
578191.2 4179266 295.81
578194.7 4179266 295.81
578193.2 4179268 295.81
578195.9 4179268 295.81
578196.6 4179268 295.81
578193 4179268 295.81
578192.4 4179268 295.81
578192.5 4179270 295.81
578181.1 4179270 295.81
578188.9 4179285 295.81
578191.8 4179286 295.81
578190.3 4179289 295.81
578191.1 4179289 295.81
578192.4 4179290 295.81
578191.8 4179264 295.83
578189.1 4179264 295.83
578184.9 4179265 295.82
578194.6 4179266 295.83
578185.1 4179266 295.82
578195.8 4179266 295.83
578181.8 4179267 295.82
578193.9 4179267 295.82
578175.5 4179268 295.83
578191.6 4179284 295.83
578185.7 4179286 295.82
578185.9 4179288 295.82
578192.4 4179290 295.82
578184.8 4179264 295.84
578193.8 4179264 295.84
578195.6 4179265 295.84
578178 4179265 295.84
578195.7 4179265 295.84
578197.5 4179265 295.84
578197.4 4179267 295.84
578189.8 4179271 295.84
578184.2 4179272 295.84
578191.5 4179271 295.84
578185.4 4179285 295.84
578189.4 4179290 295.84
578192.2 4179290 295.84
578177.9 4179264 295.85
578188.9 4179264 295.86
578191.8 4179264 295.86
578193.9 4179265 295.85
578195.4 4179264 295.85
578196.5 4179266 295.86
578188.4 4179267 295.85
578190.4 4179268 295.86
578195.9 4179268 295.85
578185.2 4179268 295.85
578195.8 4179269 295.86
578188.6 4179270 295.86
578183.2 4179270 295.85
578189.6 4179272 295.85
578177.8 4179273 295.85
578191.1 4179286 295.85
578186.8 4179289 295.86
578179.8 4179266 295.87
578191.9 4179266 295.87
578176.2 4179266 295.87
578189.4 4179267 295.87
578192 4179267 295.87
578196.8 4179267 295.87
578191.5 4179270 295.87
578190.6 4179270 295.87
578185.2 4179270 295.87
578185.2 4179271 295.87
578179.6 4179272 295.87
578188.9 4179273 295.87
578176.1 4179265 295.88
578188.1 4179264 295.88
578191.1 4179264 295.88
578179.9 4179265 295.88
578181.6 4179266 295.88
578185 4179266 295.88
578197.3 4179266 295.88
578180.9 4179266 295.88
578187.2 4179266 295.88
578189.4 4179268 295.88
578178.4 4179270 295.88
578181.1 4179271 295.88
578191.1 4179287 295.88
578190.2 4179288 295.88
578187.1 4179290 295.88
578186.1 4179290 295.88
578192.9 4179264 295.89
578181.8 4179266 295.89
578192.2 4179267 295.89
578195.8 4179267 295.89
578193 4179267 295.89
578181 4179268 295.89
578189.6 4179270 295.89
578180.3 4179270 295.89
578186.3 4179271 295.89
578189.6 4179272 295.89
578190.8 4179272 295.89
578179.4 4179273 295.89
578179.6 4179273 295.89
578183.4 4179284 295.89
578184.3 4179285 295.89
578191.2 4179288 295.89
578187 4179288 295.89
578189.2 4179289 295.89
578193.2 4179291 295.89
578194.4 4179264 295.9
578193.6 4179264 295.9
578193.7 4179265 295.9
578193.1 4179266 295.9
578188.3 4179267 295.9
578185.1 4179268 295.9
578182.8 4179268 295.9
578191.3 4179270 295.9
578179.4 4179270 295.9
578179.5 4179274 295.9
578185.3 4179284 295.9
578196.8 4179289 295.9
578191.1 4179290 295.9
578177.7 4179264 295.91
578192.8 4179265 295.91
578196.3 4179264 295.91
578195.5 4179265 295.91
578192.2 4179266 295.91
578190.1 4179266 295.91
578191.9 4179266 295.91
578187 4179266 295.91
578185.1 4179267 295.91
578194.1 4179267 295.91
578191.4 4179268 295.91
578176.5 4179269 295.91
578179.2 4179269 295.91
578189.4 4179270 295.91
578183.1 4179270 295.91
578176.7 4179274 295.91
578176.9 4179274 295.91
578191.7 4179285 295.91
578188.9 4179288 295.91
578196.8 4179288 295.91
578191 4179288 295.91
578192.2 4179288 295.91
578183.9 4179290 295.91
578176.1 4179264 295.92
578175 4179265 295.92
578175.9 4179264 295.92
578180.6 4179265 295.92
578179.8 4179266 295.92
578180.8 4179266 295.92
578176.2 4179268 295.92
578179.9 4179268 295.92
578176.5 4179269 295.92
578175.4 4179269 295.92
578181.9 4179269 295.92
578186.2 4179269 295.92
578191.4 4179271 295.92
578188.6 4179272 295.92
578190.6 4179272 295.92
578186.8 4179286 295.92
578185.5 4179286 295.92
578190.4 4179290 295.92
578177 4179264 295.93
578194.6 4179265 295.93
578175.2 4179266 295.93
578181.7 4179266 295.93
578175.4 4179267 295.93
578191.4 4179268 295.93
578191.2 4179269 295.93
578191.5 4179269 295.93
578181.2 4179270 295.93
578177.3 4179270 295.93
578176.6 4179270 295.93
578179.1 4179270 295.93
578176.8 4179274 295.93
578179.8 4179274 295.93
578180.5 4179275 295.93
578185.7 4179286 295.93
578195.7 4179288 295.93
578188 4179290 295.93
578179.6 4179265 295.94
578175.1 4179265 295.94
578192.1 4179266 295.94
578174.4 4179266 295.94
578177 4179266 295.94
578174.4 4179266 295.94
578175.4 4179267 295.94
578193.2 4179267 295.94
578177.1 4179268 295.94
578190.2 4179268 295.94
578188.4 4179268 295.94
578183.2 4179269 295.94
578192.2 4179269 295.94
578183.2 4179270 295.94
578187.6 4179270 295.94
578175.8 4179271 295.94
578187.4 4179271 295.94
578187.7 4179272 295.94
578181.2 4179272 295.94
578179.3 4179272 295.94
578175.9 4179272 295.94
578181.2 4179272 295.94
578189.9 4179273 295.94
578177.2 4179277 295.94
578178.4 4179280 295.94
578180.6 4179284 295.94
578185.8 4179286 295.94
578190.9 4179287 295.94
578190.4 4179290 295.94
578176 4179264 295.95
578189.8 4179264 295.95
578192 4179264 295.95
578196.5 4179264 295.95
578196.6 4179265 295.95
578183.9 4179266 295.95
578193.9 4179266 295.95
578194.8 4179267 295.95
578192.2 4179267 295.95
578188.4 4179268 295.95
578177.2 4179269 295.95
578180 4179269 295.95
578179.1 4179269 295.95
578193.1 4179269 295.95
578179.3 4179270 295.95
578184.2 4179270 295.95
578178.4 4179270 295.95
578174.7 4179272 295.95
578182.5 4179273 295.95
578178.6 4179274 295.95
578177 4179274 295.95
578180 4179280 295.95
578186.8 4179286 295.95
578187.7 4179286 295.95
578176.9 4179264 295.96
578179.7 4179264 295.96
578177.8 4179264 295.96
578178.9 4179265 295.96
578190.1 4179265 295.96
578175.2 4179265 295.96
578193.9 4179268 295.96
578178.2 4179268 295.96
578176.4 4179270 295.96
578183.3 4179271 295.96
578177.8 4179272 295.96
578175.9 4179273 295.96
578176.8 4179275 295.96
578179.6 4179275 295.96
578175.9 4179276 295.96
578177.1 4179276 295.96
578189.6 4179284 295.96
578186.4 4179284 295.96
578180.8 4179286 295.96
578184.7 4179286 295.96
578182.6 4179288 295.96
578183.9 4179289 295.96
578185 4179290 295.96
578194.7 4179264 295.97
578190.1 4179264 295.97
578176.8 4179264 295.97
578177.9 4179264 295.97
578177.1 4179265 295.97
578192.8 4179266 295.97
578176.2 4179266 295.97
578184.8 4179266 295.97
578186.3 4179268 295.97
578193.1 4179268 295.97
578187.4 4179269 295.97
578190.5 4179269 295.97
578187.5 4179269 295.97
578179.1 4179270 295.97
578187.6 4179270 295.97
578177.6 4179271 295.97
578174.6 4179272 295.97
578176.5 4179271 295.97
578176.8 4179273 295.97
578179.8 4179276 295.97
578181.5 4179284 295.97
578186.6 4179284 295.97
578190.8 4179286 295.97
578184.4 4179286 295.97
578181.9 4179288 295.97
578186.8 4179288 295.97
578187.9 4179290 295.97
578193.4 4179291 295.97
578193.6 4179264 295.98
578177 4179264 295.98
578185.9 4179264 295.98
578188 4179266 295.98
578197.4 4179266 295.98
578193.1 4179266 295.98
578176.3 4179267 295.98
578183.8 4179267 295.98
578194.1 4179268 295.98
578186.4 4179270 295.98
578187.4 4179271 295.98
578176.8 4179276 295.98
578176 4179276 295.98
578179.9 4179276 295.98
578177.2 4179280 295.98
578177.4 4179280 295.98
578179.9 4179279 295.98
578179.1 4179280 295.98
578183.2 4179284 295.98
578182.6 4179285 295.98
578187.5 4179285 295.98
578189.7 4179285 295.98
578190.2 4179288 295.98
578190 4179288 295.98
578176.8 4179264 295.99
578182.8 4179265 295.99
578186.9 4179265 295.99
578191 4179266 295.99
578188.1 4179266 295.99
578189.3 4179266 295.99
578176.1 4179267 295.99
578177.2 4179268 295.99
578181.8 4179268 295.99
578183.1 4179268 295.99
578176.6 4179270 295.99
578188.4 4179270 295.99
578188.6 4179270 295.99
578190.4 4179270 295.99
578179.2 4179271 295.99
578182.2 4179271 295.99
578177.7 4179272 295.99
578180.6 4179274 295.99
578178.9 4179278 295.99
578179 4179279 295.99
578180.4 4179284 295.99
578187.9 4179286 295.99
578182.7 4179286 295.99
578186.6 4179286 295.99
578182.8 4179287 295.99
578182.6 4179287 295.99
578191.3 4179289 295.99
578196.9 4179288 295.99
578196.9 4179289 295.99
578188.3 4179290 295.99
578193.1 4179290 295.99
578186.1 4179290 295.99
578197.1 4179264 296
578177.8 4179265 296
578189.2 4179265 296
578187.1 4179265 296
578180.7 4179266 296
578189 4179266 296
578189.2 4179266 296
578191.2 4179267 296
578192.1 4179268 296
578174.5 4179268 296
578176.2 4179268 296
578188.2 4179268 296
578174.4 4179268 296
578174.6 4179269 296
578184 4179269 296
578187.3 4179270 296
578182.2 4179270 296
578191.6 4179271 296
578177.6 4179271 296
578179.8 4179275 296
578177.9 4179276 296
578177.1 4179278 296
578180.5 4179284 296
578186.5 4179286 296
578188.9 4179286 296
578188.8 4179286 296
578181 4179288 296
578188.2 4179289 296
578191.3 4179290 296
578185.1 4179290 296
578191.9 4179264 296.01
578175.8 4179264 296.02
578183.6 4179264 296.01
578192.7 4179264 296.02
578197.2 4179264 296.02
578176.9 4179265 296.02
578185.8 4179265 296.01
578188.1 4179265 296.02
578191.8 4179265 296.02
578192.1 4179265 296.01
578184.8 4179265 296.02
578193 4179265 296.02
578176.9 4179266 296.02
578187 4179266 296.02
578188.2 4179266 296.01
578187.3 4179268 296.01
578177.3 4179268 296.01
578174.6 4179268 296.01
578189.2 4179268 296.01
578178.1 4179268 296.01
578186.4 4179268 296.02
578174.4 4179269 296.01
578185.1 4179269 296.02
578188.3 4179269 296.02
578188.5 4179269 296.01
578185.4 4179271 296.01
578179.2 4179272 296.02
578182.3 4179271 296.01
578185.2 4179271 296.01
578185.5 4179272 296.01
578188.5 4179271 296.01
578190.7 4179272 296.02
578179.6 4179273 296.02
578176.6 4179273 296.01
578178.7 4179273 296.01
578190.6 4179273 296.02
578176.9 4179273 296.01
578177.9 4179274 296.01
578179.7 4179276 296.01
578179.9 4179276 296.01
578179.2 4179278 296.01
578176.4 4179279 296.01
578177.1 4179279 296.01
578176.4 4179279 296.01
578178.5 4179281 296.02
578177.6 4179281 296.02
578177.4 4179282 296.01
578177.6 4179282 296.01
578189.7 4179282 296.01
578181.4 4179283 296.01
578179.6 4179284 296.02
578186.4 4179284 296.01
578187.5 4179284 296.01
578189.6 4179284 296.02
578189.9 4179284 296.02
578186.6 4179284 296.02
578186.4 4179285 296.02
578189.9 4179286 296.01
578185.4 4179286 296.01
578191.1 4179286 296.01
578190.8 4179286 296.02
578189.8 4179287 296.01
578192.1 4179287 296.02
578181.8 4179288 296.02
578186.7 4179288 296.02
578190.9 4179287 296.01
578187.8 4179288 296.02
578195.9 4179288 296.02
578184.9 4179289 296.01
578188.9 4179288 296.02
578184.7 4179290 296.01
578188.2 4179290 296.02
578189.1 4179290 296.01
578190.3 4179290 296.02
578183.1 4179290 296.01
578190.8 4179264 296.03
578195.4 4179264 296.03
578187 4179264 296.03
578192.9 4179264 296.03
578179.6 4179265 296.03
578187.9 4179265 296.03
578175.1 4179266 296.03
578178 4179267 296.03
578194.8 4179267 296.03
578186 4179268 296.03
578187.4 4179268 296.03
578180.9 4179268 296.03
578176.2 4179269 296.03
578188.2 4179269 296.03
578180 4179270 296.03
578189.3 4179270 296.03
578174.6 4179270 296.03
578175.7 4179270 296.03
578175.6 4179271 296.03
578189.5 4179271 296.03
578190.5 4179272 296.03
578176.8 4179272 296.03
578181.3 4179273 296.03
578177.8 4179274 296.03
578178.7 4179274 296.03
578177.6 4179274 296.03
578175.8 4179274 296.03
578178.9 4179276 296.03
578177.3 4179281 296.03
578179.2 4179281 296.03
578179.4 4179282 296.03
578177.4 4179282 296.03
578179.5 4179282 296.03
578190.8 4179282 296.03
578187.4 4179284 296.03
578187.8 4179285 296.03
578188.7 4179286 296.03
578180.7 4179288 296.03
578184.6 4179288 296.03
578185.9 4179288 296.03
578184.7 4179289 296.03
578193.3 4179290 296.03
578195.5 4179264 296.04
578183.6 4179266 296.05
578185.9 4179266 296.05
578186.1 4179266 296.05
578185.9 4179267 296.04
578192.9 4179267 296.05
578177.1 4179268 296.04
578183.9 4179268 296.05
578196.8 4179268 296.04
578191.2 4179268 296.05
578192.2 4179268 296.04
578177.2 4179269 296.04
578174.5 4179270 296.04
578181.2 4179270 296.05
578188.4 4179270 296.05
578189.7 4179270 296.05
578174.6 4179271 296.05
578180.2 4179271 296.05
578184.4 4179271 296.04
578182.1 4179272 296.04
578179.3 4179272 296.04
578179.7 4179274 296.04
578176.1 4179275 296.05
578175.4 4179278 296.05
578176.4 4179278 296.04
578178.3 4179279 296.04
578180.1 4179281 296.05
578189.5 4179282 296.05
578176.8 4179283 296.04
578178.4 4179283 296.04
578187.7 4179284 296.04
578188.8 4179284 296.05
578188.6 4179284 296.04
578177.8 4179284 296.04
578183.5 4179284 296.05
578187.8 4179284 296.04
578178.8 4179286 296.05
578180.6 4179286 296.04
578178.8 4179287 296.05
578183.5 4179287 296.05
578184.8 4179288 296.05
578183.6 4179288 296.04
578190.1 4179289 296.04
578191.4 4179290 296.04
578187.2 4179290 296.05
578190.2 4179291 296.05
578191.5 4179291 296.04
578186.8 4179264 296.06
578194.5 4179264 296.06
578187.9 4179264 296.06
578185.9 4179266 296.06
578195.5 4179266 296.06
578184.8 4179266 296.06
578195.6 4179266 296.06
578188.1 4179267 296.06
578197.6 4179267 296.06
578191.1 4179267 296.06
578186.2 4179268 296.06
578189.4 4179268 296.06
578183.9 4179268 296.06
578190.5 4179269 296.06
578174.6 4179270 296.06
578176.3 4179270 296.06
578190.4 4179270 296.06
578186.5 4179270 296.06
578176.7 4179271 296.06
578178.3 4179271 296.06
578176.7 4179272 296.06
578180.7 4179274 296.06
578177 4179278 296.06
578177.2 4179278 296.06
578179 4179279 296.06
578179.4 4179281 296.06
578180.1 4179282 296.06
578180.4 4179282 296.06
578180.2 4179283 296.06
578191.9 4179284 296.06
578180.7 4179285 296.06
578179.9 4179286 296.06
578187.9 4179286 296.06
578183.7 4179287 296.06
578186.6 4179287 296.06
578180 4179288 296.06
578187.8 4179288 296.06
578196.7 4179289 296.06
578189 4179289 296.06
578196.1 4179290 296.06
578186.9 4179290 296.06
578178.6 4179264 296.08
578179.8 4179264 296.07
578187.1 4179265 296.08
578188.9 4179265 296.07
578192.9 4179265 296.08
578188.2 4179266 296.07
578189.2 4179266 296.07
578190 4179266 296.08
578190.9 4179266 296.08
578187.2 4179266 296.08
578179.9 4179266 296.07
578189.1 4179266 296.08
578177.2 4179267 296.08
578180 4179267 296.08
578190.3 4179267 296.08
578178.9 4179268 296.07
578182 4179268 296.08
578185.2 4179268 296.07
578192.1 4179268 296.08
578192.3 4179268 296.07
578179 4179268 296.08
578180.1 4179269 296.08
578178.1 4179269 296.07
578192.4 4179270 296.08
578177.4 4179270 296.08
578180.2 4179270 296.08
578185.3 4179270 296.08
578181 4179270 296.07
578190.6 4179270 296.07
578176.4 4179271 296.07
578189.4 4179271 296.08
578180.4 4179271 296.08
578178.3 4179272 296.07
578179.5 4179272 296.07
578184.4 4179272 296.07
578177.5 4179272 296.07
578183.2 4179272 296.07
578178.4 4179273 296.08
578180.2 4179272 296.08
578178.5 4179273 296.08
578180.7 4179275 296.08
578178.6 4179275 296.08
578175.2 4179276 296.07
578178.8 4179276 296.07
578179 4179277 296.07
578178 4179278 296.07
578178.1 4179280 296.07
578179.9 4179280 296.07
578178.4 4179280 296.08
578176.4 4179282 296.07
578178.3 4179282 296.08
578178.4 4179282 296.07
578181.1 4179282 296.08
578189.5 4179283 296.07
578179.4 4179284 296.07
578177.8 4179284 296.08
578181.3 4179284 296.08
578184.3 4179285 296.08
578183.3 4179286 296.08
578191 4179286 296.07
578192 4179286 296.08
578179.6 4179286 296.08
578179.8 4179286 296.07
578179.7 4179287 296.07
578180.9 4179288 296.08
578185.8 4179287 296.07
578182.8 4179288 296.07
578186.9 4179288 296.08
578190.9 4179288 296.08
578187.1 4179289 296.07
578187.9 4179289 296.08
578185.8 4179290 296.07
578196.8 4179290 296.07
578184.8 4179290 296.07
578191.2 4179290 296.07
578185.9 4179290 296.07
578179.6 4179264 296.09
578181.1 4179268 296.09
578184.2 4179270 296.09
578186.2 4179270 296.09
578185.4 4179270 296.09
578180.2 4179272 296.09
578180.4 4179272 296.09
578174.8 4179274 296.09
578179.6 4179276 296.09
578176 4179277 296.09
578177.9 4179278 296.09
578180.3 4179281 296.09
578177.8 4179283 296.09
578183.5 4179285 296.09
578179.6 4179286 296.09
578181.8 4179286 296.09
578186.9 4179287 296.09
578178.1 4179287 296.09
578189.9 4179287 296.09
578179.1 4179288 296.09
578182.6 4179288 296.09
578182.8 4179290 296.09
578189.1 4179290 296.09
578194.6 4179264 296.1
578192.6 4179264 296.1
578191 4179264 296.11
578178.6 4179264 296.1
578190.8 4179264 296.1
578183.8 4179265 296.1
578175.9 4179265 296.11
578186.1 4179265 296.1
578178.7 4179266 296.1
578193.8 4179266 296.11
578190.2 4179266 296.1
578197.6 4179266 296.11
578177 4179267 296.1
578187.1 4179267 296.1
578190.4 4179268 296.1
578179.9 4179268 296.1
578187.1 4179268 296.1
578175.3 4179268 296.1
578181.1 4179269 296.1
578177.4 4179269 296.11
578180.2 4179269 296.11
578185.1 4179270 296.1
578188.6 4179270 296.11
578182 4179270 296.11
578190.7 4179271 296.11
578180.4 4179272 296.1
578177.4 4179272 296.11
578176.6 4179272 296.1
578181.3 4179274 296.11
578176 4179274 296.1
578178.1 4179279 296.1
578176.7 4179282 296.11
578180.2 4179282 296.1
578188.5 4179283 296.11
578190.9 4179284 296.11
578187.6 4179285 296.1
578181.4 4179286 296.11
578189.8 4179286 296.1
578178.9 4179286 296.11
578183.4 4179286 296.11
578189.8 4179286 296.1
578190.1 4179286 296.1
578191.8 4179287 296.1
578188.9 4179288 296.1
578189.1 4179288 296.1
578179.8 4179288 296.11
578184.6 4179288 296.1
578181.7 4179288 296.11
578188.1 4179288 296.1
578183.8 4179290 296.1
578190.9 4179264 296.12
578182.5 4179264 296.12
578183.9 4179266 296.12
578195.8 4179266 296.12
578181.9 4179266 296.12
578190.1 4179267 296.12
578184 4179267 296.12
578175.5 4179268 296.12
578180.9 4179269 296.12
578189.6 4179270 296.12
578184 4179270 296.12
578174.8 4179270 296.12
578178.2 4179270 296.12
578182.1 4179271 296.12
578176.5 4179272 296.12
578183.4 4179272 296.12
578178.4 4179272 296.12
578178.6 4179272 296.12
578182.4 4179272 296.12
578174.8 4179273 296.12
578174.9 4179274 296.12
578178.6 4179274 296.12
578179.7 4179277 296.12
578176.4 4179281 296.12
578176.6 4179281 296.12
578180.4 4179282 296.12
578182.2 4179283 296.12
578190.9 4179285 296.12
578180.8 4179286 296.12
578189.1 4179287 296.12
578184.8 4179288 296.12
578179.8 4179288 296.12
578182.8 4179288 296.12
578179.2 4179289 296.12
578181 4179289 296.12
578182.8 4179290 296.12
578186 4179290 296.12
578194.2 4179290 296.12
578184 4179290 296.12
578175.1 4179264 296.13
578185.8 4179264 296.13
578175.1 4179266 296.13
578180.1 4179268 296.13
578181.8 4179268 296.13
578189.2 4179268 296.13
578191.1 4179268 296.13
578185 4179268 296.13
578182.9 4179269 296.13
578175.5 4179271 296.13
578184.3 4179271 296.13
578187.6 4179271 296.13
578188.7 4179271 296.13
578189.6 4179273 296.13
578175 4179276 296.13
578179.2 4179282 296.13
578182.5 4179284 296.13
578180.4 4179285 296.13
578181.6 4179285 296.13
578191.9 4179285 296.13
578183.8 4179288 296.13
578188.1 4179288 296.13
578179.8 4179289 296.13
578185.9 4179289 296.13
578192.2 4179291 296.13
578192.4 4179291 296.13
578195.6 4179264 296.14
578186.1 4179266 296.14
578184.9 4179268 296.14
578194.1 4179268 296.14
578179.2 4179269 296.14
578181.9 4179269 296.14
578181.4 4179272 296.14
578180.3 4179273 296.14
578180.4 4179274 296.14
578177.9 4179275 296.14
578179.8 4179278 296.14
578179.2 4179279 296.14
578188.7 4179283 296.14
578179.4 4179284 296.14
578188.6 4179284 296.14
578185.6 4179285 296.14
578186.7 4179285 296.14
578183.4 4179286 296.14
578181.5 4179287 296.14
578180.8 4179287 296.14
578188 4179288 296.14
578189.9 4179288 296.14
578180.1 4179289 296.14
578189.9 4179264 296.15
578180.8 4179266 296.15
578191.2 4179266 296.15
578174.4 4179267 296.15
578175.2 4179267 296.15
578175.6 4179269 296.15
578179.4 4179271 296.15
578178.7 4179276 296.15
578176.1 4179276 296.15
578176.9 4179276 296.15
578179.2 4179282 296.15
578188.6 4179285 296.15
578182.9 4179289 296.15
578185.8 4179290 296.15
578190.1 4179290 296.15
578194.3 4179291 296.15
578178.9 4179265 296.16
578189.9 4179265 296.16
578176.1 4179266 296.16
578190.2 4179266 296.16
578193.9 4179266 296.16
578184.1 4179268 296.16
578181.2 4179270 296.16
578180.1 4179271 296.16
578174.8 4179271 296.16
578175.8 4179272 296.16
578187.5 4179272 296.16
578174.9 4179273 296.16
578178.8 4179274 296.16
578177 4179275 296.16
578174.9 4179275 296.16
578178.8 4179275 296.16
578179.1 4179280 296.16
578181.2 4179283 296.16
578183.2 4179285 296.16
578178.9 4179287 296.16
578184.8 4179287 296.16
578186.9 4179288 296.16
578183.6 4179288 296.16
578181.1 4179290 296.16
578183 4179290 296.16
578184.9 4179267 296.17
578187.2 4179269 296.17
578182.1 4179270 296.17
578184.1 4179270 296.17
578174.8 4179272 296.17
578181.4 4179272 296.17
578188.6 4179272 296.17
578180.6 4179273 296.17
578181.6 4179274 296.17
578175.3 4179277 296.17
578177 4179277 296.17
578179.9 4179278 296.17
578178.2 4179279 296.17
578184.2 4179284 296.17
578184.5 4179285 296.17
578181.4 4179285 296.17
578189.9 4179285 296.17
578182.6 4179286 296.17
578183.6 4179286 296.17
578189.1 4179288 296.17
578191.2 4179288 296.17
578189.2 4179289 296.17
578192.9 4179288 296.17
578183.6 4179289 296.17
578184.6 4179264 296.18
578194.9 4179266 296.18
578191 4179267 296.18
578178 4179268 296.18
578180.8 4179268 296.18
578179.2 4179268 296.18
578177.4 4179268 296.18
578193.3 4179269 296.18
578182 4179270 296.18
578181.4 4179273 296.18
578174.8 4179274 296.18
578179.1 4179278 296.18
578177.3 4179278 296.18
578179.3 4179283 296.18
578184.4 4179284 296.18
578182.2 4179284 296.18
578181.7 4179286 296.18
578178 4179286 296.18
578185.5 4179287 296.18
578182.7 4179289 296.18
578186.8 4179289 296.18
578178.6 4179265 296.19
578182.8 4179265 296.19
578176 4179266 296.19
578188.1 4179268 296.19
578178.3 4179269 296.19
578184.1 4179269 296.19
578177.3 4179270 296.19
578175.7 4179271 296.19
578181.3 4179271 296.19
578184.2 4179272 296.19
578177.5 4179273 296.19
578177.6 4179274 296.19
578176.1 4179277 296.19
578178.2 4179281 296.19
578182.3 4179285 296.19
578182.4 4179286 296.19
578178.8 4179288 296.19
578190.1 4179290 296.19
578183.8 4179264 296.2
578184.9 4179265 296.2
578182.6 4179266 296.2
578179.9 4179266 296.2
578178.2 4179268 296.2
578186.4 4179269 296.2
578180.9 4179270 296.2
578192.2 4179270 296.2
578178.4 4179270 296.2
578177.4 4179271 296.2
578182.2 4179272 296.2
578179.1 4179278 296.2
578178.2 4179281 296.2
578178.5 4179282 296.2
578189.8 4179283 296.2
578185.5 4179284 296.2
578179.5 4179285 296.2
578180.6 4179287 296.2
578192 4179288 296.2
578181.7 4179289 296.2
578180.8 4179289 296.2
578190.1 4179265 296.21
578191.3 4179268 296.21
578180.1 4179268 296.21
578183.1 4179269 296.21
578182.9 4179269 296.21
578185.2 4179269 296.21
578175.6 4179270 296.21
578190.4 4179271 296.21
578182.2 4179273 296.21
578176.9 4179277 296.21
578180.2 4179281 296.21
578188.8 4179285 296.21
578178.9 4179286 296.21
578181.4 4179286 296.21
578185.6 4179288 296.21
578186.9 4179290 296.21
578191.4 4179290 296.21
578180.5 4179264 296.22
578192.8 4179266 296.22
578189.1 4179267 296.22
578176.4 4179268 296.22
578184.1 4179268 296.22
578186.6 4179272 296.22
578180.5 4179273 296.22
578175.8 4179274 296.22
578180.2 4179283 296.22
578190.7 4179285 296.22
578188.8 4179287 296.22
578181.9 4179267 296.23
578179.1 4179268 296.23
578175.2 4179268 296.23
578182.3 4179272 296.23
578177.9 4179276 296.23
578178.6 4179283 296.23
578177.6 4179284 296.23
578184.6 4179286 296.23
578181.6 4179287 296.23
578181.9 4179267 296.24
578187.2 4179267 296.24
578182.1 4179268 296.24
578189.5 4179269 296.24
578175.4 4179270 296.24
578189.8 4179272 296.24
578177.8 4179276 296.24
578176.2 4179277 296.24
578177.9 4179277 296.24
578178.1 4179278 296.24
578176.2 4179278 296.24
578178.2 4179278 296.24
578180.4 4179283 296.24
578177.5 4179283 296.24
578178.6 4179286 296.24
578192 4179286 296.24
578180.6 4179288 296.24
578194.1 4179291 296.24
578193.8 4179264 296.25
578180.8 4179267 296.25
578183 4179270 296.25
578186.2 4179270 296.25
578184.1 4179271 296.25
578175.9 4179274 296.25
578179.4 4179274 296.25
578179.8 4179278 296.25
578185.2 4179284 296.25
578187.7 4179284 296.25
578178.7 4179286 296.25
578183.6 4179286 296.25
578185.6 4179288 296.25
578187.8 4179264 296.26
578186 4179265 296.27
578183.9 4179267 296.26
578177.5 4179270 296.26
578177.7 4179275 296.26
578176.5 4179280 296.26
578179.3 4179280 296.27
578182.4 4179283 296.26
578189 4179286 296.27
578184.9 4179289 296.26
578180.1 4179290 296.27
578187.2 4179268 296.28
578186.5 4179271 296.28
578183.3 4179272 296.28
578175 4179274 296.28
578178.6 4179284 296.28
578182.4 4179284 296.28
578184.6 4179285 296.28
578182.4 4179287 296.28
578187.9 4179287 296.28
578181.9 4179289 296.28
578181.9 4179289 296.28
578195.9 4179291 296.28
578183.6 4179265 296.29
578177.9 4179267 296.3
578178.9 4179267 296.3
578176.3 4179268 296.29
578186.1 4179268 296.29
578182.1 4179269 296.3
578186.4 4179272 296.29
578181.5 4179274 296.29
578178.8 4179275 296.29
578178.7 4179284 296.3
578181.2 4179284 296.3
578180.4 4179286 296.29
578187.6 4179286 296.29
578182 4179290 296.3
578177.8 4179266 296.31
578186.6 4179272 296.31
578178.1 4179276 296.31
578179.2 4179280 296.31
578176.6 4179280 296.31
578189.8 4179284 296.31
578184.4 4179286 296.31
578185.7 4179289 296.31
578193.1 4179290 296.31
578184.6 4179265 296.32
578181.8 4179265 296.32
578180.9 4179267 296.32
578186.2 4179267 296.32
578193.9 4179268 296.32
578175.4 4179270 296.32
578180.1 4179270 296.33
578175 4179274 296.33
578188.8 4179284 296.33
578179.4 4179285 296.33
578192.8 4179288 296.33
578192.1 4179290 296.32
578182.5 4179265 296.34
578194.8 4179266 296.34
578190.2 4179269 296.34
578187.7 4179287 296.34
578180.7 4179264 296.35
578180.9 4179267 296.36
578175.1 4179274 296.36
578194.8 4179265 296.37
578178.1 4179267 296.37
578176.1 4179278 296.37
578180.3 4179284 296.37
578178.9 4179288 296.37
578190.2 4179270 296.38
578188.7 4179272 296.38
578175.6 4179272 296.38
578187.7 4179272 296.38
578175.9 4179266 296.39
578182.8 4179266 296.39
578179.1 4179267 296.39
578190.4 4179283 296.39
578192 4179289 296.39
578183 4179268 296.4
578178.5 4179271 296.4
578182.8 4179268 296.41
578190.2 4179268 296.41
578183.1 4179271 296.41
578179.9 4179287 296.41
578179.9 4179288 296.41
578193 4179289 296.41
578193.3 4179290 296.41
578178.9 4179276 296.42
578177.1 4179266 296.43
578175.7 4179273 296.43
578191.5 4179284 296.43
578194.2 4179290 296.43
578195.9 4179290 296.43
578187.3 4179270 296.44
578178.5 4179282 296.44
578177.1 4179266 296.45
578183.1 4179272 296.45
578175.6 4179273 296.45
578180.4 4179274 296.45
578191.9 4179288 296.45
578183.7 4179266 296.46
578188.8 4179272 296.46
578194.9 4179290 296.46
578175.2 4179276 296.47
578176.4 4179282 296.47
578192.2 4179289 296.47
578178.8 4179264 296.48
578181.5 4179265 296.48
578178.1 4179270 296.48
578178.9 4179278 296.48
578193.2 4179289 296.48
578195 4179291 296.48
578186.8 4179265 296.49
578183.7 4179267 296.5
578178.1 4179277 296.51
578184.4 4179287 296.51
578194.9 4179267 296.53
578193.1 4179288 296.53
578177.9 4179266 296.55
578178.9 4179266 296.55
578175.1 4179275 296.55
578195.1 4179290 296.55
578183.7 4179287 296.56
578190.6 4179284 296.57
578193 4179287 296.58
578193.8 4179288 296.58
578194 4179290 296.57
578191.8 4179286 296.59
578193.1 4179288 296.61
578194.9 4179290 296.61
578195.1 4179290 296.62
578177.7 4179275 296.64
578192.9 4179288 296.64
578194.1 4179289 296.65
578178.1 4179267 296.66
578193.9 4179289 296.66
578193.9 4179290 296.66
578192.1 4179288 296.67
578195.1 4179289 296.7
578177.8 4179266 296.72
578182.6 4179266 296.72
578190.8 4179284 296.72
578192.8 4179287 296.72
578190.5 4179283 296.73
578182.8 4179266 296.8
578194.1 4179289 296.79
578178.8 4179267 296.82
578190.5 4179284 296.82
578194 4179288 296.82
578195.2 4179291 296.83
578190.7 4179283 296.84
578192.1 4179288 296.84
578178.9 4179266 296.85
578182.6 4179267 296.86
578193.8 4179288 296.85
578193 4179288 296.87
578178 4179266 296.88
578194.8 4179288 296.9
578182.9 4179267 296.93
578178.7 4179266 296.98
578194.8 4179289 297.02
578180.4 4179265 297.06
578195.9 4179290 297.07
578191.8 4179288 297.18
