# .PCD v.7 - Point Cloud Data file format
VERSION .7
FIELDS x y z
SIZE 4 4 4
TYPE F F F
COUNT 1 1 1
WIDTH 294
HEIGHT 1
VIEWPOINT 0 0 0 1 0 0 0
POINTS 294
DATA ascii
578184.875 4179273.75 301.369995117
578183 4179274.25 301.149993896
578184 4179274 301.350006104
578184.875 4179274.25 301.799987793
578185.125 4179274.25 301.309997559
578186 4179274 301.380004883
578186.25 4179274.25 301.339996338
578187.0625 4179274.25 301.510009766
578187.3125 4179274.25 301.320007324
578182.75 4179274.5 301.470001221
578183.0625 4179275 301.480010986
578183.8125 4179274.5 301.480010986
578184.0625 4179274.75 301.630004883
578185.1875 4179274.75 301.470001221
578186 4179274.5 301.679992676
578186.3125 4179274.75 301.440002441
578187.125 4179275 301.549987793
578188.125 4179274.75 301.779998779
578181.875 4179275.25 301.339996338
578182.0625 4179275.25 301.380004883
578182.8125 4179275.25 301.570007324
578183.125 4179275.5 301.440002441
578183.875 4179275 301.529998779
578184.0625 4179275.25 301.720001221
578184.875 4179275 301.989990234
578185.1875 4179275.5 301.970001221
578186.0625 4179275.25 301.670013428
578186.3125 4179275.5 301.709991455
578187.1875 4179275.5 301.589996338
578187.375 4179275 301.559997559
578188.25 4179275.25 301.390014648
578188.4375 4179275.25 301.190002441
578180.9375 4179276 301.269989014
578181.125 4179275.5 301.209991455
578181.875 4179275.75 301.399993896
578182.125 4179275.75 301.420013428
578182.875 4179275.75 301.880004883
578183.875 4179275.75 301.869995117
578184.125 4179275.75 301.779998779
578184.9375 4179275.5 302.029998779
578185.1875 4179276 302.079986572
578186.0625 4179276 302.119995117
578187.4375 4179275.5 301.540008545
578188.3125 4179276 301.399993896
578188.5 4179275.75 301.470001221
578189.25 4179276 301.869995117
578181 4179276.5 301.570007324
578181.1875 4179276.25 301.390014648
578181.9375 4179276.5 301.619995117
578182.125 4179276.25 301.510009766
578182.875 4179276.5 301.859985352
578183.125 4179276.25 301.790008545
578183.9375 4179276.5 302.179992676
578184.125 4179276.5 302.329986572
578185 4179276.25 302.190002441
578186.0625 4179276.5 302.359985352
578186.3125 4179276.25 302.149993896
578187.1875 4179276.25 301.869995117
578187.4375 4179276.25 301.739990234
578188.3125 4179276.5 301.690002441
578188.5 4179276.25 301.489990234
578189.3125 4179276.5 301.619995117
578180.125 4179277 301.040008545
578181.1875 4179276.75 301.399993896
578181.9375 4179277 301.890014648
578182.125 4179277 301.980010986
578182.9375 4179277 302.130004883
578183.125 4179276.75 302.260009766
578183.9375 4179277 302.420013428
578184.125 4179277 302.549987793
578185 4179277 302.920013428
578185.25 4179276.75 302.459991455
578186.375 4179276.75 302.470001221
578187.25 4179276.75 301.910003662
578187.5 4179276.75 301.950012207
578188.375 4179277.25 301.809997559
578188.5625 4179277 301.459991455
578189.375 4179277.25 301.640014648
578189.625 4179276.75 301.179992676
578180.125 4179277.75 301.380004883
578180.25 4179277.25 301.619995117
578181 4179277.25 301.709991455
578181.25 4179277.5 301.619995117
578182 4179277.75 302.010009766
578182.1875 4179277.5 302.040008545
578182.9375 4179277.75 302.339996338
578183.1875 4179277.5 302.339996338
578183.9375 4179277.75 302.839996338
578184.1875 4179277.75 302.959991455
578185 4179277.5 303.179992676
578185.25 4179277.5 302.859985352
578186.125 4179277.25 302.839996338
578186.375 4179277.25 302.399993896
578187.25 4179277.5 302.179992676
578187.5 4179277.5 302.200012207
578188.5625 4179277.5 301.959991455
578189.6875 4179277.25 301.350006104
578180.1875 4179278.25 301.329986572
578180.3125 4179277.75 301.670013428
578181.0625 4179277.75 301.799987793
578181.3125 4179278 301.619995117
578182.0625 4179278.25 302.100006104
578182.25 4179278.25 302.130004883
578183.1875 4179278 302.429992676
578185 4179278.25 303.619995117
578185.25 4179278 303.609985352
578186.1875 4179277.75 302.660003662
578186.4375 4179278 302.660003662
578187.3125 4179278 302.359985352
578187.5625 4179278 302.390014648
578188.375 4179277.75 301.890014648
578188.625 4179278 301.799987793
578189.4375 4179277.75 301.779998779
578189.6875 4179278 301.359985352
578180.375 4179278.5 301.730010986
578181.125 4179278.5 301.5
578181.3125 4179278.5 301.679992676
578182.0625 4179279 302.059997559
578182.25 4179278.75 302.290008545
578183 4179278.25 302.519989014
578183.25 4179278.5 302.709991455
578184 4179278.25 303.119995117
578184.1875 4179278.25 303.100006104
578185.0625 4179278.75 303.480010986
578185.25 4179278.75 303.779998779
578186.1875 4179278.5 303.019989014
578186.4375 4179278.5 303.160003662
578187.375 4179278.75 302.429992676
578187.5625 4179278.5 302.359985352
578188.4375 4179278.5 301.980010986
578188.75 4179278.75 301.660003662
578189.5 4179278.25 301.399993896
578189.75 4179278.5 301.420013428
578180.1875 4179279 301.790008545
578180.4375 4179279 301.440002441
578181.1875 4179279 301.769989014
578181.375 4179279.25 301.899993896
578182.3125 4179279.25 302.320007324
578183.0625 4179279 302.589996338
578183.25 4179279.25 302.690002441
578184.0625 4179279 302.940002441
578184.25 4179279 303.329986572
578185.125 4179279.5 303.299987793
578185.3125 4179279.25 303.910003662
578186.25 4179279 303.140014648
578186.4375 4179279.25 303.359985352
578187.4375 4179279.25 302.489990234
578187.625 4179279 302.230010986
578188.5 4179279 301.910003662
578188.75 4179279.25 301.690002441
578189.5625 4179279 301.489990234
578189.8125 4179279 301.480010986
578180.25 4179279.75 301.910003662
578180.5 4179279.5 301.549987793
578181.25 4179279.75 301.600006104
578181.4375 4179279.75 301.809997559
578182.125 4179279.5 302.130004883
578182.375 4179280 302.160003662
578183.125 4179279.5 302.450012207
578183.375 4179279.75 302.459991455
578184.125 4179279.5 302.859985352
578184.25 4179279.5 303.420013428
578184.375 4179280 303.010009766
578185.1875 4179280 303.140014648
578185.4375 4179279.75 303.190002441
578186.3125 4179279.5 302.760009766
578186.5625 4179279.75 303.160003662
578187.5 4179279.75 302.239990234
578187.6875 4179279.75 302.25
578188.5625 4179279.5 301.890014648
578188.8125 4179279.75 301.609985352
578189.625 4179279.5 301.450012207
578189.875 4179279.75 301.480010986
578180.3125 4179280.25 301.850006104
578180.5 4179280.25 301.790008545
578181.3125 4179280.25 301.480010986
578181.5 4179280.25 301.660003662
578182.1875 4179280 302.230010986
578182.4375 4179280.5 302.010009766
578183.1875 4179280 302.359985352
578183.375 4179280.25 302.450012207
578184.1875 4179280 302.709991455
578184.25 4179280.5 302.5
578184.4375 4179280.5 302.600006104
578185.3125 4179280.5 302.709991455
578185.5 4179280.25 302.700012207
578186.375 4179280.25 302.660003662
578186.6875 4179280.25 302.369995117
578187.5625 4179280.25 302.029998779
578187.75 4179280.25 301.940002441
578188.625 4179280.25 301.709991455
578188.875 4179280.25 301.570007324
578189.6875 4179280 301.220001221
578189.875 4179280.25 301.579986572
578180.3125 4179280.75 301.899993896
578180.5625 4179281 300.130004883
578180.5625 4179280.75 301.720001221
578181.3125 4179280.75 301.619995117
578181.5625 4179280.75 301.640014648
578182.25 4179280.5 301.829986572
578182.5 4179281 301.970001221
578183.25 4179280.75 302.359985352
578183.4375 4179280.75 302.429992676
578184.5 4179281 302.390014648
578185.375 4179281 302.260009766
578185.5625 4179280.75 302.470001221
578186.4375 4179280.75 302.390014648
578186.6875 4179280.75 302.529998779
578187.625 4179281 302.130004883
578187.8125 4179280.75 301.940002441
578188.6875 4179280.75 301.529998779
578188.9375 4179280.75 301.459991455
578189.75 4179280.75 300.970001221
578180.625 4179281.5 299.859985352
578180.6875 4179281.25 301.239990234
578180.875 4179281.5 299.630004883
578181.375 4179281.5 301.670013428
578181.625 4179281.25 301.489990234
578182.3125 4179281.25 301.640014648
578182.5625 4179281.5 301.75
578183.25 4179281.25 302.299987793
578183.5 4179281.25 302.160003662
578184.3125 4179281.25 302.390014648
578184.375 4179281.75 301.970001221
578184.625 4179281.5 302.079986572
578185.4375 4179281.5 302.230010986
578185.625 4179281.25 302.190002441
578186.5 4179281.25 302.350006104
578186.75 4179281.25 302.339996338
578187.6875 4179281.5 301.839996338
578187.875 4179281.25 301.720001221
578188.75 4179281.25 301.429992676
578189 4179281.5 301.279998779
578180.9375 4179282 299.25
578181.4375 4179282 301.260009766
578181.625 4179282.25 300.079986572
578181.6875 4179282 301.350006104
578182.375 4179281.75 301.510009766
578182.625 4179282 301.769989014
578183.375 4179281.75 302.059997559
578183.625 4179281.75 301.820007324
578184.5 4179282.25 301.720001221
578184.625 4179282 302.119995117
578185.5625 4179282 301.850006104
578185.75 4179281.75 301.929992676
578186.625 4179281.75 301.890014648
578186.8125 4179281.75 302.140014648
578187.75 4179282 301.799987793
578188 4179281.75 301.450012207
578188.8125 4179281.75 301.359985352
578189.125 4179281.75 300.399993896
578181.75 4179282.5 301.350006104
578181.75 4179282.75 299.100006104
578181.9375 4179282.75 299.890014648
578182.4375 4179282.25 301.420013428
578182.6875 4179282.75 301.640014648
578183.4375 4179282.25 301.730010986
578183.6875 4179282.25 301.529998779
578184.5 4179282.75 301.660003662
578184.75 4179282.5 301.809997559
578185.625 4179282.75 301.75
578185.75 4179282.25 302.070007324
578186.6875 4179282.25 301.420013428
578186.9375 4179282.25 301.809997559
578187.8125 4179282.5 301.489990234
578188.0625 4179282.25 301.399993896
578182 4179283.25 299.209991455
578182.5 4179283 301.350006104
578182.75 4179283.25 301.600006104
578182.75 4179283 299.410003662
578183.5 4179283 301.660003662
578183.75 4179283 301.5
578184.625 4179283.25 301.299987793
578184.8125 4179283 301.359985352
578185.6875 4179283.25 301.339996338
578185.8125 4179282.75 301.859985352
578185.9375 4179283.25 301.510009766
578186.75 4179283 301.5
578187 4179282.75 301.589996338
578187.0625 4179283.25 301.269989014
578188 4179283 300.179992676
578188.0625 4179283 301.420013428
578188.375 4179283 299.130004883
578182.9375 4179283.5 299.859985352
578183.5625 4179283.5 301.329986572
578183.75 4179283.5 301.739990234
578183.8125 4179283.5 299.140014648
578184 4179283.75 299.980010986
578184.8125 4179283.75 300.040008545
578184.875 4179283.75 301.359985352
578185.75 4179283.75 301.630004883
578186 4179283.75 301.100006104
578186.8125 4179283.5 301.160003662
578185 4179284 300.179992676
