# .PCD v.7 - Point Cloud Data file format
VERSION .7
FIELDS x y z
SIZE 4 4 4
TYPE F F F
COUNT 1 1 1
WIDTH 299
HEIGHT 1
VIEWPOINT 0 0 0 1 0 0 0
POINTS 299
DATA ascii
578197.9 4179269 294.62
578197.7 4179268 294.63
578196 4179269 294.63
578194.8 4179284 294.63
578198.2 4179284 294.63
578198.2 4179272 294.65
578198.1 4179281 294.66
578195.4 4179271 294.67
578197.1 4179272 294.67
578198.5 4179285 294.67
578195.3 4179272 294.68
578198.1 4179273 294.68
578197.6 4179277 294.68
578197.6 4179278 294.68
578197.7 4179278 294.68
578198.5 4179277 294.69
578194.4 4179271 294.7
578195.9 4179276 294.7
578197.8 4179277 294.7
578197.9 4179279 294.7
578195.4 4179283 294.7
578197.7 4179276 294.71
578195.4 4179281 294.71
578196.1 4179270 294.72
578197.2 4179272 294.72
578194.5 4179273 294.72
578197.8 4179279 294.72
578194.7 4179282 294.72
578197.5 4179274 294.73
578193.2 4179277 294.73
578194.8 4179274 294.74
578194 4179275 294.74
578195 4179276 294.74
578196.9 4179280 294.74
578194.6 4179282 294.74
578198.2 4179284 294.74
578195.6 4179272 294.75
578194.9 4179277 294.75
578195.2 4179279 294.75
578196.8 4179279 294.75
578195.1 4179270 294.77
578196.5 4179273 294.76
578194.8 4179276 294.76
578194.2 4179277 294.77
578196.1 4179281 294.76
578196.4 4179281 294.76
578195.6 4179283 294.77
578198.1 4179283 294.76
578198.3 4179283 294.77
578196.9 4179268 294.78
578196.8 4179269 294.78
578195.4 4179270 294.78
578195.5 4179272 294.78
578194.8 4179277 294.78
578197.8 4179277 294.78
578196.1 4179280 294.78
578195.7 4179284 294.78
578195.2 4179271 294.79
578196.2 4179272 294.8
578194.8 4179274 294.79
578197.5 4179274 294.8
578195.6 4179275 294.8
578197.6 4179276 294.79
578196.5 4179276 294.8
578193.2 4179276 294.8
578194.3 4179278 294.8
578192.7 4179281 294.8
578195.6 4179282 294.79
578198.2 4179282 294.8
578194.7 4179283 294.79
578196.4 4179285 294.8
578197 4179269 294.81
578194 4179275 294.81
578197 4179279 294.81
578194.6 4179281 294.81
578194.3 4179281 294.81
578195.5 4179282 294.81
578196.2 4179270 294.83
578194.5 4179271 294.82
578193.8 4179272 294.82
578193.9 4179274 294.83
578194.6 4179274 294.82
578196.6 4179274 294.82
578196.6 4179275 294.82
578192.2 4179276 294.83
578194.1 4179276 294.82
578194 4179278 294.83
578194.2 4179278 294.83
578195.1 4179278 294.83
578194.9 4179278 294.83
578196.1 4179279 294.83
578194.5 4179283 294.82
578197.5 4179284 294.82
578197.3 4179285 294.83
578195.5 4179274 294.84
578197.3 4179274 294.84
578195.8 4179284 294.84
578195.4 4179272 294.86
578195.8 4179274 294.86
578197.4 4179275 294.86
578193.8 4179275 294.85
578196.5 4179275 294.85
578195.6 4179276 294.86
578192.2 4179276 294.86
578196.8 4179276 294.85
578193.2 4179277 294.85
578195.1 4179277 294.86
578195.2 4179278 294.85
578196.9 4179278 294.86
578196.9 4179280 294.85
578194.4 4179280 294.86
578194.8 4179284 294.85
578197.4 4179285 294.85
578196.9 4179270 294.87
578194.7 4179272 294.87
578194.7 4179273 294.87
578196.4 4179274 294.87
578194.7 4179275 294.87
578196.7 4179275 294.87
578192.2 4179279 294.87
578196.2 4179280 294.87
578196.1 4179282 294.87
578195.4 4179283 294.87
578195.5 4179284 294.87
578196.6 4179284 294.87
578196 4179270 294.88
578195.6 4179273 294.88
578193.8 4179273 294.88
578195.4 4179273 294.88
578193 4179277 294.88
578192.5 4179280 294.88
578196.2 4179270 294.89
578197.2 4179273 294.89
578196.6 4179274 294.89
578193.9 4179276 294.89
578194.1 4179279 294.89
578194.2 4179280 294.89
578197.1 4179280 294.89
578192.6 4179280 294.89
578195.6 4179284 294.89
578196.1 4179269 294.9
578196.2 4179272 294.9
578193.1 4179275 294.9
578194.2 4179280 294.9
578194.4 4179282 294.9
578196.7 4179286 294.9
578195.3 4179270 294.91
578196.3 4179271 294.91
578193.8 4179272 294.91
578196.4 4179272 294.91
578196.4 4179274 294.91
578194.8 4179276 294.91
578193.3 4179278 294.91
578197.1 4179279 294.91
578197.7 4179286 294.91
578194.6 4179274 294.92
578194.9 4179275 294.92
578192.1 4179278 294.92
578192.5 4179282 294.92
578195.2 4179270 294.93
578193 4179274 294.93
578193.1 4179276 294.93
578194.1 4179278 294.93
578193.2 4179280 294.93
578197.2 4179280 294.93
578197.8 4179287 294.93
578193.9 4179274 294.94
578192.9 4179276 294.94
578194.3 4179279 294.94
578193.3 4179280 294.94
578196.2 4179280 294.94
578194.2 4179281 294.94
578193.7 4179282 294.94
578195.5 4179284 294.94
578194.6 4179272 294.95
578195.4 4179274 294.95
578195.7 4179277 294.95
578196 4179280 294.95
578195.1 4179280 294.95
578195.4 4179280 294.95
578197.4 4179284 294.95
578194.9 4179276 294.96
578195.1 4179280 294.96
578196.3 4179281 294.96
578196.4 4179284 294.96
578193.9 4179276 294.97
578193.1 4179278 294.97
578193.1 4179278 294.97
578195 4179278 294.97
578195.6 4179274 294.98
578193.7 4179274 294.98
578192.1 4179274 294.98
578193.9 4179277 294.98
578193.4 4179278 294.98
578195.2 4179281 294.98
578196.6 4179284 294.98
578193.6 4179274 294.99
578192.8 4179274 294.99
578195.7 4179276 294.99
578194.4 4179280 294.99
578194.6 4179272 295
578193.4 4179281 295
578197 4179281 295
578196.1 4179271 295.02
578194.5 4179280 295.02
578193.5 4179283 295.01
578195.3 4179280 295.03
578195.2 4179282 295.03
578192.9 4179273 295.05
578196.3 4179274 295.04
578195.8 4179275 295.04
578192.1 4179277 295.05
578192.4 4179281 295.05
578192.8 4179283 295.05
578195.7 4179274 295.06
578195.9 4179278 295.06
578193.4 4179279 295.06
578195.9 4179279 295.06
578195 4179279 295.06
578192.6 4179281 295.06
578196.3 4179284 295.06
578196.5 4179286 295.06
578194.3 4179271 295.07
578192 4179274 295.07
578192.8 4179275 295.08
578194.1 4179276 295.07
578193.2 4179279 295.07
578195.2 4179280 295.07
578196.8 4179286 295.07
578192.4 4179271 295.09
578192.4 4179278 295.09
578192.3 4179280 295.09
578192.9 4179284 295.09
578196.6 4179285 295.09
578194.4 4179272 295.11
578191.9 4179273 295.11
578192.6 4179272 295.1
578194.4 4179273 295.1
578193.6 4179273 295.1
578192.1 4179275 295.11
578192 4179276 295.1
578192.2 4179277 295.1
578192.4 4179278 295.11
578196.1 4179278 295.11
578193.4 4179280 295.11
578193.5 4179280 295.1
578193.6 4179281 295.11
578195.3 4179282 295.1
578193.8 4179283 295.11
578192.9 4179273 295.12
578191.9 4179274 295.12
578195.8 4179276 295.12
578192.4 4179279 295.12
578193.8 4179275 295.13
578194.9 4179276 295.13
578192 4179276 295.13
578192.4 4179281 295.13
578192.6 4179283 295.13
578192.7 4179282 295.14
578192.8 4179272 295.16
578192.9 4179274 295.17
578193.1 4179278 295.17
578194.4 4179282 295.17
578193.6 4179284 295.17
578192.9 4179276 295.18
578193.4 4179282 295.18
578191.8 4179274 295.19
578193.6 4179284 295.19
578192.6 4179272 295.22
578192.7 4179274 295.22
578192.5 4179282 295.22
578192.3 4179278 295.23
578192.6 4179284 295.23
578192.9 4179285 295.23
578195.8 4179285 295.23
578192.7 4179273 295.24
578191.9 4179276 295.25
578193.4 4179282 295.25
578192.5 4179272 295.26
578193.6 4179282 295.26
578192.7 4179284 295.27
578193.7 4179282 295.28
578192.2 4179278 295.3
578192.8 4179282 295.3
578194.8 4179285 295.29
578191.8 4179274 295.33
578192.2 4179280 295.32
578193.8 4179284 295.32
578194.6 4179285 295.33
578193.9 4179286 295.34
578194.5 4179284 295.36
578192.8 4179285 295.36
578194.9 4179286 295.36
578193.6 4179285 295.38
578193.7 4179285 295.38
578193.9 4179285 295.39
578193.8 4179284 295.42
578194.6 4179286 295.42
578194.9 4179285 295.43
