# .PCD v.7 - Point Cloud Data file format
VERSION .7
FIELDS x y z
SIZE 4 4 4
TYPE F F F
COUNT 1 1 1
WIDTH 383
HEIGHT 1
VIEWPOINT 0 0 0 1 0 0 0
POINTS 383
DATA ascii
578197.625 4179267.75 294.899993896
578196.9375 4179268.25 294.779998779
578197.6875 4179268.25 294.630004883
578196.75 4179268.5 294.950012207
578197 4179268.75 294.809997559
578197.75 4179268.75 294.769989014
578197.875 4179268.5 294.850006104
578196 4179269.25 294.630004883
578196.125 4179269 294.899993896
578196.8125 4179269 294.779998779
578197.0625 4179269.25 294.929992676
578197.9375 4179269 294.619995117
578193.25 4179269.5 295.350006104
578193.5 4179269.75 295.359985352
578194.375 4179269.75 295.269989014
578196 4179269.75 294.880004883
578196.1875 4179269.5 294.890014648
578196.875 4179269.75 294.869995117
578197.0625 4179270 295.070007324
578197.8125 4179269.5 294.75
578198 4179269.5 294.760009766
578195.125 4179270 294.769989014
578195.3125 4179270 294.910003662
578196.0625 4179270.25 294.720001221
578196.25 4179270.25 294.829986572
578196.9375 4179270.25 295.190002441
578197.125 4179270.5 295.149993896
578197.8125 4179270 294.859985352
578198 4179270.25 294.850006104
578192.4375 4179270.75 295.089996338
578192.625 4179270.5 295.320007324
578193.3125 4179270.75 295.369995117
578194.3125 4179270.75 295.070007324
578194.5 4179270.75 294.820007324
578195.1875 4179270.5 294.929992676
578195.375 4179270.5 294.779998779
578195.4375 4179271 294.670013428
578196.0625 4179271 295.019989014
578196.25 4179270.75 295.029998779
578198.0625 4179270.75 295.040008545
578191.75 4179271.25 295.350006104
578192.5 4179271.5 295.260009766
578192.6875 4179271.25 295.390014648
578193.625 4179271.5 295.290008545
578194.375 4179271.25 294.700012207
578194.5625 4179271.5 295
578195.25 4179271.25 294.790008545
578196.1875 4179271.5 294.799987793
578196.3125 4179271.25 294.910003662
578198.125 4179271.25 294.869995117
578191.5625 4179271.75 295.440002441
578191.75 4179271.75 295.450012207
578192.5625 4179272 295.220001221
578192.75 4179271.75 295.410003662
578193.75 4179272 294.910003662
578194.375 4179272 295.109985352
578194.625 4179272 294.950012207
578195.3125 4179271.75 294.679992676
578195.5 4179271.75 294.779998779
578196.1875 4179272.25 294.899993896
578197.125 4179272 294.670013428
578198.1875 4179271.75 294.929992676
578191.8125 4179272.25 295.450012207
578192.625 4179272.5 295.100006104
578192.8125 4179272.25 295.160003662
578193.5 4179272.5 295.350006104
578193.75 4179272.5 294.820007324
578194.4375 4179272.75 295.100006104
578194.6875 4179272.5 294.869995117
578195.375 4179272.5 294.859985352
578195.5625 4179272.25 294.75
578196.4375 4179272.5 294.910003662
578197.1875 4179272.5 294.720001221
578197.25 4179272.25 295.100006104
578197.375 4179272.75 294.959991455
578198.0625 4179272.5 294.829986572
578198.25 4179272.25 294.649993896
578191.875 4179272.75 295.109985352
578192.6875 4179273.25 295.239990234
578192.875 4179272.75 295.119995117
578193.5625 4179273 295.100006104
578193.8125 4179273 294.880004883
578194.5 4179273.25 294.720001221
578194.6875 4179273 294.869995117
578195.375 4179273 294.880004883
578195.5625 4179272.75 294.880004883
578196.25 4179272.75 295.070007324
578196.5 4179273 294.760009766
578197.1875 4179273.25 294.890014648
578197.375 4179273.25 294.899993896
578198.125 4179273 294.679992676
578198.3125 4179273 294.720001221
578191.75 4179273.5 295.190002441
578191.9375 4179273.5 295.119995117
578192.6875 4179273.75 295.220001221
578192.875 4179273.25 295.049987793
578193.625 4179273.5 294.989990234
578193.875 4179273.75 294.829986572
578194.5625 4179273.75 294.920013428
578194.75 4179273.75 294.790008545
578195.4375 4179273.5 294.950012207
578195.625 4179273.5 294.980010986
578196.3125 4179273.5 295.040008545
578196.5625 4179273.5 294.890014648
578197.5 4179273.75 294.730010986
578198.1875 4179273.75 294.790008545
578198.3125 4179273.5 294.899993896
578191.8125 4179274.25 295.329986572
578192 4179274 295.070007324
578192.75 4179274.5 294.989990234
578192.9375 4179274 295.170013428
578193.6875 4179274.25 294.980010986
578193.9375 4179274.25 294.940002441
578194.625 4179274.25 294.820007324
578194.8125 4179274.25 294.739990234
578195.5 4179274.25 294.839996338
578195.6875 4179274 295.059997559
578196.375 4179274 294.910003662
578196.625 4179274.25 294.820007324
578197.25 4179273.75 295.040008545
578197.5 4179274.5 294.799987793
578198.1875 4179274.25 294.799987793
578198.375 4179274 294.790008545
578192.0625 4179274.5 294.980010986
578193 4179274.5 294.929992676
578193.75 4179274.75 295.130004883
578194 4179274.75 294.739990234
578194.6875 4179275 294.869995117
578194.875 4179274.75 294.920013428
578195.5625 4179274.75 294.799987793
578195.75 4179274.5 294.859985352
578196.4375 4179274.5 294.869995117
578196.625 4179274.75 294.820007324
578197.3125 4179274.5 294.839996338
578198.4375 4179274.75 294.820007324
578191.875 4179275.5 295.25
578192.125 4179275 295.109985352
578192.8125 4179275 295.079986572
578193.0625 4179275 294.899993896
578193.8125 4179275.25 294.850006104
578194 4179275.25 294.809997559
578194.9375 4179275.5 294.959991455
578195.625 4179275.5 294.859985352
578195.75 4179275 295.040008545
578196.5 4179275.25 294.850006104
578196.6875 4179275.25 294.869995117
578197.375 4179275 294.859985352
578197.5625 4179275 294.839996338
578198.3125 4179275.5 294.940002441
578198.5 4179275.25 294.850006104
578192 4179276 295.100006104
578192.1875 4179275.75 294.829986572
578192.875 4179275.5 295.179992676
578193.125 4179275.5 294.929992676
578193.875 4179276 294.890014648
578194.0625 4179276 295.070007324
578194.75 4179275.5 294.910003662
578194.9375 4179276 295.130004883
578195.6875 4179276 294.989990234
578195.8125 4179275.75 295.119995117
578196.5 4179275.75 294.799987793
578196.75 4179276 295.059997559
578197.4375 4179275.75 294.970001221
578197.625 4179275.5 294.790008545
578198.375 4179276 294.739990234
578198.5 4179275.75 294.880004883
578192 4179276.5 295.130004883
578192.25 4179276.25 294.859985352
578192.9375 4179276.25 294.940002441
578193.1875 4179276.25 294.799987793
578193.875 4179276.5 294.970001221
578194.125 4179276.5 294.820007324
578194.8125 4179276.25 294.760009766
578195 4179276.5 294.739990234
578195.6875 4179276.75 294.950012207
578195.9375 4179276.25 294.700012207
578196.5625 4179276.5 295.040008545
578196.8125 4179276.5 294.850006104
578197.4375 4179276.25 294.959991455
578197.6875 4179276 294.709991455
578198.4375 4179276.75 294.799987793
578192.0625 4179277.25 295.049987793
578192.25 4179276.75 295.100006104
578193 4179276.75 294.880004883
578193.25 4179276.75 294.730010986
578193.9375 4179277.25 294.980010986
578194.1875 4179277 294.769989014
578194.8125 4179276.75 294.779998779
578195.0625 4179277 294.859985352
578195.875 4179277 295.329986572
578197.5625 4179276.75 294.679992676
578197.75 4179276.75 294.700012207
578198.5 4179277.25 294.690002441
578192.125 4179277.75 294.920013428
578192.3125 4179277.5 295.230010986
578193.0625 4179277.5 294.970001221
578193.25 4179277.25 294.850006104
578194 4179277.75 294.829986572
578194.25 4179277.75 294.829986572
578194.875 4179277.25 294.75
578195.125 4179277.75 294.829986572
578197.5625 4179277.5 294.679992676
578197.75 4179277.25 294.779998779
578192.375 4179278 295.109985352
578193.0625 4179278 295.170013428
578193.3125 4179278 294.910003662
578194.3125 4179278.25 294.799987793
578194.9375 4179278 294.829986572
578195.1875 4179278.25 294.850006104
578196.75 4179278.25 295.100006104
578196.9375 4179278.25 294.859985352
578197.625 4179278 294.989990234
578197.8125 4179277.75 294.880004883
578198.5 4179278 294.950012207
578192.1875 4179278.25 295.299987793
578192.25 4179278.75 294.869995117
578192.4375 4179278.5 295.089996338
578193.125 4179278.5 294.970001221
578193.375 4179278.5 294.980010986
578194.0625 4179278.5 294.929992676
578194.3125 4179278.75 294.940002441
578195 4179278.5 294.970001221
578195.25 4179278.75 294.75
578195.875 4179278.5 295.059997559
578196.0625 4179278.5 295.109985352
578196.8125 4179278.75 294.75
578197 4179278.75 294.809997559
578197.6875 4179278.5 294.679992676
578197.875 4179278.5 294.850006104
578198.5625 4179278.5 294.709991455
578192.4375 4179279 295.119995117
578193.1875 4179279.25 295.070007324
578193.4375 4179279 295.059997559
578194.125 4179279 294.890014648
578194.375 4179279.5 294.989990234
578195 4179279.25 295.059997559
578195.25 4179279.5 295.070007324
578195.9375 4179279 295.059997559
578196.125 4179279 294.829986572
578196.875 4179279.5 294.850006104
578197.0625 4179279.25 294.910003662
578197.75 4179279.25 294.720001221
578197.9375 4179279 294.700012207
578192.25 4179279.5 295.320007324
578192.5 4179279.75 294.880004883
578193.25 4179279.75 294.929992676
578193.4375 4179279.75 295.109985352
578194.1875 4179279.5 294.890014648
578194.4375 4179280 294.859985352
578195.0625 4179279.75 294.959991455
578195.3125 4179280 295.029998779
578196 4179279.5 294.950012207
578196.1875 4179279.75 294.869995117
578196.9375 4179280 294.739990234
578197.125 4179280 294.890014648
578197.75 4179279.75 295.019989014
578198 4179279.5 294.859985352
578192.3125 4179280 295.089996338
578192.5625 4179280.25 294.890014648
578193.3125 4179280.25 294.940002441
578193.5 4179280.25 295.100006104
578194.25 4179280.25 294.899993896
578194.5 4179280.5 295.019989014
578195.125 4179280.5 294.950012207
578195.375 4179280.5 294.950012207
578196.0625 4179280.25 294.779998779
578196.25 4179280.25 294.940002441
578197.1875 4179280.5 294.929992676
578192.375 4179280.75 295.130004883
578192.625 4179280.75 295.059997559
578193.375 4179281 295
578193.5625 4179280.75 295.109985352
578194.25 4179280.75 294.940002441
578194.5625 4179281 294.809997559
578195.1875 4179281 294.980010986
578195.4375 4179281 294.709991455
578196.125 4179280.75 294.760009766
578196.3125 4179280.75 294.959991455
578196.9375 4179280.5 295.049987793
578197.1875 4179281 295.010009766
578198.0625 4179280.75 294.910003662
578192.4375 4179281.25 295.049987793
578192.6875 4179281.25 294.799987793
578193.375 4179281.5 295.179992676
578193.625 4179281.5 295.260009766
578194.3125 4179281.25 294.809997559
578194.625 4179281.75 294.739990234
578195.25 4179281.5 295.029998779
578195.5 4179281.75 294.809997559
578196.125 4179281.5 294.869995117
578196.375 4179281.25 294.760009766
578197 4179281.25 295
578197.25 4179281.75 295.019989014
578197.9375 4179281.5 294.859985352
578198.125 4179281.25 294.660003662
578192.5 4179281.75 294.920013428
578192.6875 4179282 295.140014648
578193.4375 4179282.25 295.25
578193.6875 4179282 294.940002441
578194.375 4179282 294.899993896
578194.6875 4179282.25 294.720001221
578195.3125 4179282.25 295.100006104
578195.5625 4179282.25 294.790008545
578196.1875 4179282 295.25
578196.375 4179282 295.170013428
578198 4179282.25 294.890014648
578198.1875 4179281.75 294.820007324
578192.5 4179282.5 295.220001221
578192.75 4179282.5 295.299987793
578193.5 4179282.75 295.010009766
578193.6875 4179282.5 295.279998779
578194.4375 4179282.5 295.170013428
578195.375 4179282.75 294.869995117
578195.5625 4179282.75 294.769989014
578198.0625 4179282.75 294.760009766
578198.25 4179282.5 294.799987793
578192.5625 4179283 295.130004883
578192.8125 4179283 295.049987793
578193.75 4179283 295.109985352
578194.5 4179283.25 294.820007324
578194.6875 4179282.75 294.790008545
578195.4375 4179283.25 294.700012207
578197.4375 4179283.25 294.989990234
578198.3125 4179283 294.769989014
578192.625 4179283.75 295.230010986
578192.8125 4179283.75 295.510009766
578193.5625 4179283.5 295.170013428
578193.8125 4179283.75 295.320007324
578194.5 4179283.75 295.359985352
578194.75 4179283.5 294.850006104
578195.625 4179283.5 294.890014648
578196.3125 4179283.75 295.059997559
578196.5625 4179283.75 294.869995117
578197.1875 4179283.5 295.010009766
578197.4375 4179284 294.950012207
578198.125 4179283.5 294.950012207
578198.3125 4179283.5 294.839996338
578192.6875 4179284.25 295.269989014
578192.9375 4179284.25 295.089996338
578193.625 4179284 295.190002441
578193.8125 4179284.25 295.420013428
578194.5625 4179284.5 295.480010986
578194.8125 4179284 294.630004883
578195.5 4179284 294.869995117
578195.6875 4179284 294.779998779
578196.375 4179284.5 294.959991455
578196.625 4179284.25 294.980010986
578197.25 4179284.25 295.019989014
578197.5 4179284.5 294.820007324
578198.1875 4179284 294.739990234
578198.375 4179284.25 294.869995117
578192.75 4179285 295.359985352
578192.9375 4179284.75 295.230010986
578193.625 4179284.75 295.380004883
578193.875 4179285 295.390014648
578194.625 4179285 295.329986572
578194.8125 4179284.75 295.290008545
578195.5 4179284.5 294.940002441
578195.75 4179284.5 294.839996338
578196.4375 4179285 294.799987793
578196.625 4179285 295.089996338
578197.3125 4179284.75 294.829986572
578198.25 4179284.5 294.630004883
578198.4375 4179284.75 294.809997559
578193.6875 4179285.25 295.380004883
578193.9375 4179285.5 295.339996338
578194.875 4179285.25 295.429992676
578195.75 4179285.25 295.230010986
578196.6875 4179285.5 294.899993896
578197.375 4179285.25 294.850006104
578198.25 4179285.25 294.899993896
578198.5 4179285.25 294.670013428
578194 4179286 295.489990234
578194.625 4179285.75 295.420013428
578194.875 4179285.75 295.450012207
578196.5 4179285.75 295.059997559
578196.75 4179286 295.070007324
578197.4375 4179286 294.989990234
578197.625 4179285.75 295.049987793
578194.6875 4179286.25 295.470001221
578194.9375 4179286.5 295.359985352
578197.6875 4179286.25 294.910003662
578197.75 4179286.75 294.929992676
