# .PCD v.7 - Point Cloud Data file format
VERSION .7
FIELDS x y z
SIZE 4 4 4
TYPE F F F
COUNT 1 1 1
WIDTH 78
HEIGHT 1
VIEWPOINT 0 0 0 1 0 0 0
POINTS 78
DATA ascii
578198.6 4179278 294.71
578198.3 4179273 294.72
578198.4 4179276 294.74
578197.8 4179270 294.75
578197.8 4179269 294.77
578198 4179270 294.76
578198.2 4179274 294.79
578198.4 4179274 294.79
578198.2 4179274 294.8
578198.4 4179277 294.8
578198.4 4179285 294.81
578198.1 4179272 294.83
578198.4 4179275 294.82
578198.2 4179282 294.82
578197.6 4179275 294.84
578198.3 4179284 294.84
578197.9 4179268 294.85
578197.8 4179270 294.86
578198 4179270 294.85
578198.5 4179275 294.85
578197.9 4179278 294.85
578198 4179280 294.86
578197.9 4179282 294.86
578198.1 4179271 294.87
578198.4 4179284 294.87
578198.5 4179276 294.88
578197.8 4179278 294.88
578198 4179282 294.89
578197.6 4179268 294.9
578197.4 4179273 294.9
578198.3 4179274 294.9
578198.2 4179285 294.9
578198.1 4179281 294.91
578197.1 4179269 294.93
578198.2 4179272 294.93
578198.3 4179276 294.94
578196.8 4179268 294.95
578198.5 4179278 294.95
578198.1 4179284 294.95
578197.4 4179273 294.96
578197.4 4179276 294.96
578197.4 4179276 294.97
578197.6 4179278 294.99
578197.4 4179283 294.99
578197.4 4179286 294.99
578197.8 4179280 295.02
578197.2 4179281 295.01
578197.2 4179282 295.02
578197.2 4179284 295.01
578197.2 4179284 295.02
578196.2 4179271 295.03
578198.6 4179276 295.03
578198.1 4179271 295.04
578197.2 4179274 295.04
578196.6 4179276 295.04
578196.9 4179280 295.05
578197.6 4179286 295.05
578198.4 4179287 295.05
578196.8 4179276 295.06
578197.1 4179270 295.07
578196.2 4179273 295.07
578198 4179280 295.08
578197.9 4179281 295.08
578197.2 4179272 295.1
578198.2 4179275 295.1
578196.8 4179278 295.1
578197.8 4179280 295.1
578196.4 4179282 295.17
578197.6 4179285 295.23
578196.2 4179282 295.25
578196.2 4179283 295.32
578197.4 4179286 295.32
578196.8 4179287 295.37
578194.9 4179286 295.45
578193.9 4179288 297.22
578181.8 4179283 299.1
578182 4179283 299.21
578180.9 4179282 299.25
