# .PCD v.7 - Point Cloud Data file format
VERSION .7
FIELDS x y z
SIZE 4 4 4
TYPE F F F
COUNT 1 1 1
WIDTH 169
HEIGHT 1
VIEWPOINT 0 0 0 1 0 0 0
POINTS 169
DATA ascii
578174.4 4179290 295.75
578174.7 4179291 295.76
578179.7 4179284 295.79
578174.1 4179288 295.81
578179.2 4179290 295.81
578178.8 4179277 295.83
578178.2 4179280 295.82
578182.2 4179284 295.83
578174.6 4179291 295.83
578177.6 4179291 295.83
578175.4 4179292 295.83
578181.6 4179284 295.84
578175.2 4179290 295.84
578174.4 4179291 295.84
578174.3 4179276 295.86
578178 4179276 295.86
578176.2 4179276 295.86
578177.5 4179280 295.85
578174.8 4179281 295.85
578179.6 4179283 295.86
578178.6 4179285 295.85
578175.1 4179288 295.85
578182.9 4179289 295.86
578177.1 4179276 295.87
578181.6 4179284 295.87
578177 4179285 295.87
578182.6 4179286 295.87
578183.9 4179288 295.87
578178 4179288 295.87
578174.3 4179290 295.87
578177.5 4179291 295.87
578182.4 4179286 295.88
578174.5 4179289 295.88
578174.4 4179277 295.89
578176.2 4179279 295.89
578177.2 4179280 295.89
578178.5 4179284 295.89
578180.9 4179288 295.89
578176.4 4179289 295.89
578180.9 4179290 295.89
578174.6 4179290 295.89
578178.1 4179290 295.89
578176.3 4179278 295.9
578176.3 4179280 295.9
578179.5 4179282 295.9
578176.9 4179284 295.9
578179 4179290 295.9
578183.8 4179290 295.9
578176.5 4179290 295.9
578175.4 4179291 295.9
578177.2 4179277 295.91
578177.4 4179279 295.91
578177.4 4179282 295.91
578174.1 4179284 295.91
578180.6 4179284 295.91
578177.9 4179285 295.91
578176.6 4179291 295.91
578175.7 4179292 295.91
578182.9 4179292 295.91
578176.1 4179285 295.92
578181.8 4179287 295.92
578174.5 4179290 295.92
578177.5 4179281 295.93
578176.7 4179284 295.93
578176.2 4179288 295.93
578179.1 4179291 295.93
578174.2 4179278 295.94
578181.6 4179288 295.94
578180 4179290 295.94
578182.1 4179291 295.94
578176.4 4179291 295.94
578175.2 4179278 295.95
578175.6 4179283 295.95
578175.8 4179285 295.95
578178.3 4179289 295.95
578181.8 4179290 295.95
578175.1 4179277 295.96
578175.5 4179279 295.96
578174.6 4179280 295.96
578176.3 4179280 295.96
578175.9 4179284 295.96
578178.5 4179284 295.96
578178.8 4179284 295.96
578179.8 4179285 295.96
578178.8 4179285 295.96
578179.8 4179286 295.96
578175.2 4179286 295.96
578179 4179287 295.96
578175.4 4179288 295.96
578180.8 4179289 295.96
578180.2 4179291 295.96
578174.2 4179277 295.97
578174.4 4179278 295.97
578175.8 4179282 295.97
578177.6 4179284 295.97
578177.8 4179286 295.97
578175.4 4179289 295.97
578174.2 4179290 295.97
578179.3 4179290 295.97
578177.2 4179291 295.97
578177.7 4179282 295.98
578174.1 4179285 295.98
578174.4 4179277 295.99
578174.9 4179285 295.99
578175.4 4179289 295.99
578179.1 4179290 295.99
578176.8 4179282 296
578176.1 4179286 296
578176.3 4179288 296
578175.6 4179290 296
578174.4 4179280 296.01
578175.7 4179284 296.02
578175.8 4179285 296.02
578176.8 4179285 296.02
578177.7 4179285 296.01
578174.9 4179286 296.02
578175.2 4179286 296.01
578175 4179287 296.02
578174.1 4179287 296.01
578175.2 4179287 296.02
578176.9 4179287 296.01
578177.9 4179287 296.01
578178 4179289 296.01
578177.2 4179290 296.02
578179.9 4179290 296.01
578181.1 4179290 296.01
578177.2 4179290 296.02
578175.6 4179281 296.03
578175.6 4179282 296.03
578174.9 4179282 296.03
578173.9 4179286 296.03
578174 4179286 296.03
578176.9 4179286 296.03
578175.1 4179288 296.03
578179.1 4179288 296.03
578179.1 4179291 296.03
578174.5 4179281 296.05
578176.7 4179284 296.05
578176 4179285 296.04
578177.2 4179288 296.05
578174.4 4179288 296.05
578177.1 4179286 296.06
578178.4 4179291 296.06
578176.1 4179286 296.08
578176.2 4179287 296.08
578176.4 4179290 296.07
578178.1 4179290 296.08
578177.4 4179290 296.07
578179.3 4179291 296.08
578174.5 4179282 296.09
578175.9 4179286 296.09
578174.2 4179288 296.09
578177.2 4179288 296.09
578175.5 4179290 296.09
578176.3 4179291 296.09
578174.6 4179282 296.1
578176.4 4179290 296.11
578175.6 4179291 296.11
578179.4 4179292 296.1
578173.8 4179285 296.12
578173.8 4179284 296.13
578174 4179284 296.13
578176 4179288 296.13
578175.3 4179288 296.14
578175.1 4179289 296.16
578174.2 4179286 296.18
578176.2 4179290 296.18
578174.2 4179287 296.19
578174.2 4179289 296.21
