# .PCD v.7 - Point Cloud Data file format
VERSION .7
FIELDS x y z
SIZE 4 4 4
TYPE F F F
COUNT 1 1 1
WIDTH 286
HEIGHT 1
VIEWPOINT 0 0 0 1 0 0 0
POINTS 286
DATA ascii
578177.75 4179273 295.850006104
578176.6875 4179273.5 295.910003662
578176.9375 4179274 295.910003662
578175.875 4179275 295.899993896
578176.0625 4179274.75 295.880004883
578175.9375 4179275.5 295.959991455
578174.3125 4179276 295.859985352
578178 4179276 295.859985352
578174.375 4179276.75 295.890014648
578176 4179276 295.980010986
578176.25 4179276.5 295.859985352
578177.125 4179276.25 295.869995117
578175.125 4179277 295.959991455
578177.1875 4179276.75 295.940002441
578178.8125 4179277 295.829986572
578174.1875 4179277.25 295.970001221
578174.375 4179277.25 295.989990234
578176.3125 4179277.5 295.899993896
578177.25 4179277.25 295.910003662
578174.25 4179277.75 295.940002441
578174.4375 4179277.75 295.970001221
578175.25 4179278.25 295.950012207
578174.25 4179278.5 296.070007324
578175.25 4179278.75 296.049987793
578176.4375 4179278.75 296.010009766
578177.0625 4179278.5 296
578174.3125 4179279 296.059997559
578175.5 4179279 295.959991455
578176.25 4179279 295.890014648
578176.4375 4179279.25 296.010009766
578177.125 4179279 296.010009766
578177.375 4179279 295.910003662
578174.625 4179279.5 295.959991455
578176.3125 4179279.75 295.899993896
578177.1875 4179279.5 295.980010986
578177.4375 4179279.5 295.980010986
578178.1875 4179280 295.820007324
578178.375 4179280 295.940002441
578180.25 4179280 295.920013428
578174.4375 4179280.25 296.010009766
578176.3125 4179280.25 295.959991455
578177.25 4179280.25 295.890014648
578177.5 4179280.25 295.850006104
578179.125 4179280.5 295.980010986
578180 4179280.25 295.950012207
578174.5 4179281 296.049987793
578175.625 4179280.75 296.029998779
578177.3125 4179280.75 296.029998779
578177.5 4179280.75 295.929992676
578178.5 4179281 296.019989014
578174.5 4179281.5 296.089996338
578174.75 4179281.25 295.850006104
578176.4375 4179281.5 296.070007324
578177.375 4179281.5 296.010009766
578177.5625 4179281.25 296.019989014
578174.5625 4179282 296.100006104
578174.8125 4179281.75 296.109985352
578176.75 4179282.25 296
578177.4375 4179282 295.910003662
578177.625 4179282 296.010009766
578179.5 4179282 295.899993896
578174.625 4179282.75 296.130004883
578174.875 4179282.5 296.029998779
578175.5625 4179282.25 296.029998779
578175.8125 4179282.5 295.970001221
578176.75 4179282.75 296.040008545
578177.4375 4179282.5 296.029998779
578177.6875 4179282.5 295.980010986
578174.6875 4179283.25 296.149993896
578174.875 4179283 296.119995117
578175.625 4179283 295.950012207
578176.5625 4179283.25 296.070007324
578178.4375 4179283 296.040008545
578179.5625 4179283 295.859985352
578174 4179284 296.130004883
578174.75 4179284 296.170013428
578175.6875 4179283.5 296.019989014
578175.875 4179283.75 296.140014648
578176.6875 4179284 295.929992676
578176.875 4179284 296.070007324
578177.75 4179283.75 296.079986572
578178.5 4179283.5 295.890014648
578179.625 4179283.75 296.019989014
578180.5 4179283.5 296
578181.5 4179283.5 295.970001221
578182.25 4179283.75 295.829986572
578183.4375 4179283.75 295.890014648
578173.8125 4179284 296.130004883
578174.0625 4179284.5 295.910003662
578175.75 4179284.25 296.109985352
578175.9375 4179284.25 295.959991455
578176.9375 4179284.5 295.899993896
578177.625 4179284.5 295.970001221
578177.8125 4179284.25 296.040008545
578178.5 4179284.25 295.959991455
578178.75 4179284.5 295.959991455
578179.6875 4179284.25 295.790008545
578180.5625 4179284 295.940002441
578181.5625 4179284 295.869995117
578173.8125 4179284.75 296.119995117
578174.125 4179285 295.980010986
578174.875 4179285 295.989990234
578175.8125 4179284.75 295.950012207
578176 4179284.75 296.040008545
578176.6875 4179284.5 296.049987793
578177 4179285 295.869995117
578177.6875 4179285 296.010009766
578177.875 4179284.75 295.910003662
578178.5625 4179284.75 295.850006104
578178.8125 4179285 295.959991455
578179.75 4179284.75 295.959991455
578180.375 4179284.5 295.989990234
578180.625 4179284.5 295.910003662
578181.5625 4179284.5 295.839996338
578184.3125 4179284.75 295.890014648
578173.875 4179285.25 296.200012207
578175.0625 4179285.25 296.190002441
578175.8125 4179285.25 296.019989014
578176.0625 4179285.25 295.920013428
578176.75 4179285 296.019989014
578177.75 4179285.5 295.970001221
578177.9375 4179285.25 296.040008545
578179.75 4179285.5 295.959991455
578185.375 4179285.25 295.839996338
578185.6875 4179285.5 295.820007324
578173.9375 4179285.75 296.029998779
578174.125 4179285.5 296.179992676
578175.1875 4179285.75 295.959991455
578176.125 4179286 296
578176.8125 4179285.75 296.100006104
578177.0625 4179286.25 296.059997559
578179.5625 4179286 296.079986572
578179.8125 4179286 296.070007324
578182.4375 4179286.25 295.880004883
578182.625 4179286 295.869995117
578174 4179286.5 296.029998779
578174.1875 4179286.25 296.179992676
578174.9375 4179286.25 296.019989014
578175.1875 4179286.5 296.010009766
578175.9375 4179286.5 296.089996338
578176.125 4179286.5 296.079986572
578176.875 4179286.25 296.029998779
578178.75 4179286.5 296.049987793
578179.625 4179286.5 296.089996338
578179.875 4179286.5 296.059997559
578180.5625 4179286.25 296.040008545
578180.8125 4179286.25 295.959991455
578182.6875 4179286.5 295.989990234
578174.0625 4179287 296.010009766
578174.25 4179286.75 296.190002441
578175 4179286.75 296.019989014
578175.25 4179287 296.019989014
578176.1875 4179287 296.079986572
578176.9375 4179287 296.010009766
578177.125 4179286.75 296.160003662
578178.0625 4179287 296.089996338
578178.75 4179287.25 296.049987793
578179.6875 4179287 296.070007324
578181.8125 4179287 295.920013428
578182.75 4179287 295.989990234
578174.125 4179287.5 295.809997559
578175.0625 4179287.5 295.850006104
578175.3125 4179287.5 296.140014648
578176 4179287.75 296.130004883
578176.25 4179287.75 295.929992676
578176.9375 4179287.5 296.149993896
578177.1875 4179287.25 296.119995117
578177.875 4179287.25 296.010009766
578179 4179287.25 295.959991455
578179.75 4179287.75 296.109985352
578181.8125 4179287.5 296.019989014
578182.5625 4179287.25 295.989990234
578185.875 4179287.75 295.820007324
578174.1875 4179288.25 296.089996338
578175.125 4179288 296.029998779
578175.375 4179288 295.959991455
578176.0625 4179288.25 296.160003662
578176.3125 4179288.25 296
578177 4179288 296.130004883
578177.25 4179288 296.049987793
578177.9375 4179288 296.100006104
578179.0625 4179288 296.029998779
578179.8125 4179288.25 296.119995117
578180 4179288.25 296.059997559
578180.6875 4179288 296.029998779
578180.9375 4179288 295.890014648
578181.625 4179288 295.940002441
578181.875 4179288 295.970001221
578182.625 4179288 295.959991455
578183.875 4179288.25 295.869995117
578174.1875 4179288.75 296.209991455
578174.4375 4179288.5 296.049987793
578175.125 4179288.75 296.160003662
578175.4375 4179288.75 295.989990234
578176.375 4179288.75 295.890014648
578177.25 4179288.5 296.089996338
578178 4179288.5 295.869995117
578179.125 4179288.5 296.089996338
578179.8125 4179288.75 296.130004883
578180.75 4179288.75 295.959991455
578181 4179288.5 296
578183.875 4179289 295.959991455
578186.8125 4179288.75 295.859985352
578187 4179288.5 295.890014648
578190.3125 4179288.75 295.809997559
578174.25 4179289.5 295.970001221
578174.5 4179289 295.880004883
578175.1875 4179289.25 296.209991455
578175.4375 4179289.25 295.970001221
578176.4375 4179289.5 296.070007324
578177.0625 4179289.25 296.220001221
578177.3125 4179289 296.179992676
578178 4179289.25 296.010009766
578178.3125 4179289.25 295.950012207
578179 4179289.5 295.899993896
578179.1875 4179289 296.119995117
578179.875 4179289.5 296.079986572
578182.9375 4179289.25 295.859985352
578183.75 4179289.5 295.899993896
578183.9375 4179289.5 295.910003662
578174.3125 4179290 295.869995117
578174.5 4179289.5 295.920013428
578175.25 4179289.75 295.839996338
578175.5 4179289.75 296.089996338
578176.4375 4179290 296.109985352
578177.1875 4179289.75 296.019989014
578177.375 4179289.75 296.179992676
578178.0625 4179289.75 296.079986572
578179.25 4179289.5 295.809997559
578179.9375 4179290 296.010009766
578180.875 4179289.75 295.890014648
578181.8125 4179289.75 295.950012207
578185 4179289.75 295.959991455
578186.0625 4179290 295.880004883
578187.125 4179289.75 295.880004883
578189.375 4179289.75 295.700012207
578174.375 4179290.5 295.75
578174.5625 4179290.25 295.890014648
578175.3125 4179290.5 296.25
578175.5625 4179290.5 296
578176.25 4179290 296.179992676
578176.5 4179290.5 295.899993896
578177.25 4179290.5 296.019989014
578177.4375 4179290.25 296.070007324
578178.125 4179290.25 295.890014648
578178.375 4179290.5 296.170013428
578179.0625 4179290.25 295.989990234
578179.3125 4179290.25 295.970001221
578180 4179290.5 295.940002441
578181.125 4179290.25 296.010009766
578181.8125 4179290.25 296.019989014
578183.0625 4179290.5 296.010009766
578185.0625 4179290.25 296
578189.375 4179290.25 295.839996338
578174.4375 4179291.25 295.839996338
578174.625 4179290.75 295.829986572
578175.375 4179291 295.899993896
578175.625 4179291 296.109985352
578176.3125 4179290.75 296.089996338
578176.5625 4179291 295.910003662
578177.25 4179291 295.970001221
578177.5 4179290.75 295.869995117
578178.1875 4179291 296.140014648
578178.4375 4179291 296.059997559
578179.125 4179290.75 295.929992676
578179.3125 4179290.75 296.079986572
578180.25 4179291.25 295.959991455
578181.875 4179290.75 296.079986572
578182.125 4179291 295.940002441
578182.875 4179291 296.059997559
578183.8125 4179290.75 295.980010986
578185.125 4179291 295.899993896
578187 4179291 295.940002441
578188.375 4179290.75 295.880004883
578174.6875 4179291.25 295.760009766
578175.4375 4179291.5 295.829986572
578175.6875 4179291.5 295.910003662
578176.375 4179291.25 295.940002441
578177.5625 4179291.25 295.829986572
578178.1875 4179291.5 296.220001221
578179.125 4179291.25 296.029998779
578179.375 4179291.5 296.100006104
578180.0625 4179291.25 296.089996338
578182.1875 4179291.5 296.100006104
578182.9375 4179291.5 295.910003662
578187.25 4179291.25 295.970001221
