# .PCD v.7 - Point Cloud Data file format
VERSION .7
FIELDS x y z
SIZE 4 4 4
TYPE F F F
COUNT 1 1 1
WIDTH 1140
HEIGHT 1
VIEWPOINT 0 0 0 1 0 0 0
POINTS 1140
DATA ascii
578176.6875 4179263.25 295.970001221
578177.625 4179263.25 296
578191.6875 4179263.25 295.929992676
578193.5 4179263.25 295.839996338
578196.1875 4179263.25 295.829986572
578175.75 4179263.5 296.160003662
578176 4179263.75 295.950012207
578176.9375 4179263.5 295.959991455
578177.6875 4179263.75 295.910003662
578177.8125 4179263.25 295.880004883
578178.5625 4179263.5 296.079986572
578178.75 4179263.75 296.480010986
578179.4375 4179263.5 296.390014648
578179.6875 4179263.75 295.959991455
578180.4375 4179263.5 296.040008545
578181.5 4179263.75 295.839996338
578182.5 4179263.75 295.940002441
578183.5 4179263.75 296.019989014
578187 4179263.75 296.149993896
578189.0625 4179263.75 295.799987793
578190 4179263.5 296
578190.75 4179263.75 296.029998779
578190.9375 4179263.5 296.119995117
578191.75 4179263.75 295.829986572
578191.875 4179263.25 296.079986572
578192.625 4179263.75 296.100006104
578192.875 4179263.5 295.890014648
578193.75 4179263.75 296.25
578194.4375 4179263.75 295.899993896
578194.625 4179263.5 296.100006104
578195.3125 4179263.25 295.760009766
578195.5 4179263.75 296.040008545
578196.25 4179263.75 295.720001221
578196.4375 4179263.25 295.769989014
578197.125 4179263.75 296
578197.3125 4179263.5 295.609985352
578174.9375 4179264 295.989990234
578175.125 4179264 295.980010986
578175.8125 4179264 296.019989014
578176.0625 4179264.25 295.920013428
578176.75 4179263.75 295.989990234
578177 4179264 295.980010986
578177.875 4179263.75 295.850006104
578178.625 4179264.25 296.100006104
578178.8125 4179264 295.799987793
578179.5625 4179264 296.089996338
578179.75 4179264.25 296.070007324
578180.5 4179264 296.220001221
578181.6875 4179263.75 295.950012207
578181.75 4179264.25 295.730010986
578183.5625 4179264.25 296.010009766
578183.75 4179263.75 295.859985352
578184.625 4179264.25 296.179992676
578184.8125 4179264 295.839996338
578185.9375 4179264 295.980010986
578186.8125 4179264 296.059997559
578187 4179264.25 296.029998779
578187.8125 4179264 296.260009766
578188 4179263.75 296.140014648
578188.875 4179264 295.859985352
578189.125 4179264.25 295.829986572
578189.8125 4179264 295.950012207
578190.0625 4179264.25 295.970001221
578190.8125 4179264.25 296.100006104
578191 4179264 296.109985352
578191.9375 4179263.75 296.010009766
578192.6875 4179264.25 296.019989014
578192.875 4179264.25 296.029998779
578193.5625 4179263.75 295.980010986
578193.8125 4179264.25 295.839996338
578194.5 4179264.25 296.059997559
578194.6875 4179264 295.970001221
578195.375 4179264 296.029998779
578195.5625 4179264.25 296.140014648
578196.5 4179263.75 295.690002441
578197.1875 4179264.25 296.019989014
578197.375 4179264 295.809997559
578174.25 4179264.75 295.890014648
578175 4179264.75 295.920013428
578175.125 4179264.5 296.130004883
578175.875 4179264.5 295.920013428
578176.125 4179264.75 295.880004883
578176.8125 4179264.5 295.970001221
578177 4179264.5 295.929992676
578177.75 4179264.25 295.959991455
578177.9375 4179264.5 295.970001221
578178.625 4179264.75 296.190002441
578178.875 4179264.75 295.959991455
578179.625 4179264.75 295.940002441
578179.8125 4179264.75 295.809997559
578180.6875 4179264.5 296.350006104
578182.5 4179264.5 296.119995117
578182.75 4179264.75 295.989990234
578183.75 4179264.5 296.200012207
578184.625 4179264.75 296.320007324
578184.875 4179264.75 296.200012207
578185.75 4179264.5 296.130004883
578186 4179264.75 296.269989014
578186.8125 4179264.75 296.489990234
578187.0625 4179264.75 296.079986572
578187.875 4179264.5 296.059997559
578188.125 4179264.5 295.880004883
578188.9375 4179264.75 296.070007324
578189.1875 4179265 296
578189.875 4179264.5 296.149993896
578190.125 4179264.75 295.959991455
578190.9375 4179264.75 295.769989014
578191.0625 4179264.5 295.880004883
578191.8125 4179264.5 295.859985352
578192 4179264.5 295.950012207
578192.75 4179264.75 295.910003662
578192.9375 4179264.75 296.079986572
578193.625 4179264.5 295.899993896
578193.875 4179264.75 295.850006104
578194.5625 4179264.75 295.929992676
578194.75 4179264.5 295.769989014
578195.4375 4179264.5 295.850006104
578195.625 4179264.75 295.839996338
578196.3125 4179264.5 295.910003662
578196.5 4179264.5 295.950012207
578197.25 4179264.75 295.760009766
578197.4375 4179264.75 295.75
578198.125 4179264.5 295.730010986
578198.3125 4179264.75 295.75
578175.0625 4179265.25 295.940002441
578175.1875 4179265 295.959991455
578175.9375 4179265.25 296.109985352
578176.875 4179265 296.019989014
578177.0625 4179265.25 295.970001221
578177.75 4179265 296
578178 4179265 295.839996338
578178.6875 4179265.5 296.100006104
578178.9375 4179265.25 296.160003662
578179.625 4179265.25 296.029998779
578179.875 4179265.25 295.880004883
578180.625 4179265.25 295.920013428
578181.5 4179265.25 296.480010986
578181.75 4179265 296.320007324
578182.5 4179265 296.339996338
578182.8125 4179265.25 296.190002441
578183.5625 4179265 296.290008545
578183.8125 4179265 296.100006104
578184.75 4179265.25 296.019989014
578184.9375 4179265.25 295.820007324
578185.8125 4179265 296.010009766
578186.0625 4179265.25 296.100006104
578186.9375 4179265.25 295.989990234
578187.125 4179265.25 296
578187.9375 4179265.25 296.029998779
578188.125 4179265 296.019989014
578189 4179265.25 295.700012207
578189.1875 4179265.5 296.070007324
578189.9375 4179265.25 296.160003662
578190.125 4179265.25 296.209991455
578190.9375 4179265.5 296.079986572
578191.125 4179265 295.779998779
578191.8125 4179265 296.019989014
578192.0625 4179265 296.010009766
578192.8125 4179265.5 295.970001221
578193 4179265.25 296.019989014
578193.6875 4179265 295.899993896
578193.875 4179265.5 296.160003662
578194.625 4179265.5 295.829986572
578194.75 4179265.25 296.369995117
578195.5 4179265.25 295.910003662
578195.6875 4179265.25 295.839996338
578196.375 4179265 295.790008545
578196.5625 4179265 295.950012207
578197.3125 4179265.5 295.880004883
578197.5 4179265.25 295.839996338
578198.1875 4179265 295.760009766
578198.375 4179265.25 295.929992676
578174.125 4179265.5 296.040008545
578174.3125 4179265.5 296.049987793
578174.375 4179266 295.940002441
578175.0625 4179266 296.130004883
578175.25 4179265.75 295.929992676
578175.9375 4179266 296.390014648
578176.125 4179265.5 296.160003662
578176.25 4179266 295.970001221
578176.9375 4179265.75 296.019989014
578177.0625 4179265.75 296.429992676
578177.8125 4179265.75 296.309997559
578177.9375 4179265.75 296.549987793
578178.9375 4179266 296.549987793
578179.75 4179265.75 295.869995117
578179.875 4179266 296.200012207
578180.6875 4179265.75 296
578180.8125 4179265.5 296.149993896
578180.875 4179266 295.880004883
578181.625 4179265.5 295.880004883
578181.8125 4179265.5 295.890014648
578182.625 4179265.75 296.200012207
578182.8125 4179266 296.390014648
578183.625 4179265.5 296.049987793
578183.875 4179265.5 295.950012207
578184.75 4179266 296.059997559
578185 4179265.75 295.880004883
578185.875 4179265.5 296.059997559
578186.0625 4179265.75 296.140014648
578187 4179266 296.019989014
578187.1875 4179266 296.079986572
578188 4179265.75 295.980010986
578188.1875 4179265.5 296.070007324
578189 4179265.75 296
578189.25 4179266 296
578190 4179265.75 296.079986572
578190.1875 4179265.75 296.160003662
578191.1875 4179265.75 295.809997559
578191.9375 4179265.5 295.869995117
578192.125 4179265.5 295.940002441
578193.0625 4179266 295.899993896
578193.75 4179265.75 296.109985352
578193.9375 4179266 295.950012207
578194.6875 4179266 295.809997559
578194.8125 4179265.75 296.339996338
578195.5 4179265.75 296.059997559
578195.75 4179266 296.119995117
578196.4375 4179265.5 295.779998779
578196.625 4179265.5 295.799987793
578197.5625 4179265.75 295.670013428
578198.1875 4179265.75 296.119995117
578174.1875 4179266.25 296.010009766
578174.375 4179266.5 295.940002441
578175.125 4179266.5 296.029998779
578176 4179266.5 296.190002441
578176.25 4179266.5 295.869995117
578177 4179266.25 295.940002441
578177.125 4179266.25 296.450012207
578177.8125 4179266.25 296.720001221
578178 4179266.25 296.880004883
578178.6875 4179266.25 296.980010986
578179.75 4179266.5 295.920013428
578179.9375 4179266.5 296.070007324
578180.75 4179266.5 295.920013428
578181.6875 4179266.25 295.929992676
578181.875 4179266.25 296.119995117
578182.625 4179266.25 296.720001221
578183.6875 4179266.25 296.459991455
578183.875 4179266 296.119995117
578184.8125 4179266.5 295.970001221
578185.0625 4179266.25 295.820007324
578185.875 4179266.25 296.049987793
578186.125 4179266.25 296.049987793
578187 4179266.5 295.910003662
578187.25 4179266.5 295.880004883
578188.0625 4179266.25 295.989990234
578188.25 4179266 296.010009766
578189.0625 4179266.5 296.079986572
578189.3125 4179266.5 295.989990234
578190.0625 4179266.25 295.910003662
578190.25 4179266.5 296.100006104
578191 4179266 295.989990234
578191.1875 4179266.25 296.149993896
578191.9375 4179266.25 295.910003662
578192.1875 4179266 295.910003662
578192.8125 4179266 296.220001221
578193.125 4179266.5 295.980010986
578193.8125 4179266.25 295.790008545
578194 4179266.5 295.799987793
578194.875 4179266.25 296.179992676
578195.5625 4179266.5 296.059997559
578195.8125 4179266.5 295.829986572
578196.5 4179266.25 295.859985352
578196.6875 4179266 295.739990234
578197.375 4179266 295.980010986
578197.5625 4179266.5 296.109985352
578175.375 4179266.75 295.940002441
578176.125 4179267 295.989990234
578176.3125 4179267 295.980010986
578177 4179267 296.100006104
578177.1875 4179266.75 296.079986572
578177.875 4179266.75 296.299987793
578178.0625 4179266.75 296.660003662
578178.75 4179266.75 296.820007324
578178.9375 4179266.5 296.850006104
578179.0625 4179267 296.390014648
578179.8125 4179267 295.779998779
578180 4179267 296.079986572
578180.75 4179267 296.25
578180.875 4179266.75 296.320007324
578181.75 4179266.75 295.820007324
578181.875 4179266.75 296.239990234
578182.625 4179267 296.859985352
578182.8125 4179266.5 296.799987793
578183.6875 4179266.75 296.5
578183.9375 4179266.75 296.260009766
578184.875 4179267.25 296.170013428
578185.0625 4179266.75 295.910003662
578185.9375 4179266.75 296.040008545
578186.1875 4179267 296.320007324
578187.0625 4179267 296.100006104
578187.25 4179267 296.239990234
578188.125 4179267 296.059997559
578188.3125 4179266.75 295.899993896
578189.125 4179267 296.220001221
578189.375 4179267 295.869995117
578190.0625 4179267 296.119995117
578190.3125 4179267 296.079986572
578191 4179266.75 296.179992676
578191.25 4179266.75 296
578192 4179266.75 295.869995117
578192.1875 4179266.75 295.890014648
578192.875 4179266.75 296.049987793
578193.1875 4179267 295.940002441
578193.875 4179266.75 295.820007324
578194.0625 4179267 295.910003662
578194.75 4179266.75 295.950012207
578194.875 4179267 296.529998779
578195.6875 4179267 295.649993896
578195.8125 4179267 295.890014648
578196.5625 4179266.75 295.690002441
578196.6875 4179266.75 295.779998779
578197.4375 4179266.75 295.839996338
578197.5 4179267.25 295.299987793
578197.625 4179267 296.059997559
578174.4375 4179267.25 296.149993896
578175.1875 4179267.25 296.149993896
578175.4375 4179267.25 295.929992676
578176.1875 4179267.5 295.920013428
578177.0625 4179267.5 295.940002441
578177.25 4179267.5 295.989990234
578178 4179267.25 296.029998779
578178.125 4179267.25 296.369995117
578178.875 4179267.25 296.299987793
578179.125 4179267.5 296.230010986
578179.875 4179267.75 296.100006104
578180.0625 4179267.5 296.130004883
578180.8125 4179267.75 296.179992676
578180.9375 4179267.25 296.359985352
578181 4179267.75 295.890014648
578181.75 4179267.5 295.989990234
578181.9375 4179267.25 296.230010986
578182.75 4179267.5 296.410003662
578182.875 4179267.25 296.929992676
578183 4179267.75 296.399993896
578183.8125 4179267.25 295.980010986
578184 4179267.25 296.119995117
578185.125 4179267.5 295.899993896
578186 4179267.5 296.029998779
578186.25 4179267.5 296.059997559
578187.3125 4179267.5 296.010009766
578188.125 4179267.5 296.190002441
578188.375 4179267.25 295.850006104
578189.1875 4179267.75 296.130004883
578189.4375 4179267.75 295.880004883
578190.1875 4179267.5 295.940002441
578190.375 4179267.5 296.100006104
578191.125 4179267.25 296.059997559
578191.3125 4179267.5 296.209991455
578192.0625 4179267.5 296
578192.25 4179267.25 295.950012207
578193 4179267.25 295.890014648
578193.25 4179267.5 295.809997559
578193.875 4179267.5 295.959991455
578194.125 4179267.75 295.980010986
578194.75 4179267.25 296.029998779
578195 4179267.25 295.709991455
578195.75 4179267.5 295.589996338
578195.875 4179267.5 295.809997559
578196.5625 4179267.5 295.809997559
578196.75 4179267.25 295.869995117
578174.3125 4179268 296.269989014
578174.5 4179267.75 296
578175.25 4179267.75 296.230010986
578176.1875 4179268.25 296
578176.3125 4179267.75 296.290008545
578177.125 4179268 296.040008545
578177.3125 4179268 296.010009766
578178 4179268 296.179992676
578178.1875 4179267.75 296.200012207
578178.9375 4179267.75 296.070007324
578179.1875 4179268.25 296.179992676
578179.9375 4179268.25 295.920013428
578180.0625 4179268.25 296.209991455
578180.875 4179268.25 296.029998779
578181.8125 4179268 296.130004883
578182 4179267.75 296.079986572
578182.8125 4179268 295.899993896
578183.0625 4179268 295.989990234
578183.875 4179267.75 296.049987793
578184.0625 4179267.75 296.160003662
578184.9375 4179267.75 296.140014648
578185.1875 4179268 296.070007324
578186.0625 4179268 296.290008545
578186.3125 4179268 295.970001221
578187.125 4179267.75 296.100006104
578187.375 4179268 296.029998779
578188.25 4179268.25 296
578188.375 4179267.75 295.940002441
578189.25 4179268.25 296.010009766
578190.1875 4179268.25 296.410003662
578190.4375 4179268 295.859985352
578191.125 4179267.75 296.130004883
578191.375 4179268 295.929992676
578192.125 4179268 296.079986572
578192.3125 4179267.75 296.070007324
578193 4179267.75 295.809997559
578193.25 4179268 295.760009766
578193.9375 4179268 296.320007324
578194.125 4179268.25 296.140014648
578194.875 4179267.75 295.730010986
578195.0625 4179267.75 295.690002441
578195.75 4179268 295.529998779
578195.9375 4179268 295.850006104
578196.6875 4179268 295.589996338
578196.8125 4179267.75 296.040008545
578174.375 4179268.5 296
578174.5625 4179268.25 296.010009766
578175.3125 4179268.5 296.100006104
578175.5 4179268.5 296.119995117
578176.375 4179268.25 296.220001221
578176.5 4179268.75 295.920013428
578177.1875 4179268.75 295.950012207
578177.375 4179268.5 296.179992676
578178.0625 4179268.5 296.010009766
578178.25 4179268.25 295.959991455
578179 4179268.5 296.079986572
578179.1875 4179268.75 296.140014648
578180.125 4179268.75 296.079986572
578181.0625 4179268.25 296.089996338
578181.875 4179268.75 296.140014648
578182.0625 4179268.5 296.239990234
578182.875 4179268.75 296.130004883
578183.0625 4179268.75 296.209991455
578183.9375 4179268.5 296.059997559
578184.0625 4179268.5 296.220001221
578185 4179268.25 296.130004883
578185.25 4179268.5 295.850006104
578186.125 4179268.5 295.799987793
578186.375 4179268.5 296.019989014
578187.1875 4179268.25 296.279998779
578187.4375 4179268.75 295.970001221
578188.25 4179268.75 296.029998779
578188.4375 4179268.25 295.950012207
578189.3125 4179268.75 295.779998779
578189.4375 4179268.25 296.059997559
578190.25 4179268.75 296.339996338
578190.5 4179268.75 295.970001221
578191.1875 4179268.5 296.049987793
578191.4375 4179268.5 295.910003662
578192.1875 4179268.5 296.040008545
578192.375 4179268.25 295.809997559
578193.0625 4179268.5 295.970001221
578193.3125 4179268.75 296.179992676
578194 4179268.5 295.660003662
578194.25 4179268.75 295.399993896
578194.9375 4179268.5 295.649993896
578195.125 4179268.5 295.519989014
578195.8125 4179268.75 295.859985352
578196 4179268.75 295.779998779
578174.4375 4179269.25 296.010009766
578174.625 4179268.75 296
578175.375 4179269 295.920013428
578175.5625 4179269 296.149993896
578176.25 4179268.75 296.029998779
578176.5 4179269.25 295.910003662
578177.25 4179269.25 296.040008545
578177.375 4179269 296.109985352
578178.125 4179269.25 296.070007324
578178.3125 4179269 296.190002441
578179.0625 4179269 295.950012207
578179.25 4179269.25 295.910003662
578180 4179268.75 295.950012207
578180.1875 4179269.25 296.109985352
578180.9375 4179269 296.119995117
578181.125 4179268.75 296.100006104
578181.1875 4179269.5 295.929992676
578181.9375 4179269.25 295.920013428
578182.0625 4179269 296.299987793
578182.9375 4179269.25 296.209991455
578183.1875 4179269.25 295.940002441
578184 4179269 296
578184.125 4179269 296.190002441
578185.0625 4179269 296.019989014
578185.25 4179269.25 296.209991455
578186.1875 4179269.25 295.920013428
578186.375 4179269.25 296.200012207
578187.25 4179269 296.170013428
578187.5 4179269.25 295.970001221
578188.3125 4179269.25 296.019989014
578188.5 4179269 296.010009766
578189.5 4179269 296.239990234
578190.5 4179269.25 296.059997559
578191.25 4179269 295.929992676
578191.5 4179269 295.929992676
578192.25 4179269.25 295.940002441
578192.4375 4179269 295.779998779
578193.125 4179269 295.950012207
578193.375 4179269.25 295.589996338
578194.0625 4179269 295.5
578194.3125 4179269.25 295.359985352
578195 4179269 295.559997559
578195.1875 4179269 295.510009766
578174.5 4179269.75 296.040008545
578174.625 4179269.5 296.059997559
578175.375 4179269.5 296.239990234
578175.5625 4179269.75 296.209991455
578176.3125 4179269.5 296.059997559
578176.5625 4179270 295.989990234
578177.3125 4179269.75 295.929992676
578177.4375 4179269.75 296.079986572
578178.125 4179269.75 296.480010986
578178.375 4179269.5 295.880004883
578179.0625 4179269.5 295.970001221
578179.3125 4179269.75 295.950012207
578180 4179269.5 296.029998779
578180.25 4179269.75 296.079986572
578180.9375 4179269.5 296.200012207
578182 4179270 296.179992676
578182.125 4179269.5 296.170013428
578183 4179270 296.25
578183.1875 4179269.75 295.940002441
578184 4179269.75 296.119995117
578184.1875 4179269.5 296.089996338
578185.0625 4179269.5 296.100006104
578185.3125 4179269.75 296.079986572
578186.1875 4179269.75 296.089996338
578186.4375 4179269.75 295.980010986
578187.3125 4179269.5 296
578187.5625 4179269.75 295.970001221
578188.5625 4179269.5 295.859985352
578189.3125 4179269.5 296.029998779
578189.5625 4179269.5 296.119995117
578189.625 4179270 295.890014648
578190.25 4179269.5 296.380004883
578190.375 4179270 296.059997559
578190.5625 4179269.75 295.869995117
578191.3125 4179269.5 295.899993896
578191.5 4179269.5 295.869995117
578192.25 4179269.75 296.200012207
578192.4375 4179269.5 296.079986572
578194.1875 4179269.75 295.380004883
578174.5625 4179270.5 296.029998779
578175.4375 4179270.25 296.320007324
578175.6875 4179270.25 296.029998779
578176.375 4179270 295.959991455
578176.625 4179270.5 295.929992676
578177.5 4179270.25 296.260009766
578178.25 4179270.25 296.119995117
578178.375 4179270 296.200012207
578179.125 4179270.25 295.929992676
578179.375 4179270.25 295.899993896
578180.0625 4179270.25 296.329986572
578180.3125 4179270.5 295.890014648
578181 4179270 296.070007324
578181.1875 4179270 296.160003662
578182 4179270.5 296.109985352
578182.1875 4179270 296
578183.0625 4179270.5 295.910003662
578183.25 4179270.25 295.850006104
578184.0625 4179270.25 296.170013428
578184.25 4179270 295.950012207
578185.1875 4179270 295.869995117
578185.375 4179270.25 296.089996338
578186.25 4179270.5 296.25
578186.5 4179270.25 296.059997559
578187.3125 4179270.25 296.440002441
578187.5625 4179270.5 295.940002441
578188.375 4179270 295.989990234
578188.5625 4179270 296.109985352
578189.375 4179270 295.910003662
578190.625 4179270.25 296.070007324
578191.375 4179270.25 295.799987793
578191.5625 4179270.25 295.690002441
578192.375 4179270.25 295.510009766
578192.5 4179270 295.809997559
578174.5625 4179271 296.049987793
578174.75 4179270.5 296.119995117
578175.5 4179270.75 296.130004883
578175.6875 4179270.75 296.190002441
578176.4375 4179270.75 296.070007324
578177.3125 4179270.5 296.190002441
578177.5625 4179270.75 295.970001221
578178.3125 4179271 296.059997559
578178.4375 4179270.5 295.950012207
578179.1875 4179270.75 295.989990234
578179.4375 4179271 296.149993896
578180.125 4179270.75 296.160003662
578180.375 4179271 296.079986572
578181.125 4179270.5 295.809997559
578181.25 4179270.5 296.049987793
578182.0625 4179271 296.119995117
578182.25 4179270.75 295.989990234
578183.3125 4179271 295.959991455
578184.125 4179271 296.25
578184.3125 4179270.75 296.130004883
578185.25 4179270.75 295.869995117
578185.4375 4179270.75 296.010009766
578186.3125 4179271 295.890014648
578186.5 4179271 296.279998779
578187.375 4179270.75 295.980010986
578187.625 4179271 296.130004883
578188.4375 4179270.5 296.049987793
578188.625 4179270.5 295.989990234
578189.4375 4179270.75 296.079986572
578189.6875 4179270.5 296.049987793
578189.75 4179271 295.839996338
578190.4375 4179270.5 295.989990234
578190.6875 4179271 296.109985352
578191.4375 4179270.75 295.920013428
578191.625 4179270.75 296
578174.625 4179271.5 295.970001221
578174.75 4179271.25 296.160003662
578175.5625 4179271.25 296.029998779
578175.75 4179271.25 295.940002441
578176.5 4179271.25 295.970001221
578176.6875 4179271 296.059997559
578177.375 4179271 296.200012207
578177.625 4179271.25 296
578178.3125 4179271.5 296.070007324
578178.5 4179271.25 296.399993896
578179.25 4179271.5 296.019989014
578179.5 4179271.5 296.070007324
578180.1875 4179271.25 296.049987793
578180.375 4179271.5 296.100006104
578181.125 4179271.25 295.880004883
578181.3125 4179271.25 296.190002441
578182.3125 4179271.25 296.010009766
578183.0625 4179271 296.410003662
578183.3125 4179271.5 296.279998779
578184.1875 4179271.5 295.839996338
578184.375 4179271.25 296.040008545
578185.25 4179271.25 296.010009766
578185.5 4179271.5 296.010009766
578186.5625 4179271.5 296.220001221
578187.4375 4179271.25 295.940002441
578187.6875 4179271.5 295.940002441
578188.5 4179271.25 296.010009766
578188.6875 4179271.25 296.130004883
578189.5 4179271.25 296.029998779
578190.4375 4179271.25 296.209991455
578190.6875 4179271.5 296.019989014
578191.5 4179271.25 295.839996338
578174.8125 4179271.75 296.170013428
578175.5625 4179272 296.380004883
578175.8125 4179272 296.160003662
578176.5 4179271.75 296.119995117
578176.6875 4179271.75 296.059997559
578177.4375 4179271.75 296.109985352
578177.6875 4179272 295.989990234
578178.375 4179272.25 296.119995117
578179.3125 4179272 295.940002441
578179.5625 4179272 295.869995117
578180.25 4179271.75 296.089996338
578180.4375 4179272.25 296.089996338
578181.1875 4179271.75 295.940002441
578181.375 4179271.75 296.170013428
578182.125 4179271.75 296.040008545
578182.3125 4179271.75 296.230010986
578183.125 4179271.75 296.450012207
578183.375 4179272 296.119995117
578184.25 4179272 296.190002441
578184.4375 4179271.75 296.070007324
578185.3125 4179272 296.299987793
578185.5 4179272 296.160003662
578186.375 4179271.75 296.290008545
578186.625 4179272 296.309997559
578187.5 4179272 296.160003662
578187.6875 4179272.25 296.380004883
578188.5625 4179271.75 295.920013428
578188.6875 4179271.75 296.380004883
578189.5625 4179271.75 295.890014648
578189.75 4179271.75 296.239990234
578189.8125 4179272.25 295.779998779
578190.5 4179271.75 296.029998779
578190.75 4179272 295.890014648
578174.6875 4179272.25 295.950012207
578175.625 4179272.75 296.450012207
578175.875 4179272.5 295.940002441
578176.5625 4179272.5 296.100006104
578176.75 4179272.25 296.029998779
578177.5 4179272.25 296.070007324
578177.75 4179272.5 295.959991455
578178.625 4179272.25 296.119995117
578179.3125 4179272.5 296.040008545
578179.5625 4179272.75 296.019989014
578180.25 4179272.5 296.079986572
578180.5 4179272.75 296.220001221
578181.25 4179272.5 295.940002441
578181.4375 4179272.25 296.140014648
578182.1875 4179272.25 296.200012207
578182.375 4179272.25 296.119995117
578183.1875 4179272.25 296.070007324
578183.5 4179272.5 295.820007324
578184.5 4179272.25 295.929992676
578188.5625 4179272.5 296.170013428
578188.75 4179272.5 296.459991455
578189.625 4179272.5 295.850006104
578190.5625 4179272.25 295.920013428
578190.8125 4179272.5 295.760009766
578174.75 4179272.75 296.119995117
578174.9375 4179272.75 296.160003662
578175.6875 4179273.25 296.429992676
578175.9375 4179273 295.959991455
578176.625 4179273 296.010009766
578176.8125 4179272.75 295.970001221
578177.5 4179273 296.190002441
578178.4375 4179272.75 296.079986572
578178.6875 4179273 296.010009766
578179.4375 4179273.25 295.890014648
578179.625 4179273.25 295.890014648
578180.3125 4179273 296.140014648
578180.5625 4179273.25 296.170013428
578181.3125 4179273 296.029998779
578181.4375 4179272.75 296.179992676
578182.25 4179272.75 296.209991455
578182.5 4179273 295.950012207
578183.25 4179272.75 296.070007324
578188.625 4179273 295.880004883
578188.875 4179272.75 295.869995117
578189.625 4179273 296.130004883
578189.875 4179272.75 295.940002441
578190.625 4179273 296.019989014
578190.875 4179273.25 295.959991455
578174.75 4179273.5 296.179992676
578175 4179273.5 296.279998779
578175.75 4179273.75 296.220001221
578175.9375 4179273.75 296.25
578176.875 4179273.25 296.010009766
578177.5625 4179273.5 296.190002441
578177.8125 4179273.75 296.029998779
578178.5 4179273.25 296.079986572
578178.6875 4179273.5 296.029998779
578179.4375 4179273.75 296.25
578179.6875 4179273.75 296.040008545
578180.375 4179273.75 296.140014648
578180.625 4179273.75 295.989990234
578181.3125 4179273.75 296.109985352
578181.5 4179273.5 296.290008545
578189.6875 4179273.75 296.149993896
578189.875 4179273.5 296.260009766
578190.6875 4179273.5 296.070007324
578174.8125 4179274 296.089996338
578175 4179274 296.329986572
578175.8125 4179274.25 296.029998779
578176 4179274.25 296.100006104
578176.75 4179274.25 295.929992676
578177.625 4179274 296.029998779
578177.875 4179274.25 296.010009766
578178.5625 4179274 295.950012207
578178.75 4179274 296.160003662
578179.5 4179274.25 295.899993896
578179.75 4179274.25 295.929992676
578180.375 4179274.25 296.450012207
578180.6875 4179274.5 296.059997559
578181.375 4179274.25 296.070007324
578181.5625 4179274 296.170013428
578174.875 4179274.5 296.119995117
578175.0625 4179274.5 296.359985352
578176.8125 4179274.75 295.959991455
578177 4179274.5 295.950012207
578177.6875 4179274.75 296.260009766
578177.875 4179274.75 296.140014648
578178.625 4179274.5 296.119995117
578178.75 4179274.75 296.290008545
578179.5625 4179275 295.959991455
578179.75 4179275 296
578180.5 4179274.75 295.929992676
578180.6875 4179275 296.079986572
578174.9375 4179275.25 296.160003662
578175.125 4179275.25 296.549987793
578176.125 4179275.25 296.049987793
578176.8125 4179275.5 295.980010986
578177 4179275 296.160003662
578177.6875 4179275.25 296.640014648
578177.9375 4179275.5 296.230010986
578178.625 4179275.25 296.079986572
578178.8125 4179275.25 296.160003662
578179.8125 4179275.5 295.970001221
578180.5 4179275.5 296.230010986
578175 4179275.75 296.130004883
578175.1875 4179275.75 296.070007324
578176.125 4179276 296.149993896
578176.875 4179276 296.149993896
578177.0625 4179275.5 295.959991455
578177.75 4179276 296.239990234
578178.6875 4179275.75 296.149993896
578178.875 4179275.75 296.420013428
578179.625 4179275.5 296.089996338
578179.875 4179276 296.010009766
578175.1875 4179276.25 296.470001221
578176.9375 4179276.75 296.209991455
578177.875 4179276.5 296
578178.0625 4179276.5 296.309997559
578178.75 4179276.25 296.070007324
578178.9375 4179276.25 296.029998779
578179.6875 4179276.25 296.010009766
578179.9375 4179276.5 295.980010986
578176 4179276.75 296.089996338
578176.25 4179277 296.239990234
578177.875 4179277 296.239990234
578178.0625 4179277.25 296.510009766
578179 4179277 296.070007324
578179.6875 4179276.75 296.119995117
578180 4179277.25 296
578176.0625 4179277.25 296.190002441
578177 4179277.25 296.170013428
578177.9375 4179277.75 296.089996338
578178.125 4179277.75 296.239990234
578178.875 4179277.5 295.989990234
578179.0625 4179277.5 296.179992676
578179.75 4179277.5 296.140014648
578177 4179277.75 296.059997559
578177.25 4179278 296.059997559
578178 4179278.25 296.070007324
578178.1875 4179278.25 296.239990234
578178.875 4179278.25 296.480010986
578179.0625 4179278 296.200012207
578179.8125 4179278 296.25
578180 4179277.75 296.279998779
578177.3125 4179278.5 296.179992676
578178.0625 4179278.75 296.100006104
578178.25 4179278.75 296.170013428
578179 4179278.75 296.059997559
578179.1875 4179278.5 296.010009766
578179.875 4179278.5 296.170013428
578178.125 4179279.5 296.070007324
578178.3125 4179279.25 296.040008545
578179 4179279.25 295.989990234
578179.1875 4179279.25 296.140014648
578179.9375 4179279.25 295.980010986
578179.0625 4179280 296.160003662
578179.25 4179279.75 296.309997559
578179.9375 4179279.75 296.070007324
578178.4375 4179280.5 296.079986572
578179.3125 4179280.25 296.269989014
578179.1875 4179281 296.029998779
578179.375 4179280.75 296.059997559
578180.0625 4179281 296.049987793
578178.5 4179281.75 296.200012207
578179.4375 4179281.5 296.029998779
578180.125 4179281.5 296.059997559
578180.3125 4179281.25 296.089996338
578190.375 4179281.5 296.100006104
578190.625 4179281.25 296.119995117
578178.3125 4179281.75 296.079986572
578179.25 4179281.75 296.149993896
578180.1875 4179282.25 296.100006104
578180.375 4179281.75 296.059997559
578189.4375 4179282 295.959991455
578189.6875 4179282 295.880004883
578190.4375 4179282 296.059997559
578190.6875 4179282 296.029998779
578191.4375 4179281.75 296
578178.5 4179282.25 296.440002441
578179.25 4179282.25 296.130004883
578179.5 4179282.5 296.029998779
578180.1875 4179282.75 296.220001221
578180.4375 4179282.25 296.119995117
578189.5 4179282.5 296.049987793
578189.6875 4179282.5 296.010009766
578190.4375 4179282.75 296.390014648
578190.75 4179282.5 296.029998779
578191.5 4179282.5 296
578179.3125 4179283 296.179992676
578180.25 4179283.25 296.059997559
578180.4375 4179283 296.239990234
578181.1875 4179283.25 296.160003662
578181.4375 4179283 296.010009766
578188.5 4179283.25 296.109985352
578188.6875 4179283 296.140014648
578189.5 4179283.25 296.070007324
578189.75 4179283.25 296.200012207
578190.5 4179283.25 296.730010986
578190.6875 4179283.25 296.839996338
578191.5 4179283 296.359985352
578181.25 4179283.75 296.299987793
578182.4375 4179283.75 296.279998779
578186.375 4179283.75 296.010009766
578186.625 4179284 295.970001221
578187.4375 4179283.5 296.029998779
578187.6875 4179283.5 296.040008545
578188.5625 4179284 296.040008545
578188.75 4179283.5 296.049987793
578189.5625 4179283.75 295.959991455
578189.75 4179283.75 296.309997559
578190.5 4179284 296.820007324
578190.75 4179283.75 296.720001221
578191.5 4179283.75 296.429992676
578191.75 4179283.5 296.119995117
578181.3125 4179284.25 296.079986572
578182.25 4179284.5 296.179992676
578182.5 4179284.25 296.130004883
578183.25 4179284.25 295.980010986
578183.5 4179284.25 296.049987793
578184.25 4179284.25 296.170013428
578184.4375 4179284 296.179992676
578185.25 4179284 296.25
578185.5 4179284.25 296.200012207
578186.4375 4179284.5 295.959991455
578187.5 4179284.25 296.010009766
578187.6875 4179284 296.25
578188.75 4179284.25 296.329986572
578189.625 4179284.25 296.019989014
578189.875 4179284.25 296.019989014
578190.5625 4179284.5 296.570007324
578190.875 4179284.25 296.109985352
578191.625 4179284.25 295.829986572
578191.8125 4179284 296.029998779
578181.375 4179285 296.170013428
578182.3125 4179285 296.190002441
578182.5625 4179284.75 295.980010986
578183.25 4179284.75 296.160003662
578183.5 4179285 296.089996338
578184.5 4179284.75 296.170013428
578185.3125 4179284.5 295.899993896
578185.5625 4179284.75 296.140014648
578186.625 4179284.5 296.019989014
578187.5 4179284.75 295.980010986
578187.75 4179284.5 296.040008545
578188.5625 4179284.5 296.140014648
578188.8125 4179284.75 296.209991455
578189.6875 4179285 295.980010986
578189.875 4179285 296.170013428
578190.6875 4179285 296.220001221
578190.9375 4179284.75 296.119995117
578191.6875 4179284.75 295.910003662
578191.875 4179284.5 296.059997559
578180.6875 4179285.25 296.059997559
578181.4375 4179285.5 296.109985352
578181.625 4179285.25 296.130004883
578182.375 4179285.5 296.190002441
578182.5625 4179285.5 296.170013428
578183.3125 4179285.5 296.079986572
578183.5625 4179285.5 296.170013428
578184.3125 4179285.25 296.079986572
578184.5625 4179285.25 296.279998779
578186.4375 4179285 296.019989014
578186.6875 4179285 296.140014648
578187.5625 4179285.25 296.100006104
578187.8125 4179285 296.029998779
578188.625 4179285 296.149993896
578188.9375 4179285.25 295.809997559
578189.75 4179285.5 296.100006104
578189.9375 4179285.5 296.010009766
578190.75 4179285.5 295.970001221
578191 4179285.5 296.070007324
578191.75 4179285.5 295.809997559
578191.9375 4179285.25 296.130004883
578181.4375 4179286.25 296.209991455
578181.6875 4179285.75 296.179992676
578183.375 4179286 296.140014648
578183.625 4179286 296.25
578184.375 4179286 296.309997559
578184.625 4179285.75 296.230010986
578185.4375 4179285.75 296.010009766
578185.6875 4179286 295.929992676
578186.5 4179285.75 296
578186.75 4179285.75 295.920013428
578187.625 4179286 296.290008545
578187.875 4179285.75 295.989990234
578188.6875 4179285.75 296.029998779
578188.9375 4179285.75 296
578189.75 4179286.25 296.100006104
578190.8125 4179286.25 296.019989014
578191.0625 4179286 296.010009766
578191.75 4179286.25 296.589996338
578192 4179285.75 296.079986572
578181.75 4179286.25 296.089996338
578183.4375 4179286.5 296.109985352
578183.6875 4179286.75 296.059997559
578184.4375 4179286.5 295.970001221
578184.6875 4179286.25 295.959991455
578185.5 4179286.25 295.920013428
578185.75 4179286.5 295.940002441
578186.5625 4179286.25 295.989990234
578186.8125 4179286.25 295.950012207
578187.6875 4179286.5 295.950012207
578187.9375 4179286.25 296.059997559
578188.75 4179286.25 296
578189 4179286.5 296.269989014
578189.8125 4179286.75 296.010009766
578190.0625 4179286.5 296.100006104
578191.125 4179286.5 295.850006104
578191.8125 4179286.75 296.100006104
578192 4179286.5 296.239990234
578182.4375 4179286.75 296.279998779
578183.5 4179287.25 296.049987793
578184.4375 4179287.25 296.510009766
578184.75 4179287 296.160003662
578185.5 4179287 296.179992676
578185.8125 4179287.25 296.070007324
578186.625 4179286.75 296.059997559
578186.875 4179286.75 296.089996338
578187.6875 4179287.25 296.339996338
578187.9375 4179287 296.279998779
578188.8125 4179287 296.220001221
578189.0625 4179287 296.119995117
578190.875 4179286.75 295.940002441
578191.125 4179287 295.880004883
578192.0625 4179287 296.019989014
578192.75 4179287 296.720001221
578182.75 4179287.75 296.070007324
578183.5625 4179287.75 296.040008545
578183.6875 4179287.25 296.559997559
578183.75 4179287.75 296.130004883
578184.5625 4179287.75 296.100006104
578184.75 4179287.5 296.049987793
578185.5625 4179287.5 296.25
578186.6875 4179287.5 296.019989014
578186.875 4179287.5 296.160003662
578187.8125 4179287.75 296.019989014
578188 4179287.5 296.140014648
578188.875 4179287.5 296.100006104
578189.125 4179287.5 296.100006104
578189.875 4179287.25 296.089996338
578190.1875 4179287.75 295.880004883
578190.9375 4179287.25 296.010009766
578191.1875 4179287.75 295.890014648
578192.0625 4179287.75 296.839996338
578192.8125 4179287.5 296.329986572
578193 4179287.5 296.869995117
578182.8125 4179288.25 296.119995117
578183.5625 4179288.5 296.160003662
578184.625 4179288.25 296.029998779
578184.8125 4179288 296.119995117
578185.625 4179288.25 296.209991455
578185.875 4179288.25 296.029998779
578186.75 4179288 295.970001221
578186.9375 4179288 296.079986572
578187.8125 4179288.25 296.059997559
578188.0625 4179288 296.130004883
578188.9375 4179288 295.910003662
578189.125 4179288 296.170013428
578189.9375 4179288 296.140014648
578190.25 4179288.25 295.980010986
578190.9375 4179288 296.079986572
578191.25 4179288.25 296.170013428
578191.875 4179288 296.450012207
578192.125 4179288.25 296.670013428
578192.875 4179288 296.640014648
578193.0625 4179288 296.529998779
578193.75 4179288 296.850006104
578194 4179288 296.820007324
578196.625 4179288.25 295.790008545
578182.625 4179288.5 296.089996338
578182.875 4179288.75 296.149993896
578184.6875 4179289 296.029998779
578184.875 4179288.75 296.010009766
578185.6875 4179288.75 296.309997559
578185.9375 4179289 296.130004883
578187.875 4179289 296.079986572
578188.125 4179288.5 296.100006104
578188.9375 4179288.5 296.019989014
578189.1875 4179288.75 296.170013428
578190 4179288.5 295.980010986
578191 4179288.5 295.910003662
578191.3125 4179288.75 295.989990234
578192 4179288.5 296.200012207
578192.25 4179288.5 295.910003662
578192.9375 4179288.5 296.170013428
578193.125 4179288.5 296.609985352
578193.8125 4179288.5 296.579986572
578194.0625 4179288.75 296.790008545
578194.75 4179289 297.019989014
578196.6875 4179288.75 296.059997559
578196.875 4179288.5 295.989990234
578197.5625 4179288.5 295.829986572
578197.8125 4179288.75 295.850006104
578182.6875 4179289.25 296.179992676
578183.625 4179289 296.170013428
578184.6875 4179289.5 296.010009766
578184.9375 4179289.25 296.260009766
578185.75 4179289.5 296.149993896
578186 4179289.5 296.119995117
578186.8125 4179289.25 296.179992676
578187.0625 4179289 296.070007324
578187.9375 4179289.5 295.970001221
578188.1875 4179289 296
578189 4179289.25 296.059997559
578189.25 4179289.25 295.890014648
578190.0625 4179289 296.040008545
578190.3125 4179289.5 296.019989014
578191.0625 4179289 295.809997559
578191.3125 4179289.5 296
578192 4179289 296.390014648
578192.25 4179289.25 296.470001221
578193 4179289.25 296.410003662
578193.1875 4179289.25 296.480010986
578193.875 4179289 296.660003662
578194.125 4179289.25 296.649993896
578194.875 4179289.5 296.609985352
578195.0625 4179289 296.700012207
578196.75 4179289.25 295.899993896
578196.9375 4179289 295.989990234
578197.5625 4179289.25 296.170013428
578197.8125 4179289.25 295.890014648
578185.8125 4179290 296.070007324
578186.875 4179289.75 296.209991455
578188.25 4179289.75 296.019989014
578189.0625 4179289.75 296.010009766
578190.0625 4179289.75 296.149993896
578190.375 4179290 295.920013428
578191.125 4179289.75 295.899993896
578191.375 4179290 296.040008545
578192.0625 4179289.75 296.320007324
578192.375 4179289.75 295.820007324
578193.0625 4179289.75 296.309997559
578193.3125 4179289.5 296.029998779
578193.9375 4179289.75 296.660003662
578194.25 4179289.75 296.119995117
578194.9375 4179290 296.459991455
578195.125 4179289.5 296.549987793
578196.0625 4179290 296.059997559
578196.75 4179290 296.070007324
578197 4179289.75 295.779998779
578197.5625 4179289.75 296.510009766
578197.875 4179290 296.100006104
578188 4179290 295.929992676
578190.125 4179290.25 296.190002441
578190.4375 4179290.5 295.940002441
578191.1875 4179290.25 296.070007324
578191.4375 4179290.5 296.209991455
578192.1875 4179290.25 295.839996338
578192.4375 4179290.25 295.809997559
578193.125 4179290.25 295.989990234
578193.3125 4179290.25 296.410003662
578194 4179290.25 296.570007324
578194.25 4179290.25 296.429992676
578195 4179290.75 296.480010986
578195.125 4179290.25 296.619995117
578195.875 4179290.25 296.429992676
578196.1875 4179290.5 295.720001221
578196.8125 4179290.5 295.959991455
578197.0625 4179290.25 295.809997559
578190.1875 4179290.75 296.049987793
578191.1875 4179291 296.209991455
578191.5 4179291 296.040008545
578192.1875 4179290.75 296.130004883
578192.4375 4179291 296.130004883
578193.1875 4179291 295.890014648
578193.375 4179290.75 295.970001221
578194.0625 4179290.75 296.239990234
578194.3125 4179290.75 296.149993896
578195.1875 4179290.75 296.829986572
578195.9375 4179290.75 296.279998779
578196.1875 4179291 295.880004883
578197.0625 4179290.75 295.880004883
578193.4375 4179291.25 295.989990234
