# .PCD v.7 - Point Cloud Data file format
VERSION .7
FIELDS x y z
SIZE 4 4 4
TYPE F F F
COUNT 1 1 1
WIDTH 969
HEIGHT 1
VIEWPOINT 0 0 0 1 0 0 0
POINTS 969
DATA ascii	
0.096609497162  0.724250174372  -0.381118881119
0.0949033691752  0.748895605679  -0.262237762238
0.0927707091967  0.77447105324  -0.206293706294
0.0902115172166  0.801906533354  -0.234265734266
0.086799261248  0.832132062296  -0.353146853147
0.0846666012645  0.857237851657  -0.262237762238
0.0821074092893  0.884212973717  -0.300699300699
0.0791216853124  0.91211346198  -0.328671328671
0.0769932906516  0.938614275744  -0.286713286713
0.0744298333537  0.966054405953  -0.293706293706
0.0714441093818  0.994419902343  -0.34965034965
0.0573685535008  0.980004650074  -0.248251748252
0.059927745481  0.953964194363  -0.241258741259
0.0620604054595  0.927923738653  -0.248251748252
0.064193065443  0.902813299219  -0.293706293706
0.0663299907442  0.87863287606  -0.356643356643
0.068458385405  0.852592420372  -0.356643356643
0.0714441093818  0.825621948385  -0.307692307692
0.074003301357  0.798656126472  -0.29020979021
0.0757094293438  0.77447105324  -0.346153846154
0.0786951533157  0.747500581254  -0.307692307692
0.0808278132992  0.72239014182  -0.339160839161
0.08295620796  0.696349686109  -0.346153846154
0.0855196652579  0.670309230399  -0.321678321678
0.087656590559  0.645663799113  -0.395104895105
0.0897849852199  0.620088351552  -0.391608391608
0.0919176452033  0.594512903969  -0.41958041958
0.0944768371785  0.568472448258  -0.416083916084
0.0974625611554  0.540106951868  -0.332167832168
0.100021753131  0.514061846084  -0.332167832168
0.102154413114  0.489421064872  -0.391608391608
0.104713605089  0.462915601013  -0.377622377622
0.107272797069  0.436410137175  -0.36013986014
0.10940119173  0.410834689614  -0.384615384615
0.111964649028  0.384329225755  -0.363636363636
0.113670777015  0.360613810745  -0.472027972028
0.115803436993  0.334573355035  -0.479020979021
0.119215692967  0.305742850496  -0.367132867133
0.120495288952  0.282027435487  -0.482517482517
0.122627948936  0.256916996052  -0.531468531469
0.125191406233  0.230411532193  -0.51048951049
0.127746332891  0.203441060207  -0.48951048951
0.130309790189  0.177400604518  -0.503496503497
0.132864716846  0.150430132531  -0.479020979021
0.139262696792  0.111834457104  0.0454545454545
0.14267495276  0.0834736107872  0.136363636364
0.144381080747  0.0588235294067  0.0804195804196
0.143101484757  0.0444082771372  -0.43006993007
0.145234144741  0.0188328295757  -0.465034965035
0.147366804719  -0.00627760985857  -0.517482517483
0.149499464703  -0.0313880492929  -0.559440559441
0.15205439136  -0.0583585212794  -0.531468531469
0.155044380655  -0.0857940013932  -0.468531468531
0.157599307312  -0.11276447338  -0.437062937063
0.16016276461  -0.139269937217  -0.437062937063
0.162299689911  -0.16578005115  -0.43006993007
0.164428084572  -0.190885840511  -0.472027972028
0.166134212559  -0.21460125552  -0.611888111888
0.16826260722  -0.240176703082  -0.65034965035
0.171252596514  -0.267612183217  -0.576923076923
0.173380991175  -0.293657289001  -0.601398601399
0.175517916476  -0.319693094638  -0.615384615385
0.17765057646  -0.344338525924  -0.681818181818
0.179783236438  -0.369909323412  -0.716783216783
0.183195492412  -0.399209486173  -0.615384615385
0.18532815239  -0.425249941862  -0.636363636364
0.187460812374  -0.449895373169  -0.699300699301
0.189589207034  -0.476400837006  -0.692307692308
0.192579196329  -0.504301325269  -0.629370629371
0.19470759099  -0.528946756576  -0.702797202797
0.197271048288  -0.555456870487  -0.685314685315
0.199403708271  -0.581492676124  -0.70979020979
0.20153636825  -0.607068123686  -0.755244755245
0.203669028233  -0.632643571269  -0.783216783217
0.206228220208  -0.659614043234  -0.772727272727
0.209213944185  -0.687514531497  -0.685314685315
0.214758860137  -0.72239014182  -0.276223776224
0.219877244093  -0.755870727739  0.0699300699301
0.217318052112  -0.767960939307  -0.618881118881
0.217318052112  -0.787960939307  -0.940559440559
0.220303776089  -0.816321785624  -0.853146853147
0.222862968065  -0.842827249483  -0.853146853147
0.225422160045  -0.870262729597  -0.832167832168
0.227554820023  -0.895838177158  -0.853146853147
0.229687480007  -0.920948616593  -0.937062937063
0.232242406664  -0.948384096706  -0.891608391608
0.235658927955  -0.976284584969  -0.793706293706
0.185754684387  -0.99302487794  -0.898601398601
0.182768960415  -0.964659381528  -0.944055944056
0.180636300431  -0.93954429202  -0.84965034965
0.178077108456  -0.913043478256  -0.84965034965
0.175944448473  -0.886998372472  -0.814685314685
0.173380991175  -0.859102534283  -0.832167832168
0.170399532521  -0.832132062296  -0.842657342657
0.16826260722  -0.805621948385  -0.818181818182
0.166134212559  -0.780051150897  -0.751748251748
0.163148488582  -0.752150662635  -0.800699300699
0.16016276461  -0.724245524298  -0.877622377622
0.157599307312  -0.697744710534  -0.863636363636
0.155470912651  -0.671239246675  -0.811188811189
0.153338252668  -0.646128807241  -0.744755244755
0.150779060693  -0.618693327127  -0.755244755245
0.148219868712  -0.592187863289  -0.734265734266
0.146087208734  -0.566612415706  -0.678321678322
0.143528016754  -0.539176935592  -0.699300699301
0.140973090096  -0.512671471754  -0.660839160839
0.138409632798  -0.486161357822  -0.681818181818
0.135854706141  -0.459660544057  -0.653846153846
0.13371778084  -0.432690072071  -0.625874125874
0.13115858886  -0.406184608233  -0.597902097902
0.128599396884  -0.379214136247  -0.590909090909
0.126040204904  -0.352708672409  -0.566433566434
0.123481012929  -0.324808184146  -0.608391608392
0.120921820949  -0.29783771216  -0.604895104895
0.117936096977  -0.270406882119  -0.625874125874
0.115803436993  -0.244826784463  -0.566433566434
0.113244245018  -0.218325970698  -0.552447552448
0.111111585035  -0.191350848638  -0.538461538462
0.10855239306  -0.165310392928  -0.486013986014
0.106846265073  -0.139734945366  -0.423076923077
0.107272797069  -0.122529644269  0.006993006993
0.104713605089  -0.0950941641547  -0.0244755244755
0.102154413114  -0.0685887002954  -0.0034965034965
0.100874817124  -0.0448732852861  0.129370629371
0.100021753131  -0.0234829109564  0.374125874126
0.0970360291587  0.00488258545518  0.328671328671
0.0949033691752  0.0299930248678  0.388111888112
0.0919176452033  0.0583585212794  0.356643356643
0.0885053892298  0.0885840502217  0.223776223776
0.0919176452033  0.0974192048342  1
0.078268621319  0.157870262719  -0.43006993007
0.0757094293438  0.183910718429  -0.395104895105
0.072723705367  0.212276214841  -0.444055944056
0.0701645133918  0.239246686806  -0.426573426573
0.0676053214116  0.267147175068  -0.458041958042
0.0650461294364  0.293182980705  -0.416083916084
0.0620604054595  0.321553127169  -0.461538461538
0.0595012134843  0.348523599155  -0.461538461538
0.0565154895075  0.376889095567  -0.51048951049
0.0548093615256  0.40199953498  -0.416083916084
0.0518236375488  0.430830039519  -0.496503496503
0.0496909775703  0.456405487102  -0.426573426573
0.0475583175868  0.48244594279  -0.370629370629
0.0445725936149  0.509881422926  -0.384615384615
0.0424399336314  0.535921878636  -0.34965034965
0.0398850069739  0.562427342474  -0.325174825175
0.0377480816727  0.588467798184  -0.269230769231
0.0351888896926  0.615903278298  -0.283216783217
0.0322031657207  0.64426877471  -0.321678321678
0.0296397084228  0.670778888621  -0.29020979021
0.0262317177719  0.700534759363  -0.395104895105
0.0236767911144  0.727505231327  -0.388111888112
0.0211133338165  0.754475703314  -0.377622377622
0.018558407159  0.782376191577  -0.395104895105
0.0168480138546  0.806556614735  -0.272727272727
0.0142888218744  0.833531736795  -0.262237762238
0.0117296298992  0.861427574984  -0.27972027972
0.00831310860794  0.890258079501  -0.342657342657
0.00618471394711  0.917228551488  -0.332167832168
0.00362552196694  0.943738665421  -0.307692307692
0.00106632999174  0.970704487312  -0.307692307692
-0.00149286198843  0.998139967448  -0.318181818182
-0.0172745458512  0.998604975575  -0.293706293706
-0.0147153538711  0.972564519865  -0.272727272727
-0.0130134912069  0.948849104855  -0.363636363636
-0.0104500339091  0.922808649145  -0.34965034965
-0.00789510725157  0.896768193434  -0.335664335664
-0.00490511795703  0.867937688896  -0.234265734266
-0.00276819265587  0.842827249461  -0.262237762238
-0.000639797995042  0.817716810049  -0.304195804196
0.00106632999174  0.794931411294  -0.416083916084
0.00405205396364  0.76749593118  -0.356643356643
0.00661124594381  0.740530109267  -0.304195804196
0.00874390592231  0.715415019759  -0.346153846154
0.0113030979025  0.688909555922  -0.353146853147
0.0138622898777  0.662869100211  -0.34965034965
0.0159949498612  0.636828644501  -0.36013986014
0.0181276098446  0.611718205066  -0.388111888112
0.0202602698231  0.586607765632  -0.423076923077
0.0228194618033  0.560106951868  -0.405594405594
0.0249521217818  0.535456870487  -0.461538461538
0.0283643777554  0.507091374097  -0.367132867133
0.0313501017273  0.479655893984  -0.304195804196
0.0334827617108  0.4540804464  -0.342657342657
0.0356154216893  0.427574982563  -0.342657342657
0.0377480816727  0.403399209478  -0.41958041958
0.0403030083303  0.376889095567  -0.388111888112
0.0428664656281  0.350383631708  -0.374125874126
0.0450033909293  0.324808184146  -0.398601398601
0.0479848495835  0.297372704011  -0.346153846154
0.050117509567  0.271797256449  -0.381118881119
0.0522501695455  0.247151825164  -0.454545454545
0.0548093615256  0.219716345028  -0.416083916084
0.0565154895075  0.196000930019  -0.506993006993
0.0590746814876  0.169030458032  -0.475524475524
0.072723705367  0.109974424551  0.91958041958
0.072723705367  0.0918391071774  0.587412587413
0.072723705367  0.0723041153265  0.300699300699
0.0752828973471  0.0462683096895  0.297202797203
0.077411292008  0.0202232039056  0.297202797203
0.0799747493058  -0.00581260173132  0.29020979021
0.0812543452959  -0.0285980004644  0.136363636364
0.0833870052744  -0.0537084398987  0.0909090909091
0.0859461972546  -0.0797488956091  0.101398601399
0.0880745919154  -0.105324343171  0.0734265734266
0.0897849852199  -0.129039758202  -0.048951048951
0.0885053892298  -0.145780051151  -0.482517482517
0.0914911132066  -0.173680539413  -0.412587412587
0.0936195078675  -0.198790978848  -0.465034965035
0.0949033691752  -0.222041385729  -0.618881118881
0.0974625611554  -0.247612183218  -0.646853146853
0.100021753131  -0.275517321554  -0.590909090909
0.102580945111  -0.302022785391  -0.573426573427
0.105140137086  -0.327598232975  -0.604895104895
0.107699329066  -0.355033713088  -0.559440559441
0.109831989045  -0.380144152523  -0.601398601399
0.112391181025  -0.40664961636  -0.590909090909
0.114946107682  -0.432225063944  -0.608391608392
0.116656500987  -0.456865845155  -0.699300699301
0.119215692967  -0.483375959067  -0.702797202797
0.121774884942  -0.510811439202  -0.643356643357
0.123907544926  -0.535456870487  -0.72027972028
0.126466736901  -0.562427342474  -0.70979020979
0.128172864888  -0.587072773781  -0.804195804196
0.130727791545  -0.613582887692  -0.765734265734
0.132864716846  -0.639618693329  -0.804195804196
0.135423908826  -0.666119507093  -0.814685314685
0.137983100802  -0.693094629153  -0.79020979021
0.140542292782  -0.718665426641  -0.804195804196
0.14267495276  -0.744710532425  -0.835664335664
0.145234144741  -0.771215996285  -0.84965034965
0.147366804719  -0.797256451973  -0.874125874126
0.149925996699  -0.823761915833  -0.874125874126
0.152485188674  -0.849802371543  -0.867132867133
0.155470912651  -0.877702859806  -0.804195804196
0.157599307312  -0.903278307367  -0.853146853147
0.159736232613  -0.929318763078  -0.891608391608
0.161868892597  -0.954894210639  -0.926573426573
0.164428084572  -0.98093466635  -0.940559440559
0.114097309012  -0.981399674499  -0.898601398601
0.111964649028  -0.954894210639  -0.86013986014
0.10940119173  -0.927919088579  -0.86013986014
0.107272797069  -0.902813299219  -0.783216783217
0.104282807775  -0.874447802829  -0.839160839161
0.101727881117  -0.848407347118  -0.811188811189
0.0987378918228  -0.820506858855  -0.853146853147
0.096609497162  -0.793996744944  -0.811188811189
0.0936195078675  -0.766565914904  -0.846153846154
0.0919176452033  -0.741460125543  -0.758741258741
0.0889319212265  -0.71308997908  -0.814685314685
0.0859461972546  -0.686119507093  -0.839160839161
0.0833870052744  -0.659149035107  -0.832167832168
0.0812543452959  -0.632643571269  -0.804195804196
0.0786951533157  -0.60613810741  -0.783216783217
0.0757094293438  -0.578707277369  -0.797202797203
0.0735767693604  -0.552197163458  -0.786713286713
0.0710175773851  -0.526161357821  -0.751748251748
0.0693114493984  -0.501046268313  -0.657342657343
0.0667479921005  -0.47547082073  -0.615384615385
0.0646195974397  -0.448965356893  -0.58041958042
0.0620604054595  -0.421534526852  -0.590909090909
0.0590746814876  -0.394094396643  -0.625874125874
0.0569420215041  -0.368518949082  -0.562937062937
0.0543828295289  -0.341548477095  -0.534965034965
0.0518236375488  -0.314578005109  -0.520979020979
0.0488379135769  -0.285282492442  -0.604895104895
0.0467052535934  -0.260637061157  -0.517482517483
0.0437195296215  -0.232271564745  -0.576923076923
0.0407338056446  -0.204371076483  -0.611888111888
0.0381746136694  -0.178330620794  -0.587412587413
0.036041953686  -0.151825156935  -0.562937062937
0.0330562297141  -0.124389676821  -0.597902097902
0.0313501017273  -0.0997442455138  -0.513986013986
0.0287909097521  -0.0727784236223  -0.496503496503
0.0258051857752  -0.0448732852861  -0.506993006993
0.0236767911144  -0.0183678214268  -0.468531468531
0.0304970377339  -0.019297837703  0.734265734266
0.0245255897851  0.0169727970234  0.325174825175
0.0223929298066  0.04394326901  0.342657342657
0.0198337378265  0.0709137409966  0.367132867133
0.0168480138546  0.0983492211104  0.342657342657
0.0155684178645  0.12206463612  0.486013986014
0.00533164995372  0.170895140658  -0.440559440559
0.00319898997025  0.197860962571  -0.423076923077
0.000639797995042  0.223431760059  -0.370629370629
-0.0023501912995  0.252271564745  -0.451048951049
-0.00490511795703  0.279237386658  -0.465034965035
-0.0070377779405  0.304808184146  -0.384615384615
-0.0095969699157  0.331783306206  -0.381118881119
-0.0121561618959  0.357823761917  -0.367132867133
-0.0155684178645  0.388049290859  -0.479020979021
-0.0181276098446  0.414554754697  -0.433566433566
-0.0206868018198  0.441525226683  -0.41958041958
-0.0232459938  0.468960706819  -0.437062937063
-0.0253786537785  0.495001162508  -0.370629370629
-0.0279378457587  0.521506626367  -0.370629370629
-0.0304970377339  0.547547082077  -0.342657342657
-0.0330562297141  0.575447570318  -0.342657342657
-0.0356154216893  0.602418042305  -0.311188811189
-0.0381746136694  0.629858172514  -0.318181818182
-0.0411603376413  0.65821901883  -0.370629370629
-0.0437195296215  0.685189490817  -0.367132867133
-0.0458521896  0.710764938379  -0.297202797203
-0.0479848495835  0.736805394089  -0.237762237762
-0.0509663082377  0.764705882352  -0.265734265734
-0.0535297655356  0.792141362465  -0.283216783217
-0.0560846921931  0.819111834452  -0.29020979021
-0.0586481494909  0.846082306439  -0.27972027972
-0.0620604054595  0.875377819105  -0.353146853147
-0.0637665334463  0.900023250412  -0.265734265734
-0.0667479921005  0.927923738653  -0.297202797203
-0.0697379813951  0.955363868862  -0.307692307692
-0.0718749066962  0.981864682626  -0.29020979021
-0.086799261248  0.980004650074  -0.237762237762
-0.0846666012645  0.955819576842  -0.27972027972
-0.0825382066037  0.930713787481  -0.321678321678
-0.0804012813025  0.90513833992  -0.346153846154
-0.0778420893223  0.879097884209  -0.34965034965
-0.0748563653504  0.850737037893  -0.258741258741
-0.0722929080526  0.82422692396  -0.244755244755
-0.0697379813951  0.797721460122  -0.258741258741
-0.0676053214116  0.772611020688  -0.297202797203
-0.0650461294364  0.746565914904  -0.293706293706
-0.0629134694529  0.720995117416  -0.332167832168
-0.0603542774777  0.694485003483  -0.311188811189
-0.0577950854975  0.667519181592  -0.297202797203
-0.0552358935223  0.641939083935  -0.332167832168
-0.0535297655356  0.618232969073  -0.426573426573
-0.0505483068813  0.590327830737  -0.367132867133
-0.0484113815802  0.564287375026  -0.381118881119
-0.0458521896  0.537781911189  -0.363636363636
-0.0432929976248  0.512206463605  -0.384615384615
-0.0407338056446  0.484305975343  -0.335664335664
-0.0381746136694  0.458265519654  -0.335664335664
-0.036041953686  0.43315508022  -0.388111888112
-0.0334827617108  0.40664961636  -0.395104895105
-0.031776633724  0.382934201351  -0.506993006993
-0.0296397084228  0.356898395714  -0.506993006993
-0.0270847817653  0.330388281803  -0.48951048951
-0.0245255897851  0.304352476166  -0.503496503497
-0.0219663978099  0.276912345957  -0.472027972028
-0.0189764085154  0.249011857716  -0.423076923077
-0.0164214818579  0.222506393857  -0.416083916084
-0.0147153538711  0.199255986975  -0.534965034965
-0.0121561618959  0.171820506861  -0.496503496503
-0.00917043791901  0.144385026747  -0.440559440559
-0.000213265998347  0.0997442455138  0.339160839161
0.00276819265587  0.0713787491238  0.41958041958
0.00490511795703  0.0458033015623  0.377622377622
0.0074643099372  0.0183678214268  0.398601398601
0.0130134912069  -0.0160427807473  0.755244755245
0.00575818195042  -0.0146524064174  -0.461538461538
0.00789510725157  -0.0392931876293  -0.531468531469
0.0095969699157  -0.0639386189363  -0.594405594406
0.0134314925633  -0.0932341316024  -0.468531468531
0.0155684178645  -0.119279237386  -0.493006993007
0.0177010778479  -0.145315043023  -0.513986013986
0.0202602698231  -0.171825156934  -0.513986013986
0.0219663978099  -0.196000930019  -0.625874125874
0.0245255897851  -0.222041385729  -0.643356643357
0.0279378457587  -0.250871890247  -0.531468531469
0.0304970377339  -0.277842362233  -0.531468531469
0.0322031657207  -0.302022785391  -0.629370629371
0.0343400910218  -0.328063241102  -0.63986013986
0.0368950176794  -0.354568704961  -0.643356643357
0.0390276776628  -0.380144152523  -0.702797202797
0.041586869638  -0.407579632637  -0.671328671329
0.0441460616182  -0.433615438273  -0.688811188811
0.0467052535934  -0.460125552185  -0.702797202797
0.0488379135769  -0.486161357822  -0.723776223776
0.0509663082377  -0.511741455478  -0.765734265734
0.0539562975323  -0.539641943741  -0.734265734266
0.0560846921931  -0.566147407579  -0.744755244755
0.0590746814876  -0.592652871416  -0.723776223776
0.0612116067888  -0.618693327127  -0.741258741259
0.0633400014496  -0.64426877471  -0.800699300699
0.0654726614331  -0.670309230399  -0.825174825175
0.068458385405  -0.697744710534  -0.797202797203
0.0710175773851  -0.724245524298  -0.77972027972
0.0731502373637  -0.750290630082  -0.828671328671
0.0757094293438  -0.776791443846  -0.84965034965
0.0778420893223  -0.802371541503  -0.891608391608
0.0808278132992  -0.830272029766  -0.839160839161
0.08295620796  -0.855847477327  -0.853146853147
0.0855196652579  -0.882352941165  -0.856643356643
0.0885053892298  -0.910248779354  -0.811188811189
0.0906380492133  -0.935828877011  -0.853146853147
0.0936195078675  -0.963729365252  -0.807692307692
0.0953299011719  -0.988374796559  -0.884615384615
0.0445725936149  -0.989304812835  -0.842657342657
0.0420134016347  -0.9618693327  -0.86013986014
0.0390276776628  -0.934433852586  -0.877622377622
0.0368950176794  -0.908393396875  -0.863636363636
0.0343400910218  -0.881887933038  -0.807692307692
0.031776633724  -0.854452452924  -0.832167832168
0.0283643777554  -0.826086956512  -0.905594405594
0.0266582497686  -0.801906533354  -0.797202797203
0.0245255897851  -0.775866077644  -0.769230769231
0.0215398658132  -0.74843059753  -0.783216783217
0.0189764085154  -0.721460125543  -0.748251748252
0.0159949498612  -0.69402464543  -0.807692307692
0.0134314925633  -0.667519181592  -0.793706293706
0.0113030979025  -0.641013717733  -0.77972027972
0.00831310860794  -0.614038595673  -0.783216783217
0.00618471394711  -0.588002790036  -0.730769230769
0.00319898997025  -0.560567309922  -0.751748251748
0.00106632999174  -0.534061846084  -0.730769230769
-0.00191939398513  -0.506626365949  -0.730769230769
-0.00405205396364  -0.480116252037  -0.692307692308
-0.00661124594381  -0.453150430124  -0.692307692308
-0.00874390592231  -0.428035340617  -0.618881118881
-0.0113030979025  -0.40199953498  -0.583916083916
-0.0134314925633  -0.376424087418  -0.524475524476
-0.0164214818579  -0.348058591028  -0.576923076923
-0.0189764085154  -0.321088119042  -0.56993006993
-0.0211133338165  -0.295047663331  -0.545454545455
-0.0236767911144  -0.268542199493  -0.503496503497
-0.0266582497686  -0.241106719358  -0.524475524476
-0.0287909097521  -0.214136247393  -0.506993006993
-0.0322031657207  -0.185770750981  -0.573426573427
-0.0347580923782  -0.158800278995  -0.590909090909
-0.0377480816727  -0.130904440827  -0.629370629371
-0.0390276776628  -0.107184375723  -0.465034965035
-0.0424399336314  -0.0778888630568  -0.555944055944
-0.0450033909293  -0.0518484073464  -0.503496503497
-0.0475583175868  -0.0248779353598  -0.524475524476
-0.050117509567  0.00162752847784  -0.503496503497
-0.0518236375488  0.0267379679121  -0.412587412587
-0.0484113815802  0.0351081143974  0.384615384615
-0.0513971055521  0.0634736107874  0.314685314685
-0.0531032335389  0.0871890257966  0.458041958042
-0.0560846921931  0.116019530335  0.381118881119
-0.0646195974397  0.160660311547  -0.342657342657
-0.068458385405  0.190885840511  -0.479020979021
-0.0705910453885  0.215996279924  -0.426573426573
-0.072723705367  0.242036735634  -0.363636363636
-0.0765624933372  0.272727272725  -0.503496503497
-0.0778420893223  0.29551267148  -0.335664335664
-0.0804012813025  0.322948151594  -0.339160839161
-0.0838135372711  0.351778656133  -0.416083916084
-0.0859461972546  0.377819111822  -0.363636363636
-0.0885053892298  0.405254591957  -0.370629370629
-0.0919176452033  0.434085096496  -0.41958041958
-0.0944768371785  0.460590560334  -0.405594405594
-0.0970360291587  0.488491048596  -0.423076923077
-0.0995952211339  0.514996512434  -0.391608391608
-0.101727881117  0.540571959995  -0.325174825175
-0.104282807775  0.567542431982  -0.300699300699
-0.106846265073  0.594512903969  -0.29020979021
-0.110258521041  0.623808416635  -0.377622377622
-0.112817713022  0.651708904897  -0.391608391608
-0.114946107682  0.676358986278  -0.311188811189
-0.117936096977  0.704719832594  -0.342657342657
-0.120064491638  0.730760288305  -0.297202797203
-0.122627948936  0.757735410365  -0.283216783217
-0.125191406233  0.784701232256  -0.300699300699
-0.128172864888  0.812136712392  -0.328671328671
-0.130309790189  0.837247151826  -0.255244755245
-0.13243818485  0.863752615664  -0.216783216783
-0.135423908826  0.891188095778  -0.227272727273
-0.138409632798  0.919553592189  -0.272727272727
-0.140542292782  0.945129039751  -0.195804195804
-0.143528016754  0.97395954429  -0.269230769231
-0.160589296607  0.992559869791  -0.251748251748
-0.158030104626  0.966054405953  -0.251748251748
-0.155470912651  0.939548942094  -0.241258741259
-0.153338252668  0.915363868862  -0.293706293706
-0.151205592689  0.890258079501  -0.321678321678
-0.149072932706  0.86468263194  -0.342657342657
-0.146518006048  0.839111834452  -0.34965034965
-0.14395454875  0.812601720519  -0.325174825175
-0.141391091453  0.786561264809  -0.321678321678
-0.138836164795  0.760055800971  -0.304195804196
-0.135854706141  0.732620320857  -0.248251748252
-0.13371778084  0.708439897699  -0.304195804196
-0.132011652853  0.684259474541  -0.381118881119
-0.129025928881  0.657289002554  -0.346153846154
-0.126040204904  0.629858172514  -0.283216783217
-0.124760608919  0.607063473612  -0.409090909091
-0.122201416939  0.580562659848  -0.402097902098
-0.119215692967  0.553592187861  -0.374125874126
-0.117083032984  0.527551732151  -0.377622377622
-0.114097309012  0.500581260164  -0.332167832168
-0.111538117031  0.473606138104  -0.318181818182
-0.10940119173  0.448500348744  -0.353146853147
-0.106846265073  0.423389909331  -0.388111888112
-0.104713605089  0.398279469897  -0.426573426573
-0.102580945111  0.372704022314  -0.451048951049
-0.0995952211339  0.345273192273  -0.402097902098
-0.0974625611554  0.319228086489  -0.423076923077
-0.0949033691752  0.293182980705  -0.43006993007
-0.0923441772  0.267147175068  -0.423076923077
-0.0902115172166  0.241571727507  -0.461538461538
-0.0872257932447  0.21460125552  -0.437062937063
-0.0846666012645  0.187630783534  -0.423076923077
-0.0808278132992  0.157405254592  -0.255244755245
-0.0744298333537  0.119274587313  0.265734265734
-0.0705910453885  0.0890490583489  0.43006993007
-0.0688849174017  0.0662683096893  0.29020979021
-0.0667479921005  0.0416182283088  0.241258741259
-0.0680318534083  0.0262729597849  -0.213286713287
-0.0658991934298  0.00162752847784  -0.272727272727
-0.0658991934298  -0.0183678214268  -0.552447552448
-0.0633400014496  -0.0444036270638  -0.548951048951
-0.059927745481  -0.0727784236223  -0.454545454545
-0.0582216174942  -0.0978842129831  -0.517482517483
-0.0560846921931  -0.122994652396  -0.573426573427
-0.0531032335389  -0.149965124382  -0.555944055944
-0.0505483068813  -0.176935596369  -0.534965034965
-0.0488379135769  -0.201581027676  -0.608391608392
-0.0458521896  -0.228551499641  -0.601398601399
-0.0432929976248  -0.2550569635  -0.590909090909
-0.0407338056446  -0.281562427338  -0.58041958042
-0.0377480816727  -0.309927923728  -0.517482517483
-0.0351888896926  -0.335968379438  -0.496503496503
-0.0330562297141  -0.360613810745  -0.566433566434
-0.0304970377339  -0.388049290859  -0.541958041958
-0.0287909097521  -0.41176470589  -0.667832167832
-0.0262317177719  -0.437805161579  -0.660839160839
-0.0240947924708  -0.464310625438  -0.664335664336
-0.0211133338165  -0.491285747498  -0.618881118881
-0.018558407159  -0.517321553135  -0.646853146853
-0.0164214818579  -0.542897000697  -0.667832167832
-0.0138622898777  -0.569867472683  -0.643356643357
-0.0121561618959  -0.594047895841  -0.751748251748
-0.0095969699157  -0.621018367828  -0.772727272727
-0.0070377779405  -0.646593815389  -0.79020979021
-0.00490511795703  -0.673099279227  -0.797202797203
-0.00149286198843  -0.701464775639  -0.695804195804
-0.000639797995042  -0.722855149968  -0.926573426573
0.00319898997025  -0.752615670762  -0.772727272727
0.00447858596033  -0.776335735866  -0.898601398601
0.0070377779405  -0.802371541503  -0.912587412587
0.0095969699157  -0.829807021617  -0.888111888112
0.0125826938926  -0.856777493603  -0.84965034965
0.0151418858678  -0.882817949314  -0.867132867133
0.0177010778479  -0.910248779354  -0.825174825175
0.0198337378265  -0.934898860735  -0.881118881119
0.0219663978099  -0.960939316424  -0.916083916084
0.0249521217818  -0.988374796559  -0.870629370629
-0.0240947924708  -1  -0.895104895105
-0.0258051857752  -0.974889560566  -0.814685314685
-0.0287909097521  -0.947454080452  -0.84965034965
-0.0313501017273  -0.919553592189  -0.825174825175
-0.0339092937075  -0.892118112054  -0.793706293706
-0.037321549676  -0.864217623813  -0.884615384615
-0.0394542096595  -0.839107184378  -0.863636363636
-0.041586869638  -0.814461753071  -0.807692307692
-0.0441460616182  -0.787960939307  -0.800699300699
-0.0471317855901  -0.759590792844  -0.818181818182
-0.0492644455736  -0.733550337133  -0.737762237762
-0.0518236375488  -0.70658451522  -0.730769230769
-0.0548093615256  -0.679144385033  -0.755244755245
-0.0573685535008  -0.652173913046  -0.769230769231
-0.059927745481  -0.625663799113  -0.741258741259
-0.0620604054595  -0.600093001625  -0.681818181818
-0.0646195974397  -0.574052545915  -0.643356643357
-0.0676053214116  -0.547082073928  -0.695804195804
-0.0701645133918  -0.520111601942  -0.72027972028
-0.0718749066962  -0.495466170656  -0.622377622378
-0.0744298333537  -0.468491048596  -0.604895104895
-0.077411292008  -0.441525226683  -0.65034965035
-0.0804012813025  -0.413624738421  -0.667832167832
-0.0825382066037  -0.388049290859  -0.58041958042
-0.0859461972546  -0.35921878632  -0.678321678322
-0.0880745919154  -0.332713322483  -0.646853146853
-0.0902115172166  -0.307602883048  -0.562937062937
-0.0927707091967  -0.281562427338  -0.520979020979
-0.0953299011719  -0.254126947224  -0.524475524476
-0.0983198904665  -0.226226458961  -0.552447552448
-0.101301349121  -0.198325970699  -0.583916083916
-0.103434009104  -0.171825156934  -0.545454545455
-0.105993201079  -0.145315043023  -0.538461538462
-0.10855239306  -0.118344571037  -0.538461538462
-0.111538117031  -0.0904487328474  -0.56993006993
-0.114097309012  -0.0639386189363  -0.562937062937
-0.117083032984  -0.0360381306736  -0.597902097902
-0.11878916097  -0.0118577075154  -0.482517482517
-0.121348352945  0.0151127644711  -0.472027972028
-0.122627948936  0.0383631713531  -0.29020979021
-0.122201416939  0.0560334805782  0.115384615385
-0.122627948936  0.0769588467807  0.36013986014
-0.124334076922  0.100209253663  0.527972027972
-0.127746332891  0.129039758202  0.426573426573
-0.130727791545  0.157870262719  0.342657342657
-0.139262696792  0.202511043952  -0.381118881119
-0.142248420764  0.230411532193  -0.41958041958
-0.145234144741  0.257851662402  -0.444055944056
-0.147793336716  0.284352476166  -0.398601398601
-0.149925996699  0.31085328993  -0.370629370629
-0.152911720671  0.339228086489  -0.405594405594
-0.155470912651  0.366193908381  -0.388111888112
-0.158456636623  0.393164380367  -0.391608391608
-0.161015828603  0.420134852354  -0.381118881119
-0.163148488582  0.446175308064  -0.325174825175
-0.166134212559  0.475005812603  -0.381118881119
-0.168693404534  0.501511276441  -0.370629370629
-0.172105660507  0.529876772831  -0.437062937063
-0.175091384479  0.557777261093  -0.465034965035
-0.176797512466  0.58335735875  -0.388111888112
-0.179783236438  0.609858172514  -0.381118881119
-0.182342428418  0.637293652628  -0.377622377622
-0.18532815239  0.66565914904  -0.412587412587
-0.187460812374  0.691234596601  -0.346153846154
-0.190446536346  0.719600092991  -0.381118881119
-0.193005728326  0.747035573127  -0.388111888112
-0.195138388304  0.772146012561  -0.321678321678
-0.197271048288  0.79818646825  -0.262237762238
-0.200252506942  0.825621948385  -0.269230769231
-0.202389432243  0.851662404096  -0.234265734266
-0.204952889541  0.87863287606  -0.20979020979
-0.208360880192  0.907463380599  -0.297202797203
-0.210915806849  0.93350383631  -0.276223776224
-0.213905796144  0.962334340849  -0.307692307692
-0.216034190805  0.988374796559  -0.237762237762
-0.231393607993  0.985584747731  -0.188811188811
-0.22926094801  0.960474308296  -0.230769230769
-0.227128288027  0.935363868862  -0.258741258741
-0.224569096051  0.909318763078  -0.241258741259
-0.222436436068  0.884677981866  -0.283216783217
-0.219450712096  0.857237851657  -0.241258741259
-0.216891520116  0.830737037893  -0.230769230769
-0.214758860137  0.806091606608  -0.265734265734
-0.212199668157  0.779586142748  -0.255244755245
-0.209640476182  0.754475703314  -0.293706293706
-0.207507816198  0.729360613806  -0.318181818182
-0.204522092227  0.702394791915  -0.276223776224
-0.20281596424  0.677749360608  -0.332167832168
-0.199834505586  0.650778888621  -0.297202797203
-0.198124112281  0.627063473612  -0.384615384615
-0.195564920301  0.600558009753  -0.370629370629
-0.193005728326  0.574517554064  -0.374125874126
-0.191299600339  0.550337130906  -0.465034965035
-0.18788734437  0.521506626367  -0.34965034965
-0.18532815239  0.496400837006  -0.381118881119
-0.183195492412  0.471285747498  -0.423076923077
-0.180636300431  0.444780283661  -0.398601398601
-0.178077108456  0.418274819801  -0.391608391608
-0.175091384479  0.391774006037  -0.363636363636
-0.172105660507  0.36433387585  -0.307692307692
-0.170399532521  0.340153452692  -0.412587412587
-0.16826260722  0.314578005109  -0.426573426573
-0.165707680562  0.288072541271  -0.41958041958
-0.162717691267  0.261102069284  -0.370629370629
-0.160589296607  0.236456637999  -0.440559440559
-0.158030104626  0.20995117414  -0.43006993007
-0.149925996699  0.16717042548  0.265734265734
-0.146087208734  0.136475238316  0.447552447552
-0.14267495276  0.107649383872  0.562937062937
-0.141821888767  0.0867240176694  0.325174825175
-0.140115760785  0.0634736107874  0.206293706294
-0.14267495276  0.0518484073464  -0.398601398601
-0.140542292782  0.027202976061  -0.472027972028
-0.138409632798  0.0011625203506  -0.472027972028
-0.135423908826  -0.025807951636  -0.451048951049
-0.132864716846  -0.0518484073464  -0.461538461538
-0.130309790189  -0.0783538711841  -0.461538461538
-0.128599396884  -0.102999302491  -0.548951048951
-0.12560940759  -0.129969774478  -0.5
-0.123481012929  -0.155545222039  -0.548951048951
-0.120921820949  -0.18158567775  -0.555944055944
-0.118362628974  -0.209021157863  -0.506993006993
-0.115803436993  -0.234131597298  -0.541958041958
-0.113244245018  -0.260637061157  -0.534965034965
-0.110685053038  -0.287607533122  -0.531468531469
-0.108125861063  -0.313647988832  -0.545454545455
-0.106419733076  -0.338293420139  -0.601398601399
-0.103007477107  -0.367123924657  -0.503496503497
-0.101301349121  -0.390839339688  -0.618881118881
-0.0995952211339  -0.415484770973  -0.706293706294
-0.0961829651653  -0.443850267385  -0.632867132867
-0.0936195078675  -0.470355731222  -0.629370629371
-0.0914911132066  -0.495001162508  -0.695804195804
-0.0889319212265  -0.521971634494  -0.667832167832
-0.0863727292513  -0.548477098353  -0.674825174825
-0.0842400692678  -0.574052545915  -0.716783216783
-0.0821074092893  -0.599627993477  -0.748251748252
-0.0791216853124  -0.626598465463  -0.713286713287
-0.0769932906516  -0.651708904897  -0.765734265734
-0.074003301357  -0.67960939316  -0.706293706294
-0.0718749066962  -0.705184840722  -0.751748251748
-0.0693114493984  -0.730760288305  -0.765734265734
-0.0667479921005  -0.756800744015  -0.786713286713
-0.0646195974397  -0.783306207853  -0.807692307692
-0.0624869374562  -0.808416647287  -0.853146853147
-0.059927745481  -0.834461753071  -0.867132867133
-0.0577950854975  -0.860032550559  -0.91958041958
-0.0552358935223  -0.886542664492  -0.898601398601
-0.0526767015422  -0.912578470129  -0.916083916084
-0.0496909775703  -0.93954429202  -0.877622377622
-0.0471317855901  -0.966984422229  -0.839160839161
-0.0450033909293  -0.991625203441  -0.923076923077
-0.0961829651653  -0.978144617521  -0.846153846154
-0.0987378918228  -0.951639153684  -0.846153846154
-0.101727881117  -0.924668681697  -0.84965034965
-0.104282807775  -0.897698209711  -0.839160839161
-0.106419733076  -0.872122762149  -0.772727272727
-0.109831989045  -0.84329225761  -0.870629370629
-0.111538117031  -0.818181818176  -0.783216783217
-0.114528106326  -0.790746338062  -0.814685314685
-0.116656500987  -0.765635898628  -0.748251748252
-0.120064491638  -0.736805394089  -0.839160839161
-0.122201416939  -0.710764938379  -0.786713286713
-0.124760608919  -0.684259474541  -0.758741258741
-0.127746332891  -0.656823994427  -0.793706293706
-0.129452460878  -0.63217856312  -0.664335664336
-0.132011652853  -0.605673099282  -0.657342657343
-0.135423908826  -0.576377586595  -0.755244755245
-0.138409632798  -0.549867472683  -0.758741258741
-0.140115760785  -0.524761683323  -0.667832167832
-0.143101484757  -0.49686119506  -0.706293706294
-0.145234144741  -0.471750755626  -0.643356643357
-0.148219868712  -0.444315275512  -0.657342657343
-0.151205592689  -0.416879795398  -0.699300699301
-0.153338252668  -0.391304347815  -0.618881118881
-0.155897444648  -0.36433387585  -0.615384615385
-0.158456636623  -0.336898395714  -0.615384615385
-0.161015828603  -0.310392931877  -0.594405594406
-0.163148488582  -0.284352476166  -0.541958041958
-0.165707680562  -0.258781678678  -0.493006993007
-0.16826260722  -0.231806556618  -0.468531468531
-0.171252596514  -0.203441060228  -0.555944055944
-0.174238320486  -0.176935596369  -0.545454545455
-0.176797512466  -0.149500116255  -0.548951048951
-0.178925907127  -0.123924668672  -0.48951048951
-0.181489364425  -0.0974192048342  -0.468531468531
-0.184901620393  -0.0681236921681  -0.545454545455
-0.187460812374  -0.0420832364577  -0.520979020979
-0.189589207034  -0.0151081143977  -0.493006993007
-0.192579196329  0.0113926993665  -0.48951048951
-0.195138388304  0.0383631713531  -0.5
-0.197697580284  0.0653336433397  -0.475524475524
-0.193858792319  0.0741687979522  0.307692307692
-0.196417984294  0.10067426179  0.335664335664
-0.198124112281  0.124850034875  0.468531468531
-0.200683304256  0.151360148807  0.479020979021
-0.204952889541  0.182520344099  0.297202797203
-0.213905796144  0.228086491514  -0.461538461538
-0.216034190805  0.253661939075  -0.402097902098
-0.218597648103  0.280167402934  -0.395104895105
-0.2211611054  0.307137874921  -0.370629370629
-0.223716032058  0.334573355035  -0.381118881119
-0.226697490712  0.362008835149  -0.412587412587
-0.22926094801  0.388514299008  -0.395104895105
-0.232242406664  0.415949779122  -0.412587412587
-0.235232395959  0.444310625438  -0.437062937063
-0.237791587934  0.471285747498  -0.426573426573
-0.240350779914  0.498721227612  -0.437062937063
-0.242056907901  0.52290165077  -0.311188811189
-0.244616099876  0.549872122757  -0.293706293706
-0.247175291856  0.575912578467  -0.258741258741
-0.250161015828  0.604278074857  -0.29020979021
-0.253151005123  0.633108579396  -0.335664335664
-0.256132463777  0.66054405951  -0.388111888112
-0.259118187749  0.688909555922  -0.402097902098
-0.261677379729  0.71495001161  -0.363636363636
-0.264663103701  0.742850499873  -0.388111888112
-0.266369231688  0.76749593118  -0.27972027972
-0.268501891671  0.793536386891  -0.244755244755
-0.27191414764  0.822831899557  -0.321678321678
-0.27319374363  0.845156940236  -0.143356643357
-0.277032531595  0.875377819105  -0.286713286713
-0.280013990249  0.903282957441  -0.293706293706
-0.281724383554  0.928853754929  -0.216783216783
-0.279595988893  0.940013950243  0.381118881119
-0.286842767509  0.98093466635  -0.13986013986
-0.303477515365  0.990239479185  -0.192307692308
-0.301340590064  0.965124389677  -0.213286713287
-0.29835913141  0.938614275744  -0.178321678322
-0.296222206109  0.913508486383  -0.216783216783
-0.293240747455  0.886068356196  -0.174825174825
-0.291108087471  0.861892583111  -0.223776223776
-0.288548895496  0.834922111125  -0.192307692308
-0.286416235512  0.810737037893  -0.248251748252
-0.284283575534  0.786096256681  -0.307692307692
-0.282150915551  0.761450825374  -0.367132867133
-0.278738659582  0.732620320857  -0.265734265734
-0.277032531595  0.70797488955  -0.314685314685
-0.274477604938  0.68193443384  -0.307692307692
-0.271487615643  0.655428970002  -0.283216783217
-0.269781487656  0.631248546844  -0.36013986014
-0.267222295681  0.605208091133  -0.34965034965
-0.264232306387  0.578232969073  -0.307692307692
-0.261677379729  0.552197163436  -0.311188811189
-0.259971251742  0.528481748427  -0.409090909091
-0.25698552777  0.500581260164  -0.353146853147
-0.254852867787  0.47547082073  -0.402097902098
-0.252293675812  0.448965356893  -0.391608391608
-0.249307951835  0.421529876779  -0.353146853147
-0.247606089171  0.397354103694  -0.440559440559
-0.244189567879  0.369913973485  -0.374125874126
-0.242056907901  0.344338525924  -0.384615384615
-0.239497715921  0.318298070213  -0.370629370629
-0.236942789263  0.292257614503  -0.388111888112
-0.234379331965  0.266682166941  -0.416083916084
-0.231824405308  0.240176703082  -0.391608391608
-0.223716032058  0.196930946295  0.314685314685
-0.219024180099  0.165775401077  0.541958041958
-0.216464988119  0.139269937217  0.548951048951
-0.215616189448  0.117414554761  0.370629370629
-0.213905796144  0.0936991397297  0.269230769231
-0.217318052112  0.085328993266  -0.503496503497
-0.214758860137  0.0592885375556  -0.506993006993
-0.212626200154  0.0332480818451  -0.531468531469
-0.210067008179  0.00720762613472  -0.555944055944
-0.207507816198  -0.0197628458519  -0.531468531469
-0.204522092227  -0.0462683096895  -0.513986013986
-0.202389432243  -0.0718437572727  -0.545454545455
-0.199834505586  -0.0978842129831  -0.559440559441
-0.197271048288  -0.123924668672  -0.545454545455
-0.19470759099  -0.150430132531  -0.524475524476
-0.192152664332  -0.176470588242  -0.559440559441
-0.189589207034  -0.202976052079  -0.548951048951
-0.187034280377  -0.229951174139  -0.513986013986
-0.184475088397  -0.255521971627  -0.545454545455
-0.181915896422  -0.282487793541  -0.520979020979
-0.179356704441  -0.308997907452  -0.527972027972
-0.176797512466  -0.335503371311  -0.524475524476
-0.174238320486  -0.361543827021  -0.548951048951
-0.172105660507  -0.386658916529  -0.604895104895
-0.169973000524  -0.411299697741  -0.657342657343
-0.167413808549  -0.437805161579  -0.667832167832
-0.164854616569  -0.463845617289  -0.664335664336
-0.162299689911  -0.490816089276  -0.63986013986
-0.160589296607  -0.51499186236  -0.755244755245
-0.158030104626  -0.541501976272  -0.744755244755
-0.155470912651  -0.568007440131  -0.730769230769
-0.152485188674  -0.595442920245  -0.688811188811
-0.149925996699  -0.621483375955  -0.716783216783
-0.147366804719  -0.647523831666  -0.730769230769
-0.145660676737  -0.6726342711  -0.797202797203
-0.14267495276  -0.699604743086  -0.769230769231
-0.140115760785  -0.726110206924  -0.765734265734
-0.137983100802  -0.751685654486  -0.818181818182
-0.135423908826  -0.777726110196  -0.846153846154
-0.133291248843  -0.803301557779  -0.853146853147
-0.130727791545  -0.82934201349  -0.877622377622
-0.128172864888  -0.855382469178  -0.888111888112
-0.12560940759  -0.881418274815  -0.898601398601
-0.123054480932  -0.908393396875  -0.867132867133
-0.120064491638  -0.936293885138  -0.800699300699
-0.116656500987  -0.964194373401  -0.734265734266
-0.114946107682  -0.988839804686  -0.818181818182
-0.165707680562  -0.989304812835  -0.891608391608
-0.167844605863  -0.965124389677  -0.79020979021
-0.170826064517  -0.937688909542  -0.825174825175
-0.173380991175  -0.910718437577  -0.797202797203
-0.176370980469  -0.882817949314  -0.828671328671
-0.178507905771  -0.857712159953  -0.755244755245
-0.181062832428  -0.830272029766  -0.769230769231
-0.184901620393  -0.800976517078  -0.895104895105
-0.187460812374  -0.774006045091  -0.895104895105
-0.189589207034  -0.74843059753  -0.825174825175
-0.191726132336  -0.723789816318  -0.723776223776
-0.193858792319  -0.697279702385  -0.695804195804
-0.197271048288  -0.668914205995  -0.772727272727
-0.199403708271  -0.642869100211  -0.716783216783
-0.20281596424  -0.614973262022  -0.762237762238
-0.20409556023  -0.59172285514  -0.601398601399
-0.206654752205  -0.565217391302  -0.566433566434
-0.209213944185  -0.537786561262  -0.590909090909
-0.21305273215  -0.508021390374  -0.741258741259
-0.215616189448  -0.481980934663  -0.674825174825
-0.217744584109  -0.455475470826  -0.646853146853
-0.219877244093  -0.430830039519  -0.562937062937
-0.222862968065  -0.403859567532  -0.573426573427
-0.225848692041  -0.375959079291  -0.604895104895
-0.22798135202  -0.350383631708  -0.562937062937
-0.230967075997  -0.322483143445  -0.566433566434
-0.233526267972  -0.295047663331  -0.58041958042
-0.236511991949  -0.268077191345  -0.597902097902
-0.238644651927  -0.242501743783  -0.531468531469
-0.241630375904  -0.21460125552  -0.576923076923
-0.244189567879  -0.187630783534  -0.576923076923
-0.245895695866  -0.163450360376  -0.454545454545
-0.248881419838  -0.136014880262  -0.468531468531
-0.251867143815  -0.108109741926  -0.496503496503
-0.255279399784  -0.0797488956091  -0.552447552448
-0.25698552777  -0.0555731225245  -0.440559440559
-0.259971251742  -0.0276679841883  -0.486013986014
-0.262103911726  -0.00162752847784  -0.423076923077
-0.264663103701  0.0248779353598  -0.423076923077
-0.267222295681  0.0513833992192  -0.374125874126
-0.270208019653  0.078818879333  -0.388111888112
-0.27319374363  0.107179725649  -0.447552447552
-0.27063455165  0.11880492909  0.192307692308
-0.272340679636  0.143455010471  0.293706293706
-0.27319374363  0.165305742854  0.531468531469
-0.277459063592  0.196000930019  0.367132867133
-0.286416235512  0.242036735634  -0.416083916084
-0.289401959489  0.269476865843  -0.440559440559
-0.291534619468  0.295047663331  -0.370629370629
-0.294093811448  0.322022785391  -0.370629370629
-0.29707953542  0.348988607304  -0.36013986014
-0.2996387274  0.375959079291  -0.353146853147
-0.302624451372  0.403854917458  -0.391608391608
-0.304757111355  0.429900023242  -0.339160839161
-0.308169367324  0.458730527781  -0.398601398601
-0.309875495311  0.48244594279  -0.283216783217
-0.312861219283  0.510811439202  -0.318181818182
-0.317130804567  0.542431992548  -0.482517482517
-0.318832667232  0.567077423855  -0.398601398601
-0.321818391208  0.594047895841  -0.395104895105
-0.324377583184  0.621483375955  -0.409090909091
-0.326510243167  0.647058823517  -0.332167832168
-0.329922499136  0.675424319928  -0.377622377622
-0.332481691116  0.702394791915  -0.356643356643
-0.335040883091  0.729360613806  -0.374125874126
-0.337600075071  0.755870727739  -0.339160839161
-0.340159267046  0.782376191577  -0.304195804196
-0.342718459027  0.809346663563  -0.300699300699
-0.344851119005  0.834457102998  -0.213286713287
-0.347410310985  0.861427574984  -0.195804195804
-0.351249098951  0.891657754  -0.321678321678
-0.353381758934  0.918158567764  -0.293706293706
-0.355940950909  0.943738665421  -0.237762237762
-0.358073610893  0.970239479185  -0.181818181818
-0.361059334865  0.998139967448  -0.202797202797
-0.376414486731  0.986514764007  -0.227272727273
-0.373428762759  0.960474308296  -0.213286713287
-0.371296102775  0.935828876989  -0.262237762238
-0.367883846807  0.906068356196  -0.129370629371
-0.366604250817  0.88374796559  -0.272727272727
-0.362765462851  0.854452452902  -0.143356643357
-0.361059334865  0.832132062296  -0.258741258741
-0.359353206883  0.807951639138  -0.328671328671
-0.356367482906  0.780985817247  -0.283216783217
-0.353808290931  0.754940711463  -0.283216783217
-0.351675630947  0.730295280156  -0.321678321678
-0.34912070429  0.704719832594  -0.342657342657
-0.346557246992  0.678214368757  -0.328671328671
-0.344424587008  0.653108579396  -0.374125874126
-0.341865395033  0.627063473612  -0.363636363636
-0.338875405739  0.600093001625  -0.332167832168
-0.336320479081  0.573122529639  -0.314685314685
-0.333761287101  0.547082073928  -0.332167832168
-0.331628627122  0.522436642643  -0.367132867133
-0.328642903146  0.495931178784  -0.346153846154
-0.326510243167  0.470355731222  -0.377622377622
-0.32352451919  0.442455242959  -0.321678321678
-0.321391859212  0.418274819801  -0.395104895105
-0.319259199228  0.393164380367  -0.423076923077
-0.316273475256  0.365728900253  -0.377622377622
-0.314140815273  0.341083468968  -0.440559440559
-0.311155091301  0.312717972556  -0.356643356643
-0.309022431317  0.289002557547  -0.444055944056
-0.30646750466  0.262962101837  -0.437062937063
-0.303477515365  0.235526621723  -0.402097902098
-0.294520343445  0.190420832362  0.405594405594
-0.291108087471  0.162520344099  0.482517482517
-0.2902592888  0.140664961643  0.304195804196
-0.293240747455  0.130430132531  -0.356643356643
-0.290677290157  0.104859335043  -0.374125874126
-0.288548895496  0.0792838874602  -0.41958041958
-0.285989703516  0.0537084398987  -0.465034965035
-0.283857043537  0.0281329923372  -0.517482517483
-0.281297851557  0.00209718670022  -0.493006993007
-0.278312127585  -0.0253429435087  -0.437062937063
-0.275752935605  -0.0509183910703  -0.465034965035
-0.27319374363  -0.0778888630568  -0.447552447552
-0.27063455165  -0.103929318767  -0.458041958042
-0.268075359674  -0.129969774478  -0.472027972028
-0.265942699691  -0.155080213912  -0.513986013986
-0.26381430503  -0.180655661473  -0.545454545455
-0.261677379729  -0.205766100908  -0.608391608392
-0.259118187749  -0.232271564745  -0.601398601399
-0.256132463777  -0.259707044881  -0.555944055944
-0.253999803793  -0.283887468039  -0.646853146853
-0.250161015828  -0.314112996981  -0.479020979021
