# .PCD v.7 - Point Cloud Data file format
VERSION .7
FIELDS x y z
SIZE 4 4 4
TYPE F F F
COUNT 1 1 1
WIDTH 1491
HEIGHT 1
VIEWPOINT 0 0 0 1 0 0 0
POINTS 1491
DATA ascii
-0.270208 -0.8474773 -0.7762238
-0.8980674 -0.8237619 -0.7762238
-0.3457042 -0.7967914 -0.7727273
-0.8878221 -0.7800512 -0.7762238
-0.3265103 -0.7800512 -0.7797203
-0.5461785 -0.7758661 -0.7727273
0.00319899 -0.7526157 -0.7727273
-0.4177881 -0.7479656 -0.7727273
-0.9483939 -0.7302907 -0.7762238
-0.7786341 -0.7391304 -0.7797203
-0.4003003 -0.735415 -0.7727273
0.07101758 -0.7242455 -0.7797203
-0.663044 -0.6944897 -0.7797203
0.6592052 -0.6703092 -0.7797203
-0.9151244 -0.6651942 -0.7797203
-0.197271 -0.6689142 -0.7727273
0.7099625 -0.6647291 -0.7797203
-0.8455997 -0.6554289 -0.7727273
-0.5402028 -0.6544943 -0.7797203
0.2062282 -0.659614 -0.7727273
-0.5593967 -0.6438038 -0.7762238
0.0113031 -0.6410137 -0.7797203
-0.4113901 -0.6270635 -0.7727273
-0.00959697 -0.6210184 -0.7727273
0.4109636 -0.5480121 -0.7762238
0.2817244 -0.4977866 -0.7727273
-0.6545134 -0.9372239 -0.7622378
-0.4693985 -0.8814183 -0.7657343
-0.8221404 -0.8707277 -0.7622378
-0.3184061 -0.8609626 -0.7657343
-0.8950774 -0.8507324 -0.7622378
-0.250161 -0.8493373 -0.7692308
-0.3209653 -0.8339921 -0.7692308
-0.1810628 -0.830272 -0.7692308
-0.7308626 -0.7800512 -0.7692308
0.02452559 -0.7758661 -0.7692308
-0.2783121 -0.7674959 -0.7657343
-0.9633225 -0.7400604 -0.7622378
-0.5316721 -0.7349454 -0.7692308
-0.06931145 -0.7307603 -0.7657343
-0.893367 -0.7265752 -0.7622378
-0.6604848 -0.7214601 -0.7692308
-0.5512926 -0.7228552 -0.7692308
-0.1401158 -0.7261102 -0.7657343
-0.6792522 -0.6982097 -0.7622378
-0.142675 -0.6996047 -0.7692308
-0.7846056 -0.6861195 -0.7692308
-0.6818114 -0.6712393 -0.7622378
-0.4254657 -0.6689142 -0.7692308
-0.07699329 -0.6517089 -0.7657343
-0.05736855 -0.6521739 -0.7692308
-0.9019019 -0.6456638 -0.7622378
-0.4280249 -0.6428691 -0.7692308
0.3670308 -0.6363636 -0.7622378
-0.7317156 -0.6233434 -0.7692308
-0.9206693 -0.6126482 -0.7622378
-0.202816 -0.6149732 -0.7622378
0.1307278 -0.6135829 -0.7657343
-0.7931362 -0.6056731 -0.7657343
-0.7376871 -0.5698675 -0.7622378
-0.6771196 -0.5605673 -0.7622378
-0.6306276 -0.5689375 -0.7692308
-0.8264058 -0.9744199 -0.7587413
-0.6515276 -0.9641944 -0.7587413
-0.7142279 -0.9390886 -0.7552447
-0.4719534 -0.8553824 -0.7517483
-0.7671178 -0.8474773 -0.7587413
-0.3401593 -0.8498024 -0.7587413
-0.7086829 -0.8395722 -0.7517483
-0.3427185 -0.8237619 -0.7552447
-0.2552794 -0.7958614 -0.7587413
-0.3947554 -0.7888863 -0.7517483
-0.8485854 -0.7633108 -0.7552447
-0.7756527 -0.7670309 -0.7552447
-0.3973103 -0.7628459 -0.7517483
-0.9454082 -0.7572657 -0.7587413
-0.6114336 -0.7540107 -0.7587413
-0.4826167 -0.7493606 -0.7587413
-0.3508226 -0.7447105 -0.7517483
0.09191765 -0.7414601 -0.7587413
-0.2109158 -0.7302907 -0.7552447
-0.4856067 -0.7233202 -0.7552447
-0.8541303 -0.7112299 -0.7552447
-0.07187491 -0.7051848 -0.7517483
-0.1247606 -0.6842595 -0.7587413
-0.05480936 -0.6791444 -0.7552447
-0.3585002 -0.6656638 -0.7517483
-0.8596752 -0.658219 -0.7552447
-0.7291564 -0.6507789 -0.7552447
-0.2911081 -0.6354336 -0.7517483
-0.6873563 -0.6172983 -0.7552447
-0.5619559 -0.6177633 -0.7517483
0.1507791 -0.6186934 -0.7552447
-0.6101583 -0.600093 -0.7587413
0.2015364 -0.6070681 -0.7552447
-0.7347013 -0.5968379 -0.7587413
-0.01215616 -0.5940479 -0.7517483
-0.6745561 -0.5870728 -0.7552447
-0.2774591 -0.5800977 -0.7517483
-0.7530422 -0.5703325 -0.7517483
-0.1354239 -0.5763776 -0.7552447
0.00319899 -0.5605673 -0.7517483
-0.680101 -0.5331318 -0.7552447
0.2139058 -0.5317368 -0.7552447
0.07101758 -0.5261614 -0.7517483
0.2847101 -0.5252267 -0.7587413
-0.9274938 -0.9190886 -0.7412587
-0.8345056 -0.8958382 -0.7412587
-0.7799138 -0.8823529 -0.7447553
-0.7253177 -0.8339921 -0.7412587
-0.5935193 -0.7619159 -0.7482517
-0.1166565 -0.7656359 -0.7482517
0.01897641 -0.7214601 -0.7482517
-0.2885489 -0.6619391 -0.7412587
-0.6046091 -0.6544943 -0.7412587
-0.2185977 -0.6512439 -0.7447553
-0.7445116 -0.6493838 -0.7412587
0.1533383 -0.6461288 -0.7447553
-0.9176836 -0.6396187 -0.7447553
-0.05992775 -0.6256638 -0.7412587
-0.430584 -0.6168333 -0.7412587
-0.343145 -0.6182283 -0.7447553
0.06121161 -0.6186934 -0.7412587
-0.8652201 -0.6056731 -0.7482517
-0.2936673 -0.6089281 -0.7447553
-0.08210741 -0.599628 -0.7482517
-0.9232285 -0.5866078 -0.7412587
0.2190242 -0.5856777 -0.7412587
-0.8682059 -0.579163 -0.7412587
-0.9257877 -0.5605673 -0.7412587
-0.910859 -0.5652174 -0.7412587
-0.6929013 -0.5642874 -0.7447553
-0.3482634 -0.5647524 -0.7447553
0.05608469 -0.5661474 -0.7447553
0.2680753 -0.5545222 -0.7482517
-0.1580301 -0.541502 -0.7447553
-0.57006 -0.5391769 -0.7412587
-0.6216704 -0.4926761 -0.7412587
0.2087874 -0.4791909 -0.7412587
0.329496 -0.4466403 -0.7412587
0.3222492 -0.3671239 -0.7482517
0.4131005 -0.3550337 -0.7412587
-0.9577776 -0.7939968 -0.7307692
-0.6707216 -0.7786561 -0.7342657
-0.04926445 -0.7335503 -0.7377622
-0.05182364 -0.7065845 -0.7307692
-0.6016234 -0.6810044 -0.7307692
-0.7419524 -0.6754243 -0.7342657
-0.2689327 -0.6610091 -0.7307692
-0.9569288 -0.6503139 -0.7377622
-0.6225234 -0.6489142 -0.7377622
-0.1473668 -0.6475238 -0.7307692
-0.3610593 -0.6396187 -0.7377622
-0.9594837 -0.6238084 -0.7307692
-0.7500565 -0.5968379 -0.7342657
-0.6276419 -0.5959126 -0.7307692
0.1482199 -0.5921879 -0.7342657
0.006184714 -0.5880028 -0.7307692
-0.8537038 -0.5754476 -0.7307692
-0.812761 -0.5661474 -0.7307692
-0.3691635 -0.5605673 -0.7307692
-0.1554709 -0.5680075 -0.7307692
-0.7402463 -0.543362 -0.7377622
0.00106633 -0.5340618 -0.7307692
0.0539563 -0.5396419 -0.7342657
-0.4220534 -0.521037 -0.7307692
-0.8183059 -0.5140665 -0.7342657
-0.001919394 -0.5066264 -0.7307692
0.3546571 -0.5010462 -0.7377622
-0.8042261 -0.4977866 -0.7307692
0.279596 -0.4722158 -0.7377622
0.3474103 -0.4201348 -0.7342657
0.3994472 -0.4173448 -0.7307692
0.4156554 -0.3815345 -0.7377622
0.3921919 -0.3373634 -0.7342657
-0.8865467 -0.9302488 -0.7237762
-0.8191547 -0.8981678 -0.7202797
-0.8754569 -0.888863 -0.7272727
-0.9547919 -0.8200418 -0.7237762
-0.769677 -0.8209718 -0.7272727
-0.8430405 -0.8167914 -0.7272727
-0.8276854 -0.8172472 -0.7272727
-0.8844141 -0.8084167 -0.7202797
-0.9419959 -0.7851663 -0.7237762
-0.889959 -0.7540107 -0.7272727
-0.7935628 -0.7507557 -0.7202797
-0.796122 -0.7247152 -0.7202797
-0.1917261 -0.7237898 -0.7237762
-0.283004 -0.715415 -0.7202797
-0.723185 -0.7037898 -0.7237762
-0.9117122 -0.6930946 -0.7272727
-0.7991077 -0.6982097 -0.7237762
-0.6656032 -0.6684492 -0.7237762
-0.3401593 -0.6461288 -0.7272727
-0.8072118 -0.619163 -0.7202797
-0.3457042 -0.5921879 -0.7237762
0.05907468 -0.5926529 -0.7237762
-0.2987857 -0.5568473 -0.7237762
-0.279596 -0.5535922 -0.7237762
0.2872693 -0.5526622 -0.7237762
-0.7551749 -0.5442874 -0.7202797
-0.6157032 -0.5466171 -0.7272727
0.1239075 -0.5354569 -0.7202797
-0.07016452 -0.5201116 -0.7202797
0.2659427 -0.5284817 -0.7272727
-0.6984462 -0.5117415 -0.7237762
-0.5726192 -0.5126715 -0.7272727
-0.9313326 -0.5080214 -0.7272727
0.04883792 -0.4861614 -0.7237762
0.2608243 -0.4754708 -0.7272727
-0.8101975 -0.4438503 -0.7202797
0.2770325 -0.4457103 -0.7272727
-0.7517626 -0.4359451 -0.7237762
0.3968923 -0.3908393 -0.7272727
0.4659862 -0.3387584 -0.7272727
0.4779291 -0.2671472 -0.7202797
0.4587352 -0.259707 -0.7202797
0.4757964 -0.2397117 -0.7202797
-0.9462655 -0.8990932 -0.7132867
-0.9330388 -0.8656126 -0.7132867
-0.8784426 -0.8618926 -0.7132867
-0.9603368 -0.7674959 -0.7132867
-0.836216 -0.7372704 -0.7132867
-0.8392017 -0.7102999 -0.7167832
-0.2134793 -0.7047198 -0.7132867
-0.9535123 -0.6777447 -0.7167832
-0.1994037 -0.6428691 -0.7167832
-0.8477324 -0.6298535 -0.7167832
-0.149926 -0.6214834 -0.7167832
-0.07912169 -0.6265985 -0.7132867
-0.3636185 -0.6140386 -0.7132867
-0.08424007 -0.5740526 -0.7167832
-0.4868863 -0.540572 -0.7132867
-0.6182581 -0.5201116 -0.7132867
-0.7428055 -0.5168566 -0.7167832
-0.3039041 -0.5038363 -0.7167832
0.2633835 -0.5019763 -0.7167832
-0.7010096 -0.4857056 -0.7132867
-0.5589702 -0.4675657 -0.7132867
-0.4275983 -0.4680353 -0.7167832
-0.5619559 -0.4410602 -0.7132867
0.4856067 -0.3485236 -0.7132867
0.4058452 -0.2736573 -0.7167832
-0.9300573 -0.8930435 -0.7062937
-0.7257442 -0.6782144 -0.7062937
-0.3371736 -0.6735643 -0.7097902
-0.0740033 -0.6796094 -0.7062937
-0.5423355 -0.6289235 -0.7097902
-0.6899155 -0.5917228 -0.7062937
0.1994037 -0.5814927 -0.7097902
0.1264667 -0.5624273 -0.7097902
-0.4190677 -0.5480121 -0.7062937
-0.3712961 -0.5345268 -0.7097902
-0.5534253 -0.5219716 -0.7097902
0.1947076 -0.5289468 -0.7027972
-0.1431015 -0.4968612 -0.7062937
0.1192157 -0.483376 -0.7027972
-0.8067853 -0.4717508 -0.7062937
0.04670525 -0.4601256 -0.7027972
-0.5645151 -0.4150198 -0.7062937
0.2748956 -0.4187398 -0.7097902
-0.7091094 -0.4057196 -0.7062937
0.3448511 -0.3936294 -0.7062937
0.3376001 -0.312718 -0.7097902
0.3853717 -0.2592374 -0.7062937
0.4732372 -0.2127366 -0.7062937
0.4685454 -0.1597303 -0.7027972
-0.8810018 -0.8353871 -0.6923077
-0.7811891 -0.71402 -0.6993007
-0.8417609 -0.6837898 -0.6958042
-0.6071683 -0.6284585 -0.6923077
-0.4327167 -0.5917228 -0.6923077
-0.2232895 -0.599628 -0.6958042
-0.3661777 -0.5880028 -0.6993007
-0.5478804 -0.5759126 -0.6923077
-0.2262795 -0.5731179 -0.6993007
-0.9680101 -0.5438316 -0.6993007
-0.6327602 -0.5442874 -0.6993007
-0.06760532 -0.5470821 -0.6958042
0.143528 -0.5391769 -0.6993007
-0.6353194 -0.5182516 -0.6958042
-0.8758835 -0.5015113 -0.6923077
-0.2851409 -0.5005813 -0.6993007
-0.09149111 -0.4950012 -0.6958042
-0.6852194 -0.4801162 -0.6993007
-0.004052054 -0.4801162 -0.6923077
0.1895892 -0.4764008 -0.6923077
-0.6408643 -0.4657057 -0.6993007
-0.006611246 -0.4531504 -0.6923077
0.1166565 -0.4568658 -0.6993007
0.1874608 -0.4498954 -0.6993007
-0.6911951 -0.4261799 -0.6958042
0.3273633 -0.4215345 -0.6993007
-0.1512056 -0.4168798 -0.6993007
0.2723407 -0.3922344 -0.6958042
-0.4357024 -0.3875843 -0.6958042
-0.3670308 -0.3773541 -0.6923077
0.2514406 -0.370844 -0.6923077
-0.889959 -0.3694536 -0.6993007
0.3427185 -0.3666589 -0.6993007
0.3900635 -0.312253 -0.6923077
0.6067418 -0.3015578 -0.6923077
0.3879308 -0.2857475 -0.6993007
0.3985941 -0.1932109 -0.6923077
0.4711046 -0.1867008 -0.6923077
0.5431885 -0.1727505 -0.6923077
0.449778 -0.1550802 -0.6958042
0.5359332 -0.0913741 -0.6958042
-0.8302445 -0.7912114 -0.6853147
-0.6246561 -0.6233434 -0.6853147
-0.8502958 -0.6033481 -0.6853147
-0.4135185 -0.6024134 -0.6818182
-0.2740468 -0.6084632 -0.6818182
-0.0620604 -0.600093 -0.6818182
-0.809771 -0.5931179 -0.6818182
-0.1524852 -0.5954429 -0.6888112
-0.9650286 -0.5707975 -0.6818182
-0.4839005 -0.5675378 -0.6818182
0.197271 -0.5554569 -0.6853147
-0.3508226 -0.5387119 -0.6853147
-0.3009226 -0.5308068 -0.6853147
-0.9710001 -0.5173215 -0.6818182
-0.6383051 -0.4922111 -0.6888112
0.1384096 -0.4861614 -0.6818182
-0.6267845 -0.4405952 -0.6888112
0.2586874 -0.4498954 -0.6853147
0.04414606 -0.4336154 -0.6888112
-0.8844141 -0.4229249 -0.6818182
0.2040956 -0.42711 -0.6818182
-0.812761 -0.4178098 -0.6853147
-0.4327167 -0.4145547 -0.6818182
-0.9424224 -0.4043292 -0.6853147
-0.9279203 -0.4038596 -0.6888112
-0.582856 -0.4085096 -0.6888112
-0.5005353 -0.4066496 -0.6853147
0.1776506 -0.3443385 -0.6818182
-0.7799138 -0.3076029 -0.6888112
0.396035 -0.1662358 -0.6818182
0.5150374 -0.07044873 -0.6818182
-0.8451689 -0.7916763 -0.6783217
-0.8618079 -0.6340386 -0.6713287
-0.5640886 -0.5931179 -0.6748252
-0.4352759 -0.5652174 -0.6713287
0.1460872 -0.5666124 -0.6783217
-0.856263 -0.5498675 -0.6748252
-0.08637273 -0.5484771 -0.6748252
-0.3533818 -0.5122064 -0.6713287
-0.7453647 -0.4908161 -0.6713287
-0.9189632 -0.4861614 -0.6713287
-0.8208608 -0.4889561 -0.6748252
-0.4920047 -0.4880261 -0.6783217
-0.2156162 -0.4819809 -0.6748252
-0.4949904 -0.4605906 -0.6783217
-0.2360855 -0.4680353 -0.6713287
-0.8814284 -0.4494304 -0.6713287
-0.8677794 -0.4424552 -0.6783217
-0.9245081 -0.43176 -0.6748252
-0.5802968 -0.4354801 -0.6713287
-0.2928142 -0.4201348 -0.6713287
-0.2416304 -0.4150198 -0.6748252
0.04158687 -0.4075796 -0.6713287
-0.8869733 -0.3964194 -0.6783217
0.2539998 -0.3978145 -0.6713287
-0.5854152 -0.3829342 -0.6713287
-0.9449816 -0.3782841 -0.6783217
-0.9304753 -0.3778191 -0.6748252
0.1989772 -0.373169 -0.6783217
0.3951819 -0.3657289 -0.6713287
-0.9479674 -0.3517833 -0.6783217
-0.3700165 -0.3508486 -0.6783217
-0.8238423 -0.3103929 -0.6713287
-0.8400505 -0.3038828 -0.6748252
0.5555579 -0.3080679 -0.6783217
0.5529987 -0.2810974 -0.6713287
0.3329125 -0.260172 -0.6748252
0.4037125 -0.2476122 -0.6783217
0.5956519 -0.1704255 -0.6713287
0.3759837 -0.1546106 -0.6783217
0.5222884 -0.1495001 -0.6713287
0.5338048 -0.06486864 -0.6713287
-0.01642148 -0.542897 -0.6678322
-0.4378351 -0.5391769 -0.6643357
-0.1401158 -0.5247617 -0.6678322
-0.08893192 -0.5219716 -0.6678322
-0.4894455 -0.5149919 -0.6678322
0.1409731 -0.5126715 -0.6608391
-0.6822379 -0.5080214 -0.6678322
-0.3738553 -0.5094118 -0.6643357
-0.703138 -0.4605906 -0.6678322
-0.623803 -0.4671007 -0.6678322
-0.1648546 -0.4638456 -0.6643357
-0.02409479 -0.4643106 -0.6643357
0.2066548 -0.4540804 -0.6643357
-0.1674138 -0.4378052 -0.6678322
-0.02623172 -0.4378052 -0.6608391
-0.08040128 -0.4136247 -0.6678322
-0.02879091 -0.4117647 -0.6678322
-0.4382616 -0.3610788 -0.6643357
0.270208 -0.3661939 -0.6643357
-0.8925182 -0.3438735 -0.6643357
-0.6992992 -0.3466589 -0.6608391
-0.8374956 -0.3303883 -0.6678322
-0.5909601 -0.3303883 -0.6608391
0.2676488 -0.3387584 -0.6643357
-0.8268323 -0.2838875 -0.6608391
0.3354674 -0.2866775 -0.6608391
-0.7253177 -0.2476122 -0.6608391
0.2394977 -0.2392467 -0.6643357
0.2373608 -0.2132062 -0.6678322
0.3252307 -0.1792606 -0.6678322
0.5197335 -0.1229947 -0.6678322
0.5862682 -0.06486864 -0.6678322
-0.5666478 -0.567082 -0.6503497
-0.550013 -0.5503371 -0.6538461
-0.4403943 -0.5131365 -0.6503497
0.06931145 -0.5010462 -0.6573427
0.2117731 -0.5075564 -0.6538461
-0.44338 -0.486631 -0.6503497
-0.3764145 -0.483376 -0.6503497
-0.3060367 -0.4796605 -0.6503497
-0.577311 -0.4619856 -0.6538461
0.1358547 -0.4596605 -0.6538461
-0.6434235 -0.4401302 -0.6538461
-0.2386446 -0.4419902 -0.6503497
-0.1482199 -0.4443153 -0.6573427
-0.07741129 -0.4415252 -0.6503497
-0.7056972 -0.4340851 -0.6503497
-0.4484984 -0.4345501 -0.6503497
-0.169973 -0.4112997 -0.6573427
-0.6937543 -0.4001395 -0.6573427
0.2019629 -0.4006045 -0.6573427
-0.6319029 -0.3866589 -0.6538461
-0.3162735 -0.3745641 -0.6573427
-0.8345056 -0.3573588 -0.6538461
-0.4566025 -0.3550337 -0.6573427
-0.8792957 -0.3350337 -0.6538461
-0.776928 -0.334578 -0.6573427
-0.6378786 -0.3327133 -0.6538461
-0.5726192 -0.3359684 -0.6503497
-0.4591617 -0.3285329 -0.6503497
0.3158469 -0.2899326 -0.6503497
0.5508661 -0.2545919 -0.6538461
0.1682626 -0.2401767 -0.6503497
0.5483069 -0.2276215 -0.6538461
0.3085959 -0.2108812 -0.6503497
0.3277941 -0.2067008 -0.6503497
0.466417 -0.1336898 -0.6538461
0.4638535 -0.1062544 -0.6538461
-0.416082 -0.5759126 -0.6433566
-0.01855841 -0.5173215 -0.6468531
0.1217749 -0.5108114 -0.6433566
-0.5747519 -0.4880261 -0.6433566
-0.1452341 -0.4717508 -0.6433566
-0.3085959 -0.4531504 -0.6433566
-0.2177446 -0.4554755 -0.6468531
-0.429731 -0.4419902 -0.6468531
-0.3614859 -0.4322251 -0.6433566
-0.3111551 -0.42711 -0.6468531
-0.7112421 -0.3810788 -0.6468531
-0.6485419 -0.3871146 -0.6468531
-0.7594445 -0.3573588 -0.6468531
0.3405858 -0.3410835 -0.6433566
-0.2488814 -0.3373634 -0.6433566
0.2471753 -0.3187631 -0.6433566
0.2578386 -0.2322716 -0.6468531
0.3307756 -0.2341316 -0.6433566
0.4011534 -0.2211114 -0.6468531
0.5410601 -0.1462451 -0.6433566
0.3913431 -0.1132295 -0.6468531
0.3887839 -0.08625901 -0.6433566
-0.5056537 -0.5149919 -0.6398602
-0.1622997 -0.4908161 -0.6398602
-0.5086394 -0.4889561 -0.6398602
-0.8229935 -0.462911 -0.6363636
-0.7628525 -0.4671007 -0.6398602
-0.7479239 -0.4643106 -0.6363636
-0.6877828 -0.4545455 -0.6398602
-0.09618296 -0.4438503 -0.6328672
-0.5137578 -0.4364101 -0.6363636
-0.4975496 -0.4345501 -0.6363636
-0.3815286 -0.430365 -0.6398602
0.1853282 -0.4252499 -0.6363636
-0.3137143 -0.4010695 -0.6398602
-0.87631 -0.3620088 -0.6398602
-0.7142279 -0.3550337 -0.6398602
-0.8208608 -0.3378284 -0.6398602
-0.8426139 -0.2783074 -0.6398602
-0.4642801 -0.2759823 -0.6398602
-0.9006223 -0.2652825 -0.6398602
-0.8293872 -0.257847 -0.6398602
0.5269803 -0.2034411 -0.6328672
0.5461785 -0.2006557 -0.6398602
0.2352324 -0.1871658 -0.6363636
0.5248519 -0.1769356 -0.6398602
-0.856263 -0.1467101 -0.6398602
0.3717226 -0.1020739 -0.6363636
0.6071683 -0.0797489 -0.6398602
-0.07187491 -0.4954662 -0.6223776
-0.09361951 -0.4703557 -0.6293706
-0.9215224 -0.4596605 -0.6293706
-0.7654074 -0.4410602 -0.6258741
0.1337178 -0.4326901 -0.6258741
-0.8703386 -0.4164101 -0.6258741
-0.8285384 -0.410365 -0.6223776
-0.516317 -0.410365 -0.6293706
-0.3840921 -0.4043292 -0.6258741
-0.3640451 -0.4052546 -0.6258741
0.05907468 -0.3940944 -0.6258741
-0.5666478 -0.3894443 -0.6293706
-0.5188762 -0.3843292 -0.6258741
-0.8178751 -0.3657289 -0.6223776
-0.5696335 -0.3629389 -0.6258741
-0.2979326 -0.3666589 -0.6293706
-0.5879744 -0.3573588 -0.6258741
-0.3943288 -0.2992328 -0.6258741
-0.3239511 -0.2959777 -0.6223776
0.1179361 -0.2704069 -0.6258741
-0.8451689 -0.2522669 -0.6223776
-0.710389 -0.2387817 -0.6223776
-0.8903856 -0.2271565 -0.6258741
-0.7875913 -0.2299512 -0.6223776
0.2552794 -0.2053011 -0.6258741
0.4548964 -0.2094862 -0.6258741
0.4523372 -0.1829807 -0.6293706
-0.8537038 -0.1732155 -0.6223776
0.3017714 -0.1327598 -0.6258741
0.2450426 -0.0974192 -0.6223776
-0.02111333 -0.4912857 -0.6188811
-0.008743905 -0.4280353 -0.6188811
-0.4510576 -0.4085096 -0.6188811
-0.1533383 -0.3913043 -0.6188811
-0.1013013 -0.3908393 -0.6188811
0.1831955 -0.3992095 -0.6153846
-0.4536168 -0.3824692 -0.6188811
-0.386647 -0.3782841 -0.6118881
-0.6511011 -0.3615438 -0.6153846
-0.2463222 -0.3638642 -0.6188811
-0.1558974 -0.3643339 -0.6153846
0.2497345 -0.3457336 -0.6153846
-0.7167913 -0.3285329 -0.6188811
-0.7018584 -0.3206231 -0.6188811
-0.3213919 -0.3224832 -0.6188811
0.1755179 -0.3196931 -0.6153846
0.2655162 -0.313648 -0.6118881
0.2450426 -0.2927226 -0.6188811
-0.466835 -0.2504069 -0.6118881
-0.7705258 -0.2499419 -0.6153846
-0.8319507 -0.2313416 -0.6188811
0.1866077 -0.2397117 -0.6188811
0.1661342 -0.2146012 -0.6118881
-0.6545134 -0.1713555 -0.6118881
0.2326732 -0.1615903 -0.6118881
-0.9142756 -0.1346199 -0.6118881
-0.3555144 -0.4861614 -0.6048951
-0.2868428 -0.4754708 -0.6083916
-0.510772 -0.4633806 -0.6083916
-0.07442983 -0.468491 -0.6048951
-0.2898285 -0.4485003 -0.6083916
-0.8255527 -0.4368751 -0.6048951
0.1149461 -0.4322251 -0.6083916
-0.6289214 -0.4150198 -0.6013986
-0.8310976 -0.3843292 -0.6083916
-0.502668 -0.3815345 -0.6013986
-0.1721057 -0.3866589 -0.6048951
0.109832 -0.3801441 -0.6013986
-0.2258487 -0.3759591 -0.6048951
-0.7735158 -0.3624738 -0.6048951
-0.3892104 -0.3527087 -0.6013986
-0.3004918 -0.3406138 -0.6048951
-0.4403943 -0.3355034 -0.6083916
-0.3721492 -0.3248082 -0.6083916
0.1051401 -0.3275982 -0.6048951
0.123481 -0.3248082 -0.6083916
-0.8946509 -0.3182981 -0.6083916
-0.5747519 -0.3099279 -0.6083916
-0.7044176 -0.2936573 -0.6013986
0.1209218 -0.2978377 -0.6048951
0.173381 -0.2936573 -0.6013986
-0.5137578 -0.2750523 -0.6048951
-0.3968923 -0.2736573 -0.6013986
-0.3085959 -0.259707 -0.6013986
-0.9031815 -0.2401767 -0.6013986
-0.2591182 -0.2322716 -0.6013986
-0.7901505 -0.2043711 -0.6013986
-0.7765015 -0.1960009 -0.6048951
0.323098 -0.1532202 -0.6083916
0.3742818 -0.1295048 -0.6048951
-0.8618079 -0.09509417 -0.6048951
0.3132878 -0.04533829 -0.6013986
0.360202 0.02813299 -0.6013986
0.4271718 0.1057893 -0.6013986
-0.4455084 -0.4619856 -0.5944056
-0.3785471 -0.4578005 -0.5909091
-0.7679709 -0.4150198 -0.5909091
0.1311586 -0.4061846 -0.5979021
-0.2949469 -0.3945594 -0.5944056
0.1285994 -0.3792141 -0.5909091
-0.3184061 -0.3499186 -0.5979021
-0.5239946 -0.3317833 -0.5909091
0.1947076 -0.3206231 -0.5944056
-0.6562195 -0.3094629 -0.5979021
-0.5930927 -0.3062079 -0.5909091
-0.8844141 -0.2820321 -0.5909091
0.1000217 -0.2755173 -0.5909091
-0.236512 -0.2680772 -0.5979021
0.2608243 -0.260172 -0.5909091
-0.6617644 -0.256917 -0.5909091
-0.7735158 -0.2234364 -0.5944056
-0.6485419 -0.2257615 -0.5979021
-0.6011968 -0.2262265 -0.5944056
0.1844751 -0.2132062 -0.5944056
-0.8507138 -0.200186 -0.5979021
-0.9087307 -0.1876308 -0.5909091
-0.7329995 -0.1694955 -0.5909091
-0.03475809 -0.1588003 -0.5909091
-0.735981 -0.1425297 -0.5979021
0.3158469 -0.07323413 -0.5944056
0.36959 -0.07695885 -0.5944056
-0.9253569 -0.02999303 -0.5909091
0.4365555 0.00116252 -0.5909091
0.3580736 0.05417345 -0.5909091
0.4472188 0.08160893 -0.5909091
0.4399635 0.1629854 -0.5944056
0.4348451 0.2164613 -0.5909091
-0.7534688 -0.4122297 -0.5839161
-0.6455562 -0.4150198 -0.5839161
-0.6344664 -0.3615438 -0.5804196
-0.6536603 -0.3359684 -0.5839161
-0.4429535 -0.3094629 -0.5874126
-0.2335263 -0.2950477 -0.5804196
-0.7816199 -0.2834225 -0.5804196
-0.3994472 -0.2485469 -0.5874126
-0.5346578 -0.2266915 -0.5804196
-0.7129482 -0.2127366 -0.5874126
-0.1013013 -0.198326 -0.5839161
0.2505876 -0.1527552 -0.5839161
-0.843467 -0.1229947 -0.5839161
-0.8464528 -0.0969542 -0.5804196
0.2232895 -0.05602883 -0.5804196
0.2945203 -0.05463846 -0.5839161
0.3107285 -0.01836782 -0.5874126
-0.9279203 -0.003952569 -0.5874126
-0.74963 -0.009997675 -0.5804196
-0.8724712 0.009532667 -0.5839161
0.3085959 0.008142292 -0.5839161
-0.7705258 -0.3894443 -0.5769231
-0.7615729 -0.3317833 -0.5734265
-0.5077863 -0.3289886 -0.5734265
-0.3913431 -0.3266682 -0.5734265
-0.303051 -0.314578 -0.5769231
-0.510772 -0.3024878 -0.5734265
0.1025809 -0.3020228 -0.5734265
-0.6587744 -0.2834225 -0.5769231
-0.3060367 -0.2876075 -0.5769231
-0.7675443 -0.2783074 -0.5769231
0.1712526 -0.2676122 -0.5769231
-0.7846056 -0.257382 -0.5769231
-0.2416304 -0.2146012 -0.5769231
-0.6037561 -0.200186 -0.5734265
-0.7300095 -0.1964659 -0.5734265
-0.2441896 -0.1876308 -0.5769231
-0.03220316 -0.1857708 -0.5734265
-0.7790607 -0.1704255 -0.5734265
-0.4745168 -0.1722809 -0.5734265
-0.9112856 -0.1615903 -0.5769231
-0.6570725 -0.145315 -0.5734265
-0.9014754 -0.1206696 -0.5769231
-0.05608469 -0.1229947 -0.5734265
0.3209653 -0.1271797 -0.5734265
0.2970795 -0.08114392 -0.5769231
0.2403508 -0.04394792 -0.5769231
-0.7466443 -0.03696815 -0.5769231
-0.9189632 0.04208324 -0.5734265
0.4425269 0.1350849 -0.5769231
0.3461307 0.1857708 -0.5769231
0.4156554 0.2369217 -0.5734265
-0.2433365 -0.3908393 -0.5699301
-0.5214354 -0.3587538 -0.5699301
-0.2279814 -0.3503836 -0.5629371
-0.2309671 -0.3224832 -0.5664335
-0.7645586 -0.3052825 -0.5699301
-0.577311 -0.2838875 -0.5664335
-0.7219054 -0.276452 -0.5664335
0.1895892 -0.2680772 -0.5629371
-0.4484984 -0.255522 -0.5629371
-0.8374956 -0.177861 -0.5699301
-0.7816199 -0.143455 -0.5699301
-0.7214789 -0.1322948 -0.5664335
-0.7385359 -0.1164845 -0.5699301
-0.6596317 -0.1188096 -0.5629371
-0.9168305 -0.1095094 -0.5629371
-0.8008138 -0.1002093 -0.5699301
-0.7240381 -0.1048593 -0.5664335
-0.1115381 -0.09044873 -0.5699301
-0.8037996 -0.07370379 -0.5664335
0.2429057 -0.07137875 -0.5629371
-0.9074468 -0.06579866 -0.5699301
-0.599495 -0.06998373 -0.5629371
-0.1140973 -0.06393862 -0.5629371
0.3870778 -0.06115322 -0.5699301
-0.8669263 -0.04347826 -0.5664335
0.4386882 -0.02534294 -0.5699301
0.2356589 0.009532667 -0.5629371
-0.7602933 0.09555452 -0.5629371
0.2783121 0.1290398 -0.5629371
0.4203473 0.1843757 -0.5664335
0.3414389 0.2378517 -0.5699301
0.5005353 0.312253 -0.5629371
-0.6954647 -0.3754894 -0.5594406
-0.2561325 -0.259707 -0.5559441
-0.8473058 -0.2276215 -0.5559441
-0.7270238 -0.2239061 -0.5524476
-0.8345056 -0.2053011 -0.5559441
-0.1712526 -0.2034411 -0.5559441
-0.1209218 -0.1815857 -0.5559441
-0.1921527 -0.1764706 -0.5594406
0.253151 -0.1797256 -0.5594406
-0.5913866 -0.1504301 -0.5594406
-0.05310323 -0.1499651 -0.5559441
-0.6749869 -0.1267147 -0.5524476
-0.6114336 -0.1220646 -0.5524476
0.2480241 -0.12578 -0.5559441
0.2284079 -0.1095094 -0.5524476
-0.9044611 -0.09369914 -0.5559441
-0.6139928 -0.09602883 -0.5559441
-0.1998345 -0.09788422 -0.5594406
-0.849012 -0.07044873 -0.5594406
-0.7901505 -0.06254359 -0.5524476
0.2211611 -0.03045803 -0.5524476
0.3845186 -0.0341781 -0.5594406
-0.8549834 -0.01557777 -0.5524476
-0.6220969 -0.0174378 -0.5559441
0.3627655 0.0006975122 -0.5524476
-0.7381179 0.02952802 -0.5524476
0.4344271 0.02673797 -0.5559441
-0.8775896 0.06114857 -0.5524476
0.3559409 0.0802139 -0.5524476
-0.9249389 0.09602418 -0.5524476
0.2757529 0.1550802 -0.5594406
0.4378351 0.1885561 -0.5524476
0.3572206 0.2643525 -0.5524476
0.4062717 0.3415485 -0.5524476
0.4041391 0.3675889 -0.5524476
-0.4455084 -0.2829575 -0.5454546
-0.7069768 -0.2676122 -0.5454546
-0.5158905 -0.2494769 -0.541958
-0.537217 -0.201581 -0.548951
-0.1895892 -0.202976 -0.548951
-0.6511011 -0.199721 -0.541958
-0.2638143 -0.1806557 -0.5454546
-0.1742383 -0.1769356 -0.5454546
-0.103434 -0.1718252 -0.5454546
-0.123481 -0.1555452 -0.548951
-0.1767975 -0.1495001 -0.548951
0.2309671 -0.1364799 -0.548951
-0.197271 -0.1239247 -0.5454546
-0.1285994 -0.1029993 -0.548951
-0.7871648 -0.08951407 -0.548951
-0.2023894 -0.07184376 -0.5454546
-0.1849016 -0.06812369 -0.5454546
0.3674573 -0.05184841 -0.5454546
0.3823859 -0.007207626 -0.5454546
-0.7355545 0.003022553 -0.541958
-0.6937543 0.05742851 -0.541958
-0.7573076 0.0685887 -0.5454546
-0.8805753 0.08672402 -0.5454546
-0.6818114 0.09602418 -0.541958
-0.8225669 0.1095094 -0.548951
0.3533818 0.1062544 -0.5454546
0.3721492 0.1015996 -0.5454546
0.3700165 0.1281097 -0.541958
-0.7551749 0.1913508 -0.541958
0.4182189 0.2099512 -0.541958
0.4885924 0.2415717 -0.5454546
0.4135185 0.2629621 -0.548951
0.3550879 0.2913276 -0.541958
0.3346143 0.3159777 -0.548951
0.3499695 0.3452732 -0.541958
-0.7189197 -0.3034178 -0.5384616
-0.5261272 -0.3066729 -0.534965
-0.5977846 -0.2541269 -0.5314685
-0.5798702 -0.257847 -0.534965
-0.5184497 -0.2229714 -0.5384616
-0.4715354 -0.199721 -0.534965
-0.5879744 -0.177861 -0.5314685
-0.5397763 -0.1755406 -0.5314685
-0.05054831 -0.1769356 -0.534965
-0.8400505 -0.1513602 -0.5384616
-0.7952689 -0.1532202 -0.5314685
-0.5269803 -0.1425297 -0.5314685
-0.1059932 -0.145315 -0.5384616
-0.1085524 -0.1183446 -0.5384616
-0.596505 -0.0974192 -0.534965
-0.919394 -0.08346896 -0.5384616
-0.8059322 -0.04859335 -0.534965
0.2928142 -0.02952802 -0.534965
0.3653204 -0.02580795 -0.5314685
-0.4224799 -0.01232272 -0.5384616
-0.4045656 -0.003027203 -0.5314685
-0.4757964 0.0141781 -0.5384616
-0.8605283 0.03836317 -0.534965
0.3772675 0.04673332 -0.534965
-0.4813414 0.06812369 -0.5384616
0.3747084 0.0741688 -0.5314685
-0.8072118 0.09927924 -0.534965
-0.8101975 0.1262497 -0.5384616
-0.7628525 0.1211346 -0.5384616
-0.9304753 0.1490351 -0.5314685
0.3486899 0.1583353 -0.534965
-0.8886794 0.1653057 -0.534965
-0.7044176 0.1615903 -0.5314685
0.5645151 0.4061846 -0.534965
-0.5952254 -0.2810974 -0.520979
-0.5316721 -0.2545919 -0.5244755
-0.6638928 -0.2318066 -0.527972
-0.6694377 -0.1792606 -0.5244755
-0.7180666 -0.1606557 -0.520979
-0.6720012 -0.1532202 -0.5244755
-0.1947076 -0.1504301 -0.5244755
-0.4766495 -0.1471751 -0.527972
-0.7841791 -0.1174146 -0.5244755
-0.4118167 -0.1178796 -0.527972
-0.7406728 -0.0913741 -0.5244755
-0.5474538 -0.09648454 -0.527972
0.2262795 -0.08393397 -0.520979
-0.4873128 -0.04254824 -0.5244755
-0.4702515 -0.0402232 -0.527972
-0.1874608 -0.04208324 -0.520979
-0.6856502 -0.02208789 -0.527972
-0.4015799 -0.02999303 -0.527972
0.2382181 -0.01836782 -0.520979
-0.7956954 -0.009528017 -0.5244755
0.2902593 -0.003482911 -0.527972
-0.6246561 0.008142292 -0.520979
-0.7986811 0.01790281 -0.5244755
0.216465 0.02162288 -0.5244755
-0.5636621 0.06114857 -0.520979
-0.4975496 0.06207859 -0.527972
-0.8042261 0.07184841 -0.5244755
0.283004 0.07602883 -0.527972
-0.6963135 0.08300395 -0.520979
0.3013406 0.08765403 -0.520979
0.4254657 0.1304301 -0.527972
-0.7654074 0.1471751 -0.520979
0.3444246 0.2104162 -0.5244755
0.5056537 0.257382 -0.5244755
0.430584 0.2699326 -0.520979
0.4280249 0.2973727 -0.520979
0.4817679 0.3201581 -0.5244755
0.3277941 0.3940944 -0.520979
0.4749434 0.3992095 -0.527972
0.5440416 0.431295 -0.5244755
0.5598233 0.4605906 -0.527972
0.5576906 0.487561 -0.520979
-0.6451296 -0.255057 -0.5104895
-0.6664562 -0.2057661 -0.513986
-0.5854152 -0.2048361 -0.513986
-0.5419089 -0.1499651 -0.5104895
-0.5935193 -0.1248547 -0.5174825
-0.05822162 -0.09788422 -0.5174825
-0.396035 -0.08440363 -0.5104895
-0.2045221 -0.04626831 -0.513986
-0.5555579 -0.01790281 -0.5174825
-0.4728107 -0.01371774 -0.5104895
-0.6882094 0.003952569 -0.5104895
-0.5581171 0.008142292 -0.5174825
-0.7517626 0.01511276 -0.5104895
-0.4275983 0.03975819 -0.513986
-0.4783556 0.04068821 -0.5174825
0.2117731 0.0741688 -0.5104895
-0.6327602 0.08672402 -0.513986
-0.4327167 0.09230412 -0.5174825
-0.8251262 0.1350849 -0.5174825
0.3512491 0.1313648 -0.5104895
-0.4378351 0.144385 -0.5104895
0.3674573 0.1546152 -0.5104895
0.3627655 0.2090212 -0.5104895
-0.7735158 0.2257615 -0.5104895
0.360202 0.2364566 -0.513986
0.2812979 0.3043525 -0.5104895
0.4020064 0.3931644 -0.5174825
0.3951819 0.4717508 -0.5174825
0.3350409 0.5080261 -0.5174825
0.4084044 0.5145315 -0.5174825
-0.4143758 -0.09230412 -0.5034965
-0.6191112 -0.04487329 -0.5034965
-0.869059 -0.01836782 -0.5034965
-0.6702951 -0.01232272 -0.506993
-0.5406293 -0.008137642 -0.506993
0.2190242 -0.004882585 -0.506993
-0.8575426 0.01046268 -0.506993
0.3802533 0.01883283 -0.506993
-0.8165955 0.05556847 -0.506993
-0.7406728 0.05556847 -0.506993
-0.5662212 0.08672402 -0.5034965
-0.6988727 0.1085794 -0.506993
-0.6843706 0.1225296 -0.5034965
-0.7491992 0.1364752 -0.5034965
-0.5713396 0.1383399 -0.506993
-0.8716224 0.145315 -0.506993
-0.943702 0.1513602 -0.5034965
-0.4924312 0.1760056 -0.5034965
-0.5602498 0.1806557 -0.5034965
-0.9492469 0.2039061 -0.506993
0.4331432 0.2420367 -0.5034965
0.2667958 0.258777 -0.506993
0.4843271 0.293183 -0.506993
0.2079343 0.3043525 -0.506993
0.5487334 0.3787491 -0.5034965
0.3452776 0.3987445 -0.5034965
0.3998737 0.4187398 -0.5034965
0.4156554 0.4336201 -0.506993
0.250161 0.4429202 -0.5034965
0.2476061 0.4684957 -0.5034965
0.3376001 0.4801209 -0.5034965
0.5397763 0.483376 -0.506993
0.3883574 0.5498721 -0.5034965
0.4787822 0.5554522 -0.5034965
-0.7973973 -0.1281097 -0.5
-0.5444681 -0.1234597 -0.5
-0.4642801 -0.09462915 -0.5
-0.550013 -0.07137875 -0.493007
-0.5525722 -0.04487329 -0.4965035
-0.7927097 -0.03696815 -0.4965035
-0.7321422 -0.02580795 -0.4965035
-0.9125652 -0.01418275 -0.493007
-0.6075948 0.009067658 -0.493007
-0.8140363 0.02906301 -0.4965035
0.2335263 0.03464311 -0.4965035
0.2143323 0.04719833 -0.5
-0.6788257 0.06812369 -0.493007
0.2812979 0.1011439 -0.493007
-0.8827037 0.1118345 -0.4965035
-0.5687804 0.1122995 -0.5
-0.9411386 0.12485 -0.5
-0.9466835 0.1774006 -0.493007
0.2740468 0.1801907 -0.5
-0.510772 0.1927459 -0.493007
-0.9390102 0.2299465 -0.493007
-0.8357894 0.2397117 -0.4965035
-0.9415694 0.256917 -0.5
-0.7760707 0.2522716 -0.493007
0.3376001 0.2890026 -0.4965035
0.1904465 0.3094629 -0.4965035
0.2621039 0.3108533 -0.4965035
0.4258922 0.3243432 -0.493007
-0.9505265 0.3382934 -0.4965035
0.2787386 0.3317833 -0.5
0.3478369 0.371309 -0.5
0.1831955 0.3880493 -0.493007
0.2548529 0.3899093 -0.5
0.5465965 0.4043246 -0.4965035
0.3977411 0.4452453 -0.4965035
0.4864597 0.4736061 -0.5
0.2454692 0.4945362 -0.5
0.2429057 0.5210416 -0.493007
0.3904901 0.5233666 -0.5
0.4058452 0.541502 -0.5
0.330349 0.5614973 -0.493007
-0.4617209 -0.1220646 -0.4895105
-0.6617644 -0.09323413 -0.486014
-0.5320987 -0.09044873 -0.4825175
-0.4672658 -0.06765404 -0.486014
-0.8515711 -0.04440363 -0.4895105
-0.6673093 -0.03975819 -0.4825175
-0.8084914 -0.0230179 -0.4895105
-0.4920047 0.009067658 -0.4825175
-0.6732808 0.0141781 -0.4895105
0.3064675 0.03324808 -0.4895105
-0.8012404 0.04394327 -0.4825175
-0.7543261 0.04068821 -0.4895105
0.2859897 0.048598 -0.4825175
-0.8656467 0.0913741 -0.486014
-0.4839005 0.09462915 -0.486014
-0.7014276 0.1346199 -0.4895105
-0.7521892 0.1629854 -0.4895105
-0.7679709 0.1722855 -0.486014
-0.706546 0.1867008 -0.4825175
-0.709536 0.2127412 -0.486014
-0.5790172 0.2169263 -0.4825175
-0.9518019 0.2294769 -0.4825175
-0.5653682 0.2332016 -0.4895105
-0.9577776 0.2815578 -0.4895105
0.1204953 0.2820274 -0.4825175
-0.889106 0.3071379 -0.486014
0.4774983 0.371774 -0.486014
-0.8976366 0.3889793 -0.486014
0.2527202 0.4159498 -0.486014
0.3235245 0.4447803 -0.4825175
0.3401593 0.4526854 -0.4895105
0.1930057 0.4661707 -0.4825175
0.5555579 0.5140619 -0.4825175
0.4638535 0.5289468 -0.4825175
0.3329125 0.5345268 -0.486014
0.4612901 0.5554522 -0.486014
-0.4813414 -0.09555917 -0.472028
-0.6161212 -0.07091374 -0.479021
-0.743232 -0.06579866 -0.4755245
-0.6016234 -0.04533829 -0.4755245
-0.8110506 0.002552895 -0.479021
-0.4246126 0.01278772 -0.4755245
-0.6101583 0.03557312 -0.472028
0.3043306 0.05975354 -0.479021
-0.9210958 0.06672402 -0.472028
-0.6127132 0.06207859 -0.472028
-0.4122432 0.07695885 -0.472028
-0.6348929 0.1122995 -0.479021
-0.6929013 0.2034411 -0.472028
-0.7577341 0.217396 -0.4755245
-0.4975496 0.2294769 -0.472028
-0.7602933 0.2443618 -0.4755245
-0.8989162 0.2680772 -0.472028
0.3397327 0.2620321 -0.479021
-0.8861202 0.2797024 -0.4755245
-0.7786341 0.2783074 -0.4755245
-0.0219664 0.2769123 -0.472028
-0.9475408 0.3103976 -0.479021
0.2058017 0.3303883 -0.472028
-0.9074468 0.3471286 -0.4755245
0.1857547 0.3610788 -0.4755245
-0.6617644 0.3741037 -0.472028
0.4937108 0.391774 -0.479021
-0.5316721 0.4015345 -0.472028
0.1981241 0.4122297 -0.4755245
0.3260837 0.4187398 -0.472028
-0.7308626 0.4215299 -0.4755245
-0.6003438 0.4257149 -0.472028
0.3162735 0.5238317 -0.4755245
0.457029 0.6075332 -0.479021
0.5410601 0.6758893 -0.472028
-0.5346578 -0.06347361 -0.465035
-0.6903463 0.02906301 -0.4685315
-0.6267845 0.03278307 -0.4615385
-0.8852671 0.1374099 -0.4685315
-0.6212396 0.142525 -0.4615385
-0.6899155 0.1760056 -0.4615385
-0.8908121 0.1899558 -0.4685315
-0.8302445 0.1867008 -0.465035
-0.6267845 0.1964659 -0.4685315
-0.5623867 0.2062265 -0.4685315
-0.6455562 0.2169263 -0.4615385
-0.5184497 0.2708672 -0.4615385
-0.004905118 0.2792374 -0.465035
0.2646631 0.2838875 -0.4685315
-0.9019019 0.2945827 -0.465035
0.3529552 0.3159777 -0.4615385
-0.9044611 0.3206231 -0.4685315
0.0620604 0.3215531 -0.4615385
-0.5086394 0.3373634 -0.465035
0.05950121 0.3485236 -0.4615385
0.423333 0.3508533 -0.465035
0.257412 0.3624785 -0.4685315
0.3307756 0.3666589 -0.465035
-0.910006 0.373169 -0.465035
-0.597358 0.3996745 -0.465035
-0.7922832 0.4103697 -0.4685315
0.343145 0.4247849 -0.4685315
0.2642323 0.4940712 -0.465035
0.4839005 0.5005813 -0.4685315
0.5355152 0.5349919 -0.465035
-0.5431885 0.01790281 -0.458042
-0.6157032 0.08904906 -0.458042
-0.8123302 0.1513602 -0.4545455
-0.7701078 0.197861 -0.458042
-0.9356022 0.201116 -0.4510489
-0.8183059 0.2057707 -0.4545455
-0.7120909 0.2387817 -0.458042
-0.8959305 0.2411021 -0.4510489
-0.5815763 0.2425018 -0.4545455
0.05225017 0.2471518 -0.4545455
-0.002350191 0.2522716 -0.4510489
-0.8238423 0.260172 -0.4510489
0.06760532 0.2671472 -0.458042
-0.8268323 0.2871472 -0.4510489
0.1930057 0.2820274 -0.4510489
-0.9599103 0.3071379 -0.4510489
0.1883139 0.3345734 -0.458042
0.3329125 0.3401535 -0.4545455
0.49627 0.3638689 -0.458042
-0.7743688 0.3787491 -0.4545455
-0.1025809 0.372704 -0.4510489
0.4212003 0.3778191 -0.4545455
-0.9125652 0.3987445 -0.4510489
-0.7278726 0.3954894 -0.458042
-0.6643236 0.3996745 -0.458042
0.4186369 0.4052546 -0.4545455
-0.9031815 0.4424552 -0.4545455
0.4113901 0.486166 -0.4510489
0.3188327 0.4968565 -0.4545455
0.4817679 0.5270867 -0.4510489
0.2386446 0.5721878 -0.4545455
0.256559 0.5759126 -0.4510489
0.3120039 0.5754476 -0.458042
0.3282121 0.5880028 -0.4545455
0.5312456 0.5870728 -0.458042
0.309449 0.601953 -0.458042
0.5265538 0.6391537 -0.4545455
0.3047571 0.654034 -0.458042
0.4480719 0.7107649 -0.4510489
-0.5602498 0.03278307 -0.4405594
-0.5483069 0.07137875 -0.4405594
-0.743232 0.08114392 -0.4440559
-0.8686324 0.1174146 -0.4475524
-0.8272588 0.1597257 -0.4440559
-0.623803 0.1690305 -0.4475524
-0.6536603 0.2950477 -0.4475524
-0.9624652 0.3327133 -0.4405594
-0.7069768 0.3392281 -0.4405594
-0.3141408 0.3410835 -0.4405594
0.2770325 0.3578238 -0.4405594
-0.5790172 0.3675889 -0.4475524
-0.7892975 0.3829342 -0.4440559
-0.2476061 0.3973541 -0.4405594
-0.9586307 0.4182748 -0.4475524
-0.6668828 0.4252499 -0.4405594
-0.6024764 0.4512904 -0.4475524
0.176371 0.4652406 -0.4475524
0.2667958 0.4666357 -0.4440559
-0.7858852 0.487096 -0.4440559
-0.9091487 0.4973262 -0.4475524
0.1908731 0.4922111 -0.4475524
0.5380701 0.5080261 -0.4440559
0.2412038 0.5461521 -0.4475524
0.2514406 0.6298582 -0.4475524
0.5244211 0.6647338 -0.4475524
0.3913431 0.7037898 -0.4440559
0.5884009 0.774471 -0.4405594
-0.5512926 0.09788422 -0.4335664
-0.7457912 0.1081144 -0.4335664
-0.6182581 0.1150895 -0.4300699
-0.5022414 0.1132248 -0.4300699
-0.6400113 0.1634504 -0.4370629
-0.893367 0.2150663 -0.4300699
-0.7146544 0.2643525 -0.4335664
-0.4339963 0.2936527 -0.4370629
-0.09490337 0.293183 -0.4300699
-0.5056537 0.3089979 -0.4300699
-0.7039911 0.312253 -0.4370629
-0.523568 0.3224785 -0.4370629
-0.7253177 0.3685236 -0.4300699
-0.4608721 0.3792141 -0.4300699
-0.01812761 0.4145547 -0.4335664
-0.8545569 0.4206045 -0.4300699
-0.7155074 0.4201348 -0.4370629
0.1959915 0.4378052 -0.4370629
-0.9616164 0.4452453 -0.4300699
-0.7180666 0.4471053 -0.4335664
-0.2352324 0.4443106 -0.4370629
-0.9061672 0.4694257 -0.4370629
-0.02324599 0.4689607 -0.4370629
-0.8468793 0.4764008 -0.4300699
-0.6050399 0.4768659 -0.4335664
0.466417 0.5015113 -0.4370629
-0.6600583 0.5182516 -0.4300699
-0.5956519 0.5284817 -0.4300699
-0.5278333 0.5261567 -0.4300699
-0.1721057 0.5298768 -0.4370629
0.2616774 0.5210416 -0.4370629
0.3145674 0.5484818 -0.4300699
-0.8682059 0.5512671 -0.4300699
0.4770803 0.5814927 -0.4370629
0.236512 0.5977679 -0.4370629
0.1064197 0.6196234 -0.4370629
0.5291129 0.6121832 -0.4300699
0.3819594 0.6261334 -0.4370629
0.5461785 0.6205534 -0.4300699
0.4719534 0.6354336 -0.4300699
0.3747084 0.7047198 -0.4300699
0.5905336 0.7484306 -0.4300699
-0.8767408 0.197861 -0.4265734
-0.4945638 0.201116 -0.4230769
-0.8797222 0.2243664 -0.4230769
-0.8208608 0.2327366 -0.4265734
-0.01897641 0.2490119 -0.4230769
-0.5679231 0.258777 -0.4265734
-0.09234418 0.2671472 -0.4230769
-0.5704865 0.2857475 -0.4230769
-0.1682626 0.314578 -0.4265734
-0.09746256 0.3192281 -0.4230769
-0.7837526 0.3299233 -0.4230769
-0.8464528 0.3424785 -0.4265734
0.2744776 0.3843292 -0.4265734
-0.5137578 0.3903743 -0.4230769
-0.3192592 0.3931644 -0.4230769
-0.1047136 0.3982795 -0.4265734
0.1268933 0.4015345 -0.4230769
-0.9001958 0.4145547 -0.4265734
0.2719142 0.4122297 -0.4230769
0.04969098 0.4564055 -0.4265734
0.1217749 0.4554801 -0.4265734
-0.6545134 0.4643106 -0.4230769
-0.2377916 0.4712858 -0.4265734
-0.1831955 0.4712858 -0.4230769
-0.09703603 0.4884911 -0.4230769
0.3934758 0.4954662 -0.4230769
-0.9262142 0.5289468 -0.4230769
-0.663044 0.545687 -0.4265734
-0.5986376 0.5559172 -0.4265734
0.5333782 0.5601069 -0.4265734
0.02026027 0.5866078 -0.4230769
0.4015799 0.5935829 -0.4230769
0.469825 0.6624041 -0.4230769
0.5222884 0.6898396 -0.4230769
0.5952254 0.6963497 -0.4230769
0.5201515 0.716345 -0.4230769
0.5862682 0.8005115 -0.4265734
-0.5538518 0.1243943 -0.4195804
-0.6370298 0.1369449 -0.4195804
-0.57305 0.1625203 -0.4160839
-0.6425662 0.1894908 -0.4125874
-0.8323772 0.2113508 -0.4125874
-0.5154639 0.2438968 -0.4195804
-0.9539388 0.2536619 -0.4125874
-0.8379221 0.2638968 -0.4125874
-0.5837133 0.2676122 -0.4195804
-0.4502088 0.2736573 -0.4195804
-0.1657077 0.2880725 -0.4195804
-0.7658382 0.2973727 -0.4160839
-0.4527637 0.2996978 -0.4195804
-0.5892497 0.3196931 -0.4160839
-0.573468 0.313183 -0.4195804
-0.8323772 0.3406185 -0.4195804
-0.6583564 0.3466636 -0.4195804
-0.1703995 0.3401535 -0.4125874
-0.9650286 0.3582888 -0.4160839
-0.08381354 0.3517787 -0.4160839
-0.2266975 0.3620088 -0.4125874
-0.955645 0.3908393 -0.4195804
0.03774808 0.4033992 -0.4195804
0.05480936 0.4019995 -0.4160839
-0.516317 0.4173448 -0.4160839
-0.2322424 0.4159498 -0.4125874
-0.8409078 0.4219949 -0.4160839
-0.3785471 0.4396652 -0.4160839
-0.09191765 0.4340851 -0.4195804
-0.7329995 0.4466403 -0.4160839
-0.0206868 0.4415252 -0.4195804
0.1887404 0.5187166 -0.4125874
0.09447683 0.5684724 -0.4160839
0.1669873 0.5689375 -0.4160839
0.09191765 0.5945129 -0.4195804
0.1089832 0.5917228 -0.4195804
0.3840921 0.599628 -0.4195804
-0.5359332 0.6075332 -0.4160839
0.303051 0.6786794 -0.4160839
0.2467488 0.6833295 -0.4125874
0.5133312 0.7944664 -0.4160839
-0.8148894 0.1774006 -0.4020979
-0.6476931 0.2415717 -0.4055944
-0.8827037 0.2513369 -0.4090909
-0.7628525 0.2699326 -0.4055944
-0.6502481 0.2676122 -0.4020979
-0.7167913 0.2899326 -0.4020979
-0.7197728 0.3159777 -0.4020979
-0.7683974 0.3238782 -0.4055944
-0.4553229 0.3262032 -0.4055944
-0.8912386 0.3331783 -0.4020979
-0.1529117 0.3392281 -0.4055944
-0.09959522 0.3452732 -0.4020979
-0.9680101 0.3838642 -0.4090909
-0.9705735 0.4099047 -0.4020979
-0.463427 0.4043246 -0.4090909
-0.7828995 0.4596605 -0.4055944
-0.09447683 0.4605906 -0.4055944
-0.2548529 0.4754708 -0.4020979
0.1742383 0.4898861 -0.4020979
-0.7385359 0.4982562 -0.4055944
-0.386647 0.5210416 -0.4090909
-0.2599713 0.5284817 -0.4090909
-0.9142756 0.5498721 -0.4020979
0.2595447 0.5475471 -0.4020979
-0.9731285 0.5526622 -0.4020979
0.02281946 0.5601069 -0.4055944
0.1836263 0.5726575 -0.4055944
0.386647 0.5735875 -0.4020979
-0.1222014 0.5805627 -0.4020979
-0.1247606 0.6070635 -0.4090909
-0.3243776 0.6214834 -0.4090909
0.1622997 0.6210184 -0.4020979
0.1785079 0.6270635 -0.4055944
-0.9368775 0.6326436 -0.4090909
-0.6067418 0.636359 -0.4020979
0.5440416 0.6470588 -0.4055944
-0.5572598 0.660544 -0.4020979
0.1017279 0.6717042 -0.4090909
-0.2591182 0.6889095 -0.4020979
0.1529117 0.7251802 -0.4020979
0.5930927 0.7214601 -0.4090909
0.6075948 0.7442455 -0.4020979
-0.4996822 0.2545919 -0.3986014
-0.2185977 0.2801674 -0.3951049
-0.1477933 0.2843525 -0.3986014
-0.843467 0.315508 -0.3986014
-0.6400113 0.3289933 -0.3951049
-0.642997 0.3559637 -0.3951049
-0.4578821 0.3522437 -0.3986014
-0.3700165 0.3582888 -0.3951049
-0.9526592 0.3629342 -0.3986014
-0.8942243 0.3601488 -0.3951049
-0.8349364 0.3671239 -0.3916084
-0.7091094 0.3652639 -0.3951049
-0.5943766 0.371774 -0.3951049
-0.229261 0.3885143 -0.3951049
-0.1584566 0.3931644 -0.3916084
-0.3026245 0.4038549 -0.3916084
-0.03348276 0.4066496 -0.3951049
-0.3213919 0.4182748 -0.3951049
-0.1780771 0.4182748 -0.3916084
-0.4655597 0.4299 -0.3916084
-0.9176836 0.4499 -0.3951049
-0.2522937 0.4489654 -0.3916084
-0.1806363 0.4447803 -0.3986014
-0.3081694 0.4587305 -0.3986014
-0.7206258 0.4731504 -0.3951049
-0.5218619 0.4712858 -0.3986014
0.1021544 0.4894211 -0.3916084
-0.7236115 0.5005813 -0.3916084
-0.09959522 0.5149965 -0.3916084
0.1721057 0.5159265 -0.3951049
-0.8652201 0.5242967 -0.3916084
-0.7410994 0.5242967 -0.3986014
-0.4049921 0.5377819 -0.3951049
-0.3188327 0.5670774 -0.3986014
0.1119647 0.5642874 -0.3916084
0.4041391 0.5656824 -0.3951049
-0.3921919 0.5754476 -0.3916084
-0.9313326 0.5800977 -0.3951049
-0.6007703 0.5824227 -0.3986014
-0.410537 0.5898582 -0.3986014
-0.3218184 0.5940479 -0.3951049
0.1648546 0.5945129 -0.3986014
0.4749434 0.6079981 -0.3986014
0.3260837 0.6140432 -0.3951049
0.08978499 0.6200883 -0.3916084
0.3077428 0.6265985 -0.3951049
-0.5384967 0.6340386 -0.3916084
0.4553229 0.6312485 -0.3916084
-0.816169 0.6442688 -0.3951049
0.08765659 0.6456638 -0.3951049
-0.1128177 0.6517089 -0.3916084
0.2296875 0.6744943 -0.3951049
0.173381 0.6810044 -0.3986014
0.4676923 0.6893746 -0.3951049
0.1550444 0.6986747 -0.3951049
0.02623172 0.7005348 -0.3951049
0.2441896 0.7102999 -0.3951049
0.4651331 0.71588 -0.3916084
0.3730022 0.7298303 -0.3916084
0.4438065 0.7609858 -0.3951049
0.4416739 0.7870309 -0.3986014
-0.2369428 0.2922576 -0.3881119
-0.7807711 0.3029528 -0.3846154
-0.6374478 0.3020228 -0.3811189
-0.3644716 0.3034178 -0.3881119
-0.3845186 0.3285283 -0.3881119
-0.223716 0.3345734 -0.3811189
-0.5913866 0.3452732 -0.3881119
-0.2420569 0.3443385 -0.3846154
-0.786316 0.3554987 -0.3881119
-0.510772 0.3620088 -0.3881119
-0.1554709 0.3661939 -0.3881119
-0.4421004 0.373634 -0.3811189
-0.776928 0.4043246 -0.3811189
-0.4446596 0.4006045 -0.3881119
-0.5841313 0.4201348 -0.3811189
-0.4476453 0.42804 -0.3846154
-0.1610158 0.4201348 -0.3811189
-0.1068463 0.4233899 -0.3881119
-0.03604195 0.4331551 -0.3881119
-0.4502088 0.4545455 -0.3881119
-0.7355545 0.4717508 -0.3846154
-0.1661342 0.4750058 -0.3811189
0.1196465 0.4815159 -0.3811189
-0.3836655 0.4931411 -0.3811189
-0.1853282 0.4964008 -0.3811189
0.04457259 0.5098814 -0.3846154
-0.043293 0.5122064 -0.3846154
0.1861812 0.545222 -0.3811189
-0.9287734 0.5540572 -0.3881119
-0.7436628 0.5503371 -0.3881119
-0.04841138 0.5642874 -0.3811189
-0.1767975 0.5833573 -0.3881119
0.1810628 0.599163 -0.3881119
-0.6848014 0.6052081 -0.3811189
-0.6037561 0.6089281 -0.3846154
-0.1797832 0.6098582 -0.3811189
-0.466835 0.618233 -0.3881119
0.01812761 0.6117182 -0.3881119
-0.1981241 0.6270635 -0.3846154
0.3994472 0.6205534 -0.3881119
-0.6873563 0.6321785 -0.3881119
-0.6203908 0.6321785 -0.3811189
0.1042828 0.6447338 -0.3811189
0.2322424 0.6489189 -0.3881119
0.3235245 0.6405487 -0.3846154
0.3968923 0.6475285 -0.3881119
-0.9394367 0.657754 -0.3846154
-0.9257877 0.658219 -0.3881119
0.2493079 0.6554289 -0.3881119
0.4531902 0.656824 -0.3846154
-0.2561325 0.660544 -0.3881119
0.1575993 0.6721693 -0.3811189
-0.1320117 0.6842595 -0.3811189
0.4510576 0.6828598 -0.3811189
0.5393497 0.7009998 -0.3881119
-0.1904465 0.7196001 -0.3811189
0.02367679 0.7275052 -0.3881119
0.0966095 0.7242502 -0.3811189
-0.6310541 0.7363404 -0.3846154
0.5180231 0.7409858 -0.3811189
-0.6848014 0.7591258 -0.3811189
0.1482199 0.7763311 -0.3846154
0.4578821 0.7977214 -0.3881119
0.5069333 0.8721228 -0.3811189
0.4327167 0.8911881 -0.3811189
-0.6289214 0.2211114 -0.3776224
-0.6314849 0.2476168 -0.3776224
-0.6344664 0.2741223 -0.3776224
-0.2394977 0.3182981 -0.3706294
-0.2940938 0.3220228 -0.3706294
-0.3670308 0.3303883 -0.3776224
-0.7219054 0.3415485 -0.3776224
-0.3870778 0.3541037 -0.3706294
-0.3162735 0.3657289 -0.3776224
-0.2441896 0.369914 -0.3741259
-0.6455562 0.3820042 -0.3706294
-0.8379221 0.3940944 -0.3776224
-0.7120909 0.3913043 -0.3706294
-0.6485419 0.409435 -0.3741259
-0.3921919 0.4066496 -0.3706294
-0.08850539 0.4052546 -0.3706294
-0.3755657 0.4117647 -0.3776224
-0.5333782 0.4252499 -0.3741259
-0.7794873 0.431295 -0.3706294
-0.6511011 0.4359451 -0.3706294
0.1047136 0.4629156 -0.3776224
-0.3265103 0.4703557 -0.3776224
0.04755832 0.482446 -0.3706294
-0.02537865 0.4950012 -0.3706294
-0.1686934 0.5015113 -0.3706294
-0.4024372 0.5108114 -0.3706294
-0.6101583 0.5280167 -0.3776224
-0.117083 0.5275517 -0.3776224
-0.02793785 0.5215066 -0.3706294
-0.1192157 0.5535922 -0.3741259
-0.8703386 0.5759126 -0.3706294
-0.1930057 0.5745175 -0.3741259
-0.9338918 0.6056731 -0.3776224
-0.1955649 0.600558 -0.3706294
-0.1102585 0.6238084 -0.3776224
-0.922802 0.6307836 -0.3741259
-0.1823424 0.6372936 -0.3776224
-0.3444246 0.6531086 -0.3741259
-0.04116034 0.658219 -0.3706294
0.176371 0.6531086 -0.3706294
0.3798268 0.6507789 -0.3706294
-0.3299225 0.6754243 -0.3776224
-0.6259357 0.6842595 -0.3741259
-0.3350409 0.7293606 -0.3741259
-0.5649416 0.7382004 -0.3741259
0.02111333 0.7544757 -0.3776224
0.5158905 0.7670309 -0.3706294
0.5295395 0.810737 -0.3706294
0.5090702 0.8456126 -0.3706294
0.4348451 0.8651477 -0.3741259
-0.7709566 0.3499186 -0.3636364
-0.2970795 0.3489886 -0.3601398
-0.1750914 0.391774 -0.3636364
-0.9146936 0.4229249 -0.3636364
-0.3947554 0.4326854 -0.3671329
-0.4527637 0.4805859 -0.3601398
0.02836438 0.5070914 -0.3671329
0.117083 0.5084817 -0.3636364
-0.7880179 0.5122064 -0.3601398
-0.8519977 0.5284817 -0.3601398
-0.3316286 0.5224366 -0.3671329
-0.7910036 0.5391769 -0.3601398
-0.04585219 0.5377819 -0.3636364
-0.5461785 0.5554522 -0.3636364
-0.7939893 0.5670774 -0.3601398
-0.7462177 0.5759126 -0.3636364
-0.6152724 0.5796326 -0.3601398
-0.6681623 0.5977679 -0.3671329
-0.05054831 0.5903279 -0.3671329
-0.919812 0.602883 -0.3601398
-0.8605283 0.6103232 -0.3671329
-0.483474 0.6112532 -0.3636364
-0.3418654 0.6270635 -0.3636364
-0.4864597 0.6372936 -0.3601398
-0.2697815 0.6312485 -0.3601398
0.01599495 0.6368287 -0.3601398
