# .PCD v.7 - Point Cloud Data file format
VERSION .7
FIELDS x y z
SIZE 4 4 4
TYPE F F F
COUNT 1 1 1
WIDTH 512
HEIGHT 1
VIEWPOINT 0 0 0 1 0 0 0
POINTS 512
DATA ascii
0.9884879 -0.5154615 -0.958042
0.9863552 -0.4894211 -0.951049
0.4335698 -0.8098117 -0.9475524
0.9313326 -0.7307603 -0.9475524
0.4945638 -0.6777447 -0.9440559
0.9454082 -0.6628691 -0.9440559
0.5640886 -0.6461288 -0.9405594
0.8780161 -0.7251802 -0.9300699
0.9479674 -0.6893699 -0.9370629
0.9501 -0.71681 -0.9265735
0.8733243 -0.6712393 -0.9265735
0.4902985 -0.6256638 -0.9265735
0.4489249 -0.7554057 -0.9125874
0.8801488 -0.7521507 -0.9125874
0.7871648 -0.7433155 -0.9125874
0.8545569 -0.6884446 -0.9125874
0.999582 -0.6489142 -0.9195804
0.6327602 -0.6135829 -0.9160839
0.5807233 -0.600558 -0.9195804
0.9411386 -0.6089281 -0.9125874
0.9953124 -0.5959126 -0.9195804
0.9910471 -0.542897 -0.9160839
0.9343184 -0.5275517 -0.9160839
0.9317591 -0.5005813 -0.9160839
0.4540433 -0.8098117 -0.9020979
0.3785471 -0.7674959 -0.9090909
0.8609591 -0.7684259 -0.9090909
0.4996822 -0.7321553 -0.9020979
0.4442331 -0.7019298 -0.9020979
0.497123 -0.7051848 -0.9090909
0.8029465 -0.7033248 -0.9020979
0.4416739 -0.6749593 -0.9020979
0.6306276 -0.5880028 -0.9055944
0.6459827 -0.5335968 -0.9020979
0.9117122 -0.4931411 -0.9055944
0.8323772 -0.4233899 -0.9020979
0.5210088 -0.7493606 -0.8951049
0.4467923 -0.7293653 -0.8916084
0.5184497 -0.7223901 -0.8986014
0.7850322 -0.7177401 -0.8951049
0.9291999 -0.7056499 -0.8986014
0.5137578 -0.6689142 -0.8986014
0.5854152 -0.6544943 -0.8951049
0.8711916 -0.6451988 -0.8916084
0.943702 -0.6363636 -0.8951049
0.6485419 -0.5601023 -0.8986014
0.6259357 -0.5354569 -0.8916084
0.9274938 -0.4471053 -0.8986014
0.6860767 -0.3964194 -0.8986014
0.9010488 -0.3615438 -0.8951049
0.492862 -0.6526389 -0.8846154
0.922802 -0.6265985 -0.8846154
0.8477324 -0.6093932 -0.8811189
0.8455997 -0.5828877 -0.8846154
0.9931797 -0.5703325 -0.8881119
0.7914344 -0.5694025 -0.8811189
0.916404 -0.5470821 -0.8811189
0.8413343 -0.5298768 -0.8811189
0.7138013 -0.4931411 -0.8811189
0.5623867 -0.6210184 -0.8776224
0.5090702 -0.6149732 -0.8741259
0.6511011 -0.5875378 -0.8741259
0.4856067 -0.5735875 -0.8776224
0.9185367 -0.5735875 -0.8776224
0.9368775 -0.5554569 -0.8706294
0.9142756 -0.5205812 -0.8741259
0.5508661 -0.4884911 -0.8776224
0.7846056 -0.4880261 -0.8741259
0.9300573 -0.4745362 -0.8741259
0.9074468 -0.4410602 -0.8741259
0.9697205 -0.2792374 -0.8706294
0.3712961 -0.6879795 -0.8636364
0.3687369 -0.6605394 -0.8601398
0.6536603 -0.6140386 -0.8636364
0.4881616 -0.600093 -0.8601398
0.9390102 -0.5828877 -0.8636364
0.5785864 -0.5745175 -0.8636364
0.6216704 -0.482446 -0.8671328
0.9846491 -0.4647756 -0.8671328
1 -0.4280353 -0.8671328
0.9978716 -0.4015345 -0.8671328
0.6818114 -0.3443385 -0.8671328
0.679683 -0.3182981 -0.8601398
0.7236115 -0.6019577 -0.8566434
0.5581171 -0.5684724 -0.8531469
0.6284949 -0.5624273 -0.8566434
0.7184932 -0.5475471 -0.8566434
0.8349364 -0.4503604 -0.8566434
0.8554142 -0.4568658 -0.8531469
0.5662212 -0.4392048 -0.8566434
0.9675921 -0.2532016 -0.8566434
0.7210523 -0.5749826 -0.8496503
0.6242296 -0.5098814 -0.8496503
0.6442766 -0.5080214 -0.8461539
0.8392017 -0.5043013 -0.8461539
0.910006 -0.468491 -0.8461539
0.9957389 -0.3745641 -0.8461539
0.9936063 -0.3471286 -0.8461539
0.5043741 -0.5624273 -0.8391609
0.4839005 -0.5475471 -0.8321678
0.5760314 -0.5480121 -0.8391609
0.7163605 -0.521037 -0.8321678
0.4271718 -0.5140665 -0.8356643
0.7654074 -0.4810509 -0.8356643
0.837069 -0.4777959 -0.8391609
0.6174051 -0.43083 -0.8321678
0.982943 -0.4387352 -0.8356643
0.6843706 -0.371309 -0.8321678
0.9744123 -0.3331783 -0.8391609
0.9722797 -0.3066729 -0.8321678
0.7683974 -0.2992328 -0.8356643
0.8413343 -0.2945827 -0.8321678
0.9142756 -0.2866775 -0.8356643
0.6754134 -0.2657521 -0.8391609
0.9756919 -0.1322948 -0.8356643
0.7517626 -0.1104394 -0.8321678
0.4813414 -0.5215066 -0.8251748
0.4792087 -0.4950012 -0.8286713
0.6421482 -0.4810509 -0.8286713
0.4766495 -0.468491 -0.8286713
0.569207 -0.4671007 -0.8286713
0.6195377 -0.4573355 -0.8216783
0.6395847 -0.4545455 -0.8251748
0.8532773 -0.430365 -0.8216783
0.6775461 -0.2922576 -0.8286713
0.9867818 -0.2676122 -0.8251748
0.9846491 -0.2401767 -0.8251748
0.9633225 -0.2011114 -0.8286713
0.5491599 -0.4633806 -0.8111888
0.4924312 -0.4275796 -0.8111888
0.7048441 -0.3866589 -0.8146853
0.7756527 -0.3810788 -0.8146853
0.976545 -0.3601488 -0.8146853
0.8174486 -0.2387817 -0.8181818
0.74963 -0.08393397 -0.8146853
0.7585872 -0.4019995 -0.8041958
0.8485854 -0.3768891 -0.8006993
0.8264058 -0.3452685 -0.8076923
0.9189632 -0.3410835 -0.8076923
0.9121387 -0.260172 -0.8041958
0.8255527 -0.1057893 -0.8076923
0.7474973 -0.0569635 -0.8006993
0.8443201 -0.3224832 -0.7937063
0.8396325 -0.2685422 -0.7937063
0.7641321 -0.2462218 -0.7972028
0.743232 -0.2173913 -0.7902098
0.8886794 -0.2057661 -0.7902098
0.9616164 -0.1750756 -0.7972028
0.8063588 -0.1062544 -0.7937063
0.9735593 -0.1062544 -0.7972028
0.9714266 -0.07927924 -0.7972028
0.8195812 -0.2662172 -0.7867133
0.9658817 -0.2280865 -0.7867133
0.8323772 -0.1876308 -0.7832168
0.9594837 -0.1490305 -0.7867133
0.8281119 -0.1332248 -0.7867133
0.9573468 -0.1229947 -0.7832168
0.7342748 -0.1118345 -0.7867133
0.7662647 -0.2736573 -0.7797203
0.8153159 -0.2132062 -0.7797203
0.9078733 -0.2071565 -0.7727273
0.7547441 -0.1388049 -0.7762238
0.8042261 -0.0802139 -0.7797203
0.969294 -0.05324343 -0.7727273
0.8187239 -0.02487794 -0.7797203
0.7931362 0.0513834 -0.7762238
0.7888709 0.1048593 -0.7727273
0.6933278 -0.2518019 -0.7657343
0.6737073 -0.2411067 -0.7622378
0.8908121 -0.2327366 -0.7622378
0.8349364 -0.2150663 -0.7622378
0.982943 -0.2141362 -0.7692308
0.9803838 -0.1880958 -0.7657343
0.7573076 -0.1657801 -0.7622378
0.7321422 -0.085794 -0.7692308
0.8234243 -0.07927924 -0.7657343
0.5832825 -0.03603813 -0.7657343
0.7406728 0.02348291 -0.7692308
0.786734 0.1308998 -0.7657343
0.8046526 0.1378749 -0.7657343
0.6715747 -0.2150663 -0.7517483
0.9782554 -0.1606557 -0.7587413
0.8844141 -0.1536852 -0.7552447
0.8984854 -0.0974192 -0.7587413
0.9552184 -0.0969542 -0.7517483
0.7453647 -0.03138805 -0.7587413
0.7999607 -0.02766798 -0.7552447
0.9488204 -0.01790281 -0.7587413
0.7978281 -0.00116252 -0.7587413
0.9466835 0.008142292 -0.7517483
0.7956954 0.02487794 -0.7517483
0.8519977 0.2415717 -0.7587413
0.9031815 -0.1527552 -0.7412587
0.896357 -0.07091374 -0.7447553
0.8144628 0.02813299 -0.7412587
0.8733243 0.2001814 -0.7482517
0.8089179 -0.1341548 -0.7377622
0.8822857 -0.1276447 -0.7377622
0.9010488 -0.1253243 -0.7342657
0.8780161 -0.07463381 -0.7342657
0.7257442 -0.007207626 -0.7307692
0.5969315 0.03045803 -0.7342657
0.8119037 0.05556847 -0.7342657
0.8647936 0.08347361 -0.7342657
0.8827037 0.09090909 -0.7307692
0.6442766 0.1006743 -0.7377622
0.7338483 0.1048593 -0.7377622
0.6400113 0.1532248 -0.7342657
0.8025157 0.1643804 -0.7342657
0.782473 0.1834457 -0.7307692
0.7756527 0.2629621 -0.7307692
0.9253569 0.2713322 -0.7342657
0.683944 -0.145315 -0.7272727
0.6745561 -0.03696815 -0.7202797
0.5210088 0.07184841 -0.7272727
0.7914344 0.07695885 -0.7237762
0.8583956 0.1615903 -0.7237762
0.8758835 -0.04905836 -0.7132867
0.6468357 0.07370379 -0.7132867
0.5721927 0.09462915 -0.7132867
0.7197728 0.2671472 -0.7132867
0.8643671 0.3080679 -0.7132867
0.7283034 -0.03464311 -0.7062937
0.8694855 0.02999303 -0.7097902
0.6651766 0.07184841 -0.7097902
0.7193462 0.07137875 -0.7062937
0.57006 0.1206696 -0.7062937
0.8609591 0.1355499 -0.7097902
0.87631 0.1713509 -0.7062937
0.8003873 0.1908858 -0.7027972
0.7056972 0.2294769 -0.7097902
0.9279203 0.2443618 -0.7097902
0.849865 0.2666822 -0.7062937
0.8455997 0.3192281 -0.7097902
0.8601018 0.3624785 -0.7097902
0.9919001 0.373169 -0.7027972
0.6724277 -0.009997675 -0.6923077
0.7436628 -0.00627761 -0.6923077
0.817022 0.0002325041 -0.6993007
0.962896 0.0258033 -0.6993007
0.5060802 0.03510812 -0.6923077
0.8630875 0.1085794 -0.6923077
0.5875478 0.1383399 -0.6993007
0.9539388 0.1346199 -0.6993007
0.7270238 0.1853057 -0.6993007
0.7082564 0.202976 -0.6958042
0.9300573 0.2183213 -0.6958042
0.8477324 0.2927273 -0.6993007
0.8622344 0.3345734 -0.6993007
0.9334653 0.3782841 -0.6923077
0.6515276 0.0197675 -0.6818182
0.7236115 0.01790281 -0.6888112
0.6677358 0.04394327 -0.6888112
0.7389667 0.048598 -0.6853147
0.8673528 0.05603348 -0.6818182
0.942849 0.05975354 -0.6853147
0.7364075 0.07602883 -0.6818182
0.9407206 0.085794 -0.6888112
0.663044 0.09788422 -0.6818182
0.9385837 0.1122995 -0.6853147
0.7248911 0.2118066 -0.6818182
0.7223362 0.2392467 -0.6853147
0.9215224 0.3229482 -0.6888112
0.9129918 0.427575 -0.6853147
0.5039433 0.06067891 -0.6748252
0.7172093 0.09648919 -0.6783217
0.956498 0.106724 -0.6748252
0.5167435 0.12485 -0.6713287
0.9518019 0.1611253 -0.6783217
0.6378786 0.1783306 -0.6783217
0.710389 0.1760056 -0.6713287
0.7982546 0.217396 -0.6783217
0.8545569 0.2136712 -0.6783217
0.6336133 0.2308765 -0.6783217
0.7035645 0.255057 -0.6783217
0.923655 0.2964427 -0.6783217
0.6971666 0.333648 -0.6748252
0.8396325 0.3973541 -0.6748252
0.837069 0.4233899 -0.6748252
0.8349364 0.4494304 -0.6713287
0.7321422 0.1295048 -0.6678322
0.5683539 0.1462451 -0.6608391
0.8788692 0.143455 -0.6678322
0.729583 0.1569403 -0.6608391
0.4945638 0.1657754 -0.6608391
0.5657947 0.1722855 -0.6608391
0.655793 0.1792606 -0.6678322
0.8566895 0.1867008 -0.6643357
0.796122 0.2443618 -0.6643357
0.7180666 0.2927273 -0.6643357
0.9944551 0.3457289 -0.6643357
0.8417609 0.370844 -0.6643357
0.9313326 0.4043246 -0.6608391
0.910859 0.4531504 -0.6678322
0.8485854 0.4973262 -0.6608391
0.9816634 0.5038363 -0.6643357
0.9795308 0.5303418 -0.6643357
0.9688674 0.6610091 -0.6678322
0.7939893 0.2708672 -0.6538461
0.8673528 0.2792374 -0.6538461
0.629348 0.2824924 -0.6503497
0.6267845 0.3094629 -0.6573427
0.7718096 0.313648 -0.6573427
0.9360202 0.3499186 -0.6573427
0.786734 0.3527087 -0.6538461
0.6370298 0.3964194 -0.6503497
0.7654074 0.3926994 -0.6573427
0.8332303 0.4754708 -0.6503497
0.497123 0.1388049 -0.6468531
0.6583564 0.1513602 -0.6468531
0.6536603 0.2062265 -0.6433566
0.5615294 0.2243664 -0.6468531
0.7018584 0.2806324 -0.6468531
0.6246561 0.3355034 -0.6433566
0.6950339 0.3587538 -0.6468531
0.8579691 0.3880493 -0.6433566
0.6907643 0.4117647 -0.6468531
0.9837918 0.4768659 -0.6433566
0.9202428 0.5396419 -0.6433566
0.996592 0.5363869 -0.6468531
0.8984854 0.6093932 -0.6468531
0.6314849 0.256452 -0.6398602
0.8694855 0.2518019 -0.6398602
0.6997257 0.3066729 -0.6398602
0.919812 0.3480586 -0.6398602
0.6391582 0.369449 -0.6363636
0.7108155 0.3741037 -0.6398602
0.7846056 0.3796791 -0.6363636
0.7611464 0.4452453 -0.6363636
0.8537038 0.4424552 -0.6398602
0.9987247 0.5094164 -0.6398602
0.9048876 0.5312765 -0.6398602
0.5120516 0.1778656 -0.6293706
0.5640886 0.197861 -0.6258741
0.6464092 0.2876029 -0.6258741
0.7918524 0.2973727 -0.6293706
0.6442766 0.314578 -0.6293706
0.7675443 0.3657289 -0.6258741
0.6929013 0.3847942 -0.6258741
0.763279 0.4178098 -0.6223776
0.9296265 0.430365 -0.6293706
0.9863552 0.4499 -0.6258741
0.8511446 0.4694257 -0.6293706
0.6297745 0.4768659 -0.6223776
0.9070203 0.5043013 -0.6223776
0.9159775 0.5935829 -0.6293706
0.9923267 0.5903279 -0.6258741
0.9714266 0.6340386 -0.6258741
0.5785864 0.2443618 -0.6118881
0.715934 0.3192281 -0.6153846
0.789724 0.3243432 -0.6188811
0.9385837 0.3215531 -0.6118881
0.9176836 0.373634 -0.6118881
0.9155509 0.3996745 -0.6153846
0.9906206 0.3978098 -0.6188811
0.6886359 0.4373401 -0.6153846
0.7803403 0.4340851 -0.6153846
0.8468793 0.5233666 -0.6118881
0.7662647 0.5968379 -0.6153846
0.7615729 0.6512439 -0.6153846
0.816169 0.6842595 -0.6118881
0.5572598 0.2759777 -0.6083916
0.782473 0.4057196 -0.6013986
0.706546 0.427575 -0.6013986
0.6161212 0.4392002 -0.6013986
0.9091487 0.4777959 -0.6083916
0.6971666 0.5368565 -0.6048951
0.6775461 0.5675424 -0.6013986
0.9006223 0.5824227 -0.6013986
0.7479239 0.6024181 -0.6013986
0.8225669 0.6052081 -0.6083916
0.5529987 0.3280586 -0.5909091
0.856263 0.4140897 -0.5909091
0.9782554 0.5540572 -0.5909091
0.9185367 0.5656824 -0.5909091
0.6754134 0.5935829 -0.5944056
0.990194 0.6168333 -0.5979021
0.7457912 0.6279935 -0.5909091
0.8204343 0.6312485 -0.5944056
0.9091487 0.6740293 -0.5944056
0.7044176 0.4545455 -0.5874126
0.8315241 0.5001162 -0.5839161
0.7547441 0.5229017 -0.5874126
0.8293872 0.5261567 -0.5839161
0.9948859 0.5614973 -0.5839161
0.8946509 0.660544 -0.5839161
0.9675921 0.6847245 -0.5804196
0.902755 0.7554057 -0.5874126
0.6348929 0.4219949 -0.5734265
0.7782076 0.4601256 -0.5734265
0.7594445 0.4703557 -0.5769231
0.8140363 0.7093699 -0.5769231
0.6139928 0.4647756 -0.5699301
0.7573076 0.4959312 -0.5664335
0.6255091 0.5308068 -0.5664335
0.680101 0.541037 -0.5629371
0.6924747 0.5903279 -0.5664335
0.9138448 0.6196234 -0.5699301
0.7641321 0.6224134 -0.5699301
0.8967835 0.6335736 -0.5629371
0.7440808 0.654034 -0.5699301
0.8903856 0.71216 -0.5629371
0.9048876 0.7270402 -0.5664335
0.8119037 0.7349407 -0.5629371
0.8285384 0.7400604 -0.5629371
0.9006223 0.7819112 -0.5629371
0.7530422 0.5484818 -0.5524476
0.8272588 0.5512671 -0.5524476
0.9031815 0.5549825 -0.5524476
0.6208216 0.5842827 -0.5524476
0.9739858 0.6056731 -0.5559441
0.9859287 0.6693792 -0.5524476
0.7393932 0.7070449 -0.5594406
0.7713831 0.540572 -0.548951
0.6233765 0.5568473 -0.5454546
0.6950339 0.5628924 -0.548951
0.750483 0.5745175 -0.548951
0.8251262 0.5768426 -0.5454546
0.9761184 0.5787026 -0.541958
0.8404813 0.6033481 -0.548951
0.6737073 0.618233 -0.541958
0.5986376 0.6461288 -0.541958
0.6882094 0.6438038 -0.541958
0.9880614 0.6419391 -0.548951
0.7372606 0.7330853 -0.541958
0.9748389 0.8060916 -0.548951
0.9573468 0.8144618 -0.5454546
-0.1106851 -0.2876075 -0.5314685
-0.1132442 -0.2606371 -0.534965
0.8187239 0.655894 -0.5384616
0.9074468 0.6991397 -0.5314685
0.8310976 0.7116903 -0.5384616
0.6651766 0.7223901 -0.5314685
0.8886794 0.7372704 -0.534965
0.9616164 0.7614508 -0.5314685
0.8844141 0.7893513 -0.5314685
0.9594837 0.7874866 -0.5384616
-0.1819159 -0.2824878 -0.520979
-0.09277071 -0.2815624 -0.520979
-0.0953299 -0.2541269 -0.5244755
0.6903463 0.6163683 -0.520979
0.8383486 0.6298582 -0.527972
0.6715747 0.6438038 -0.5244755
0.9121387 0.6447338 -0.5244755
0.892949 0.6847245 -0.520979
0.6673093 0.6958847 -0.527972
0.9658817 0.7089049 -0.5244755
0.9637491 0.7349407 -0.520979
0.6626174 0.7484306 -0.527972
0.7355545 0.7586608 -0.527972
0.7530422 0.7581911 -0.520979
0.9769716 0.7781911 -0.527972
-0.1870343 -0.2299512 -0.513986
0.7598625 0.6758893 -0.5104895
0.9837918 0.6958847 -0.5174825
0.750483 0.7851663 -0.5104895
0.8984854 0.8070216 -0.5174825
0.7483504 0.8126017 -0.5174825
0.955645 0.8395675 -0.5174825
-0.3282121 -0.2452918 -0.506993
-0.1183626 -0.2090212 -0.506993
0.6694377 0.6698442 -0.506993
0.9816634 0.7223901 -0.506993
0.9795308 0.7498256 -0.5034965
-0.1657077 -0.2587817 -0.493007
-0.3333305 -0.1927459 -0.493007
-0.335894 -0.1667054 -0.4965035
-0.1256094 -0.1299698 -0.5
0.6860767 0.6698442 -0.5
0.5969315 0.6717042 -0.5
0.6835175 0.6972797 -0.5
0.9727105 0.8330621 -0.5
0.8801488 0.8405022 -0.493007
-0.4561717 -0.1760056 -0.4895105
-0.1789259 -0.1239247 -0.4895105
0.7556014 0.7293606 -0.4895105
0.6020499 0.8005115 -0.4895105
0.8822857 0.8144618 -0.4895105
-0.4011534 -0.2243618 -0.479021
-0.3307756 -0.2192513 -0.479021
-0.3849451 -0.1927459 -0.479021
-0.4587352 -0.1490305 -0.4755245
-0.2680753 -0.1299698 -0.472028
0.6046091 0.773541 -0.479021
0.7334175 0.7837712 -0.472028
-0.1682626 -0.2318066 -0.4685315
-0.3819594 -0.2206464 -0.4615385
-0.4037125 -0.197861 -0.4615385
-0.2488814 -0.1360149 -0.4685315
-0.3213919 -0.1271797 -0.465035
-0.1814894 -0.0974192 -0.4685315
-0.1303098 -0.07835387 -0.4615385
-0.3461307 -0.06207859 -0.4685315
-0.2757529 -0.05091839 -0.465035
-0.2458957 -0.1634504 -0.4545455
-0.4787822 -0.1225296 -0.4545455
-0.2706346 -0.1039293 -0.458042
-0.4839005 -0.06998373 -0.4545455
-0.3981676 -0.05882353 -0.4545455
-0.4194942 -0.0402232 -0.458042
-0.3486899 -0.03696815 -0.458042
-0.3512491 -0.01092769 -0.4510489
-0.2731937 -0.07788886 -0.4475524
-0.2569855 -0.05557312 -0.4405594
-0.4165085 -0.06719833 -0.4300699
-0.2783121 -0.02534294 -0.4370629
-0.3346143 0.007207626 -0.4370629
-0.4058452 -0.1722809 -0.4230769
-0.2621039 -0.001627528 -0.4230769
-0.2646631 0.02487794 -0.4230769
-0.3401593 0.06114857 -0.4195804
-0.3585002 0.06719368 -0.4020979
