# .PCD v.7 - Point Cloud Data file format
VERSION .7
FIELDS x y z
SIZE 4 4 4
TYPE F F F
COUNT 1 1 1
WIDTH 412
HEIGHT 1
VIEWPOINT 0 0 0 1 0 0 0
POINTS 412
DATA ascii
0.3292951 0.9347472 -0.994543
0.7140505 0.7107124 -0.9863575
0.5355379 0.7509516 -0.9809004
0.7019013 0.7759652 -0.9863575
0.689804 0.8412181 -0.9863575
0.1507825 0.9782491 -0.9809004
-0.9012461 0.7574769 -0.9781719
-0.7365986 0.8640565 -0.9727148
0.4229016 0.9173464 -0.9727148
-0.3015823 0.9434475 -0.9754434
-0.6014143 0.1560631 -0.9618008
0.8769476 0.7705275 -0.9699864
-0.5424704 0.783578 -0.9699864
-0.3778228 0.829255 -0.9699864
0.175029 0.851006 -0.9645293
0.6083121 0.8640565 -0.9645293
-0.6620392 0.9651985 -0.9645293
-0.4835266 0.9706362 -0.9645293
0.06585903 0.9804242 -0.9618008
-0.7729943 -0.8749321 -0.9508868
-0.8145895 0.3072322 -0.9536153
0.8336193 0.5780315 -0.9508868
0.7279329 0.646547 -0.9590723
0.02426385 0.6737357 -0.9590723
-0.7972409 0.7074497 -0.9563438
0.8093728 0.7063621 -0.9563438
0.5233886 0.8162045 -0.9508868
0.436732 0.8531811 -0.9536153
0.3431775 0.8705819 -0.9563438
-0.4714293 0.9075584 -0.9590723
0.07800829 0.9162588 -0.9563438
-0.7486958 0.9293094 -0.9563438
-0.4020694 0.9597607 -0.9536153
0.5823324 0.9934747 -0.9563438
0.03467998 -0.7944535 -0.9454297
-0.08320768 -0.7107124 -0.9481583
-0.1594482 -0.7052746 -0.9454297
-0.7799268 -0.314845 -0.9427012
-0.6135115 0.2224035 -0.9427012
-0.8024402 0.2430669 -0.9454297
0.5233886 0.4029364 -0.9454297
-0.6499419 0.4138119 -0.9427012
-0.5875319 0.5780315 -0.9481583
-0.7850916 0.6421968 -0.9454297
-0.9688209 0.6530723 -0.9481583
-0.3535416 0.7030995 -0.9427012
0.1143867 0.7226754 -0.9481583
-0.3899721 0.8945079 -0.9427012
0.1629318 0.9151713 -0.9454297
0.2443717 0.9586732 -0.9481583
0.4107524 0.9825993 -0.9427012
-0.6672559 -0.8923328 -0.9317872
0.2010434 -0.6965742 -0.9372442
-0.7279329 -0.141925 -0.9317872
-0.7521794 -0.01576944 -0.9399727
0.9445744 -0.001631321 -0.9317872
0.3934037 0.1865144 -0.9317872
-0.6377927 0.3518216 -0.9345157
0.6707222 0.5399674 -0.9399727
-0.07279155 0.7205003 -0.9317872
0.2010434 0.7215878 -0.9399727
-0.3656909 0.7672648 -0.9317872
-0.8093728 0.771615 -0.9372442
-0.8215221 0.8346928 -0.9399727
-0.5546197 0.8477433 -0.9372442
-0.2877 0.8803698 -0.9345157
0.2565209 0.8945079 -0.9372442
-0.6482088 0.9010332 -0.9317872
0.6672559 0.9706362 -0.9399727
-0.07105842 -0.7748777 -0.9208731
-0.6932703 -0.7640022 -0.9208731
0.3258289 -0.3735726 -0.9263301
-0.7157837 -0.2071778 -0.9208731
-0.7781937 0.1158238 -0.9208731
0.3813064 0.2506797 -0.9290587
0.5719163 0.5595433 -0.9208731
-0.5996811 0.6432844 -0.9263301
0.3795733 0.6780859 -0.9263301
0.5476698 0.6867863 -0.9208731
-0.08494081 0.7846656 -0.9208731
0.6793879 0.9064709 -0.9236016
-0.5667169 0.9140837 -0.9208731
0.5962148 0.9293094 -0.9290587
-0.1213366 0.9782491 -0.9290587
-0.4038198 -0.872757 -0.9154161
0.04677724 -0.8586188 -0.9181446
-0.1473162 -0.7683524 -0.9126876
-0.2461048 -0.759652 -0.9154161
-0.7175168 -0.6356716 -0.9154161
-0.7296661 -0.5715063 -0.9154161
-0.7434964 -0.5062534 -0.9181446
0.3500754 -0.5008157 -0.9126876
-0.6967018 0.1908646 -0.9181446
0.4523475 0.2920065 -0.9181446
0.3691572 0.314845 -0.9181446
-0.7348654 0.3855356 -0.9181446
-0.9185428 0.3953235 -0.9126876
0.6949687 0.4105492 -0.9154161
-0.838836 0.4355628 -0.9181446
0.8475017 0.5127787 -0.9154161
-0.9428413 0.5247417 -0.9126876
0.9150765 0.5780315 -0.9154161
0.4852597 0.5976074 -0.9126876
0.6585729 0.6052202 -0.9181446
0.8215221 0.6421968 -0.9126876
0.4731624 0.6617727 -0.9181446
-0.2513215 0.6867863 -0.9181446
0.2946498 0.7020119 -0.9126876
0.01213193 0.7389886 -0.9154161
-0.2634188 0.7509516 -0.9181446
-0.6239277 0.771615 -0.9126876
-0.9133434 0.8216422 -0.9154161
0.7729943 0.8999456 -0.9181446
-0.02426385 0.9314845 -0.9154161
-0.4714293 -0.9684611 -0.9072306
-0.135167 -0.8314301 -0.9072306
0.2946498 -0.7411637 -0.9017735
-0.629127 -0.6585101 -0.9072306
-0.9237595 -0.54323 -0.9017735
-0.7036344 -0.2724307 -0.9017735
0.4558138 -0.1353997 -0.9017735
-0.6343264 -0.1288744 -0.904502
-0.830153 -0.05492115 -0.9017735
0.3466091 -0.04948341 -0.9099591
0.8492348 0.004893964 -0.904502
0.9341583 0.06144644 -0.9099591
0.4904764 0.09842306 -0.9017735
0.7885579 0.326808 -0.904502
-0.8266868 0.372485 -0.9099591
0.8717482 0.3844481 -0.9099591
0.6828715 0.4747145 -0.9017735
0.4159518 0.4845024 -0.9072306
-0.8509679 0.4997281 -0.9017735
0.5857987 0.4942904 -0.904502
-0.9549385 0.588907 -0.9072306
0.9029793 0.6421968 -0.9099591
-0.175029 0.7292007 -0.904502
0.7972409 0.7727026 -0.9072306
0.1889114 0.7857531 -0.9017735
0.4488813 0.7890158 -0.9017735
0.6204613 0.7998912 -0.9099591
0.09183868 0.8520935 -0.9017735
-0.01211459 0.8684067 -0.9017735
0.5112914 0.8803698 -0.9072306
-0.2114595 0.9227841 -0.9017735
-0.2877 -0.9673735 -0.8963165
-0.7591119 -0.9390973 -0.8990451
0.3310283 -0.9347472 -0.8990451
0.2374391 -0.8890702 -0.8908595
-0.3240957 -0.7737901 -0.8963165
-0.7972409 -0.7455139 -0.8990451
-0.9116102 -0.6073954 -0.8990451
-0.9358914 -0.4790647 -0.8963165
-0.7677776 -0.3768352 -0.893588
0.3136796 -0.3083197 -0.8908595
0.5632507 -0.2876563 -0.8990451
0.8977799 -0.2528548 -0.8908595
0.3847727 -0.2430669 -0.893588
0.3726234 -0.1789016 -0.8908595
0.5390041 -0.1582382 -0.8908595
0.5857987 0.08102229 -0.8908595
0.405553 0.1212616 -0.8963165
0.7452295 0.1517129 -0.8963165
-0.7885579 0.1789016 -0.893588
0.9081786 0.1908646 -0.893588
0.9879028 0.1919522 -0.8963165
-0.8804312 0.2028276 -0.8963165
0.9757535 0.2561175 -0.8963165
0.8007071 0.2626427 -0.893588
0.8838975 0.3202828 -0.8908595
-0.9047124 0.3311583 -0.8963165
0.4298341 0.4192496 -0.8908595
-0.6620392 0.4801522 -0.8908595
0.9272258 0.5138662 -0.893588
-0.7712612 0.5780315 -0.8963165
0.7400302 0.5845568 -0.8963165
-0.6863377 0.6084829 -0.8990451
-0.698435 0.6726482 -0.8990451
-0.6117784 0.7085372 -0.8990451
-0.528588 0.7205003 -0.8908595
-0.7105842 0.7357259 -0.8990451
-1.733132e-05 0.805329 -0.8908595
0.3552748 0.8075041 -0.8908595
-0.8336193 0.8999456 -0.8963165
0.5008752 0.9434475 -0.893588
-0.5788662 0.9782491 -0.8908595
-0.1213366 -0.896683 -0.888131
-0.3119465 -0.8379554 -0.8854024
-0.4159518 -0.8075041 -0.8826739
0.3067471 -0.805329 -0.8854024
0.4817934 -0.7574769 -0.8854024
0.467963 -0.199565 -0.888131
-0.8041734 -0.1832518 -0.8854024
-0.7400302 -0.07775965 -0.8854024
0.336245 0.01468189 -0.8826739
-0.7643113 0.05057096 -0.888131
0.9636042 0.3224578 -0.8826739
0.5355379 0.3387711 -0.8854024
0.951507 0.3866232 -0.8826739
-0.7452295 0.4497009 -0.8826739
0.9393577 0.4497009 -0.8826739
-0.930692 0.4605764 -0.8854024
-0.7591119 0.5149538 -0.8826739
0.4991421 0.5323545 -0.8826739
-0.8631172 0.564981 -0.8826739
0.4627463 0.7248505 -0.8854024
0.367424 0.7433388 -0.8826739
-0.7244493 0.8009788 -0.888131
-0.275568 0.8162045 -0.8854024
-0.6360595 0.8368679 -0.888131
0.2703513 0.8314301 -0.8854024
-0.1993102 0.8597063 -0.888131
-0.1091873 -0.9619358 -0.8772169
-0.2097263 -0.9521479 -0.8717599
-0.4956758 -0.8379554 -0.8772169
-0.0589265 -0.8379554 -0.8772169
-0.7850916 -0.8096792 -0.8799455
-0.6169778 -0.7215878 -0.8717599
-0.336245 -0.7085372 -0.8717599
-0.7036344 -0.6987493 -0.8744884
-0.6533735 -0.5280043 -0.8717599
-0.6776547 -0.3985862 -0.8717599
0.5753999 -0.3518216 -0.8744884
-0.689804 -0.3355084 -0.8717599
0.39687 -0.3061447 -0.8744884
0.9584048 -0.06579663 -0.8772169
0.8631172 -0.05927134 -0.8744884
-0.8423023 0.0103317 -0.8799455
0.597948 0.01794454 -0.8772169
-0.9445744 0.02664492 -0.8717599
0.7695281 0.02229473 -0.8744884
0.7573788 0.08754758 -0.8717599
0.8128564 0.1973899 -0.8799455
-0.6256608 0.2887439 -0.8772169
0.4419314 0.3561718 -0.8799455
0.859651 0.4486134 -0.8744884
0.7643113 0.4551387 -0.8744884
0.6464757 0.6704731 -0.8744884
0.6343264 0.7357259 -0.8772169
0.2825006 0.7672648 -0.8772169
0.1039879 0.7868407 -0.8799455
-0.4575469 0.8455682 -0.8717599
0.6169778 -0.9738989 -0.8663028
-0.6533735 -0.9564981 -0.8663028
-0.3899721 -0.9358347 -0.8608459
-0.2981161 -0.9010332 -0.8635743
0.1317007 -0.8781947 -0.8608459
-0.6793879 -0.8281675 -0.8635743
0.227023 -0.8238173 -0.8635743
0.4939427 -0.8205547 -0.8663028
0.1196035 -0.8129418 -0.8663028
-0.2582541 -0.6943991 -0.8663028
0.4696962 -0.692224 -0.8663028
-0.4401983 -0.6791735 -0.8690314
-0.8215221 -0.6171833 -0.8663028
-0.6655228 -0.4638391 -0.8635743
0.4800603 -0.2637303 -0.8690314
0.8076397 -0.1723763 -0.8690314
0.8752145 -0.1234367 -0.8663028
0.9705541 -0.1299619 -0.8663028
0.3604915 -0.1125612 -0.8608459
0.6828715 -0.02011963 -0.8635743
0.6707222 0.04513323 -0.8608459
-0.8544342 0.07558455 -0.8635743
-0.6828715 0.1277868 -0.8635743
0.5615522 0.211528 -0.8690314
-0.7088511 0.2561175 -0.8608459
-0.8925631 0.2680805 -0.8690314
0.549403 0.2756933 -0.8635743
-0.720983 0.3224578 -0.8608459
0.3570079 0.3800979 -0.8608459
0.7781937 0.3909734 -0.8690314
0.5112914 0.4681892 -0.8663028
-0.5736495 0.5149538 -0.8608459
0.7539126 0.5203915 -0.8608459
-0.4333004 0.7150626 -0.8635743
-0.09703808 0.8499184 -0.8690314
-0.1091873 0.9151713 -0.8663028
0.4263679 -0.8879826 -0.8526603
-0.6031474 -0.7857531 -0.8526603
0.2131926 -0.759652 -0.8581173
-0.428101 -0.7433388 -0.8553888
0.1074542 -0.7487765 -0.8581173
0.7331323 -0.6911365 -0.8553888
0.09530494 -0.6835237 -0.8526603
0.5546197 -0.6508972 -0.8553888
0.445415 -0.5628059 -0.8526603
0.6967018 -0.497553 -0.8553888
0.3397112 -0.4366504 -0.8581173
0.4090192 -0.3703099 -0.8581173
0.6221945 -0.1114736 -0.8581173
0.6949687 -0.08319739 -0.8581173
-0.6585729 -0.001631321 -0.8581173
-0.6707222 0.06362154 -0.8526603
0.838836 0.07123437 -0.8581173
0.9220264 0.1277868 -0.8526603
1 0.1288744 -0.8553888
0.5736495 0.1451876 -0.8526603
0.4662299 0.2278412 -0.8553888
0.3327614 0.5084285 -0.8526603
0.5615522 0.6237085 -0.8581173
-0.8873637 0.6943991 -0.8553888
-0.1871783 0.7944535 -0.8581173
-0.4835266 -0.9021207 -0.8417463
0.6741884 -0.8651441 -0.8417463
-0.2339729 -0.8227298 -0.8499318
-0.8734813 -0.7998912 -0.8472033
-0.5078077 -0.7727026 -0.8472033
0.7469627 -0.7563893 -0.8472033
-0.6412763 -0.5921696 -0.8499318
0.4332657 -0.4997281 -0.8417463
0.7695281 -0.4692768 -0.8417463
-0.7539126 -0.439913 -0.8472033
0.4939427 -0.3278956 -0.8444747
0.9116102 -0.3159326 -0.8417463
0.6603061 -0.3039696 -0.8472033
0.5511534 -0.2213159 -0.8499318
0.6360595 -0.1756389 -0.8417463
-0.8163226 -0.1179989 -0.8417463
0.5268549 -0.09407286 -0.8444747
-0.6447425 -0.06470908 -0.8499318
-0.8665835 0.1397499 -0.8417463
0.4783272 0.1636759 -0.8417463
0.6464757 0.1734638 -0.8472033
0.6343264 0.2365416 -0.8499318
0.6221945 0.302882 -0.8444747
0.7088511 0.348559 -0.8472033
0.6100453 0.3670473 -0.8472033
0.3449107 0.4453507 -0.8444747
-0.6741884 0.5443175 -0.8417463
0.3934037 0.6139206 -0.8417463
-0.8752145 0.6291463 -0.8499318
0.2149257 0.6585101 -0.8444747
0.6863377 -0.9293094 -0.8308322
0.6048805 -0.9097335 -0.8362892
0.4142186 -0.8216422 -0.8335607
0.56845 -0.7150626 -0.8390177
-0.519957 -0.7085372 -0.8308322
-0.8076397 -0.6813486 -0.8335607
0.7227162 -0.6258836 -0.8335607
0.6135115 -0.5443175 -0.8308322
0.589265 -0.4148994 -0.8335607
-0.7920241 -0.2485046 -0.8390177
0.8215221 -0.2376291 -0.8362892
0.7955077 -0.1060359 -0.8390177
0.4436645 -0.07014682 -0.8308322
0.4315673 -0.004893964 -0.8362892
0.8977799 0.2561175 -0.8390177
0.597948 0.4312126 -0.8335607
0.405553 0.5508428 -0.8335607
-0.5164908 0.6563349 -0.8308322
-0.4453977 0.7803154 -0.8390177
-0.5788662 -0.9140837 -0.8281037
-0.04504411 -0.9021207 -0.8226467
-0.2218236 -0.8868951 -0.8281037
0.8423023 -0.8564437 -0.8226467
-0.5909981 -0.8488309 -0.8226467
0.5927312 -0.8444807 -0.8281037
0.7591119 -0.8205547 -0.8226467
0.6620565 -0.8020663 -0.8226467
0.02426385 -0.7292007 -0.8253752
0.8059065 -0.6628603 -0.8253752
0.8960294 -0.6258836 -0.8253752
0.7088511 -0.5617183 -0.8253752
0.9358914 -0.4442632 -0.8253752
0.6846046 -0.4333877 -0.8226467
0.7573788 -0.4051115 -0.8226467
0.8336193 -0.3017944 -0.8281037
0.6482088 -0.2387167 -0.8281037
0.419418 0.05927134 -0.8281037
0.720983 0.2822186 -0.8253752
0.4384651 -0.9521479 -0.8199182
0.5199224 -0.9488853 -0.8144611
0.830153 -0.7911909 -0.8171896
0.3778402 -0.6291463 -0.8171896
0.4575469 -0.6269712 -0.8171896
0.6256608 -0.6084829 -0.8199182
0.3656909 -0.5638934 -0.8144611
-0.8336193 -0.5508428 -0.8144611
0.6014143 -0.4790647 -0.8199182
0.4211685 -0.4344753 -0.8171896
0.8579178 -0.4312126 -0.8144611
0.6603061 0.1103861 -0.8144611
0.8266868 0.1353997 -0.8199182
0.5805993 -0.7792279 -0.8090041
0.9081786 -0.6900489 -0.8008186
0.8838975 -0.5606308 -0.8035471
0.8700151 -0.4953779 -0.8062756
-0.8457686 -0.4877651 -0.8062756
0.8873637 -0.1865144 -0.8090041
0.7088511 -0.1462751 -0.8035471
0.6117784 -0.04513323 -0.8090041
0.7833585 -0.04187058 -0.8090041
0.7348654 0.2169657 -0.8008186
0.3899374 -0.6933116 -0.79809
0.7937746 -0.5965198 -0.79809
0.7816253 -0.5334421 -0.792633
0.5182239 -0.4562262 -0.7953615
-0.8579178 -0.4225122 -0.7953615
0.5060746 -0.3920609 -0.792633
0.7331323 -0.2767809 -0.7953615
0.5078251 -0.8836324 -0.7899045
0.4020867 -0.7574769 -0.787176
-0.8838975 -0.7346384 -0.781719
0.5442035 -0.5845568 -0.781719
0.5320716 -0.5214791 -0.7844475
0.5164908 -0.02882001 -0.781719
0.7729943 -0.8836324 -0.7762619
0.8180557 -0.725938 -0.7789904
0.63781 -0.6704731 -0.7735334
0.6741884 -0.3681349 -0.7735334
0.8457686 -0.3659598 -0.7762619
