# .PCD v.7 - Point Cloud Data file format
VERSION .7
FIELDS x y z
SIZE 4 4 4
TYPE F F F
COUNT 1 1 1
WIDTH 992
HEIGHT 1
VIEWPOINT 0 0 0 1 0 0 0
POINTS 992
DATA ascii	
-0.672971840357  -0.87206626782  -0.6875
-0.66803342673  -0.821445006908  -0.711538461538
-0.660654565773  -0.776346065332  -0.903846153846
-0.658181250464  -0.718361711914  -0.788461538462
-0.653251053827  -0.667740451001  -0.836538461538
-0.64749094076  -0.617119190046  -0.884615384615
-0.644220577001  -0.563736769422  -0.855769230769
-0.639282163374  -0.512195121968  -0.875
-0.637638764495  -0.453290381965  -0.716346153846
-0.635173666176  -0.396226415089  -0.591346153846
-0.62859185367  -0.349286700429  -0.735576923077
-0.622034692152  -0.3005062126  -0.841346153846
-0.617096278525  -0.250805338229  -0.908653846154
-0.612987781327  -0.196502531064  -0.870192307692
-0.60887106714  -0.143120110441  -0.850961538462
-0.604762569951  -0.0888173032752  -0.822115384615
-0.601492206183  -0.0354348826516  -0.793269230769
-0.596553792556  0.0170271513873  -0.802884615385
-0.591623595918  0.0694891854691  -0.826923076923
-0.590801896479  0.130234698556  -0.615384615385
-0.586685182291  0.182696732637  -0.625
-0.582593119092  0.236079153261  -0.605769230769
-0.577654705465  0.2885411873  -0.610576923077
-0.56943771107  0.330878969165  -0.865384615385
-0.565320996882  0.38518177633  -0.831730769231
-0.560407234244  0.436723423827  -0.855769230769
-0.556290520056  0.489185457909  -0.841346153846
-0.553825421737  0.546249424743  -0.735576923077
-0.547243609231  0.594109525987  -0.860576923077
-0.542329846593  0.644730786942  -0.903846153846
-0.537399649956  0.697192820981  -0.918269230769
-0.534104635207  0.753336401273  -0.836538461538
-0.52999613801  0.805798435355  -0.836538461538
-0.525879423822  0.86010124252  -0.8125
-0.520965661184  0.912563276559  -0.836538461538
-0.516857163986  0.965945697183  -0.822115384615
-0.440422682195  0.993557294079  -0.884615384615
-0.444531179383  0.938334100329  -0.918269230769
-0.448647893571  0.884031293164  -0.913461538462
-0.452756390769  0.828808099414  -0.9375
-0.458516503836  0.777266451916  -0.875
-0.461786867604  0.719282098498  -0.951923076923
-0.466725281222  0.667740451001  -0.894230769231
-0.474120576178  0.617119190046  -0.764423076923
-0.478237290366  0.56281638288  -0.774038461538
-0.482329353574  0.509433962257  -0.769230769231
-0.487267767192  0.455131155092  -0.769230769231
-0.491376264389  0.400828347926  -0.759615384615
-0.496314678017  0.345605154176  -0.759615384615
-0.498779776335  0.286700414173  -0.855769230769
-0.503693538973  0.232397607008  -0.850961538462
-0.508631952601  0.179015186384  -0.802884615385
-0.513562149238  0.124712379219  -0.783653846154
-0.517678863426  0.0704095720109  -0.807692307692
-0.522592626073  0.0142659917191  -0.798076923077
-0.526701123262  -0.0400368154462  -0.798076923077
-0.531639536889  -0.092498849528  -0.764423076923
-0.535748034087  -0.14864242982  -0.802884615385
-0.538221349395  -0.207547169823  -0.899038461538
-0.543135112043  -0.260929590446  -0.860576923077
-0.548065308671  -0.316152784153  -0.860576923077
-0.553003722298  -0.368614818235  -0.831730769231
-0.557942135925  -0.421997238859  -0.788461538462
-0.562872332562  -0.476300046024  -0.754807692308
-0.567786095201  -0.529682466648  -0.75
-0.571902809388  -0.585826046939  -0.764423076923
-0.576011306586  -0.641969627231  -0.778846153846
-0.580128020774  -0.697192820981  -0.817307692308
-0.584220083982  -0.754256787858  -0.846153846154
-0.589980197039  -0.80487804877  -0.745192307692
-0.593266994797  -0.861942015646  -0.826923076923
-0.596553792556  -0.921767142191  -0.908653846154
-0.601492206183  -0.974229176273  -0.875
-0.579306321334  -0.952139898756  -0.807692307692
-0.574367907707  -0.900598251259  -0.8125
-0.56943771107  -0.850897376888  -0.870192307692
-0.562872332562  -0.803957662228  -1
-0.561228933683  -0.744132535684  -0.841346153846
-0.556290520056  -0.69075011506  -0.841346153846
-0.553003722298  -0.637367694436  -0.798076923077
-0.5488952251  -0.585826046939  -0.802884615385
-0.545600210352  -0.529682466648  -0.706730769231
-0.539864748274  -0.481822365403  -0.8125
-0.536569733526  -0.426599171653  -0.754807692308
-0.531639536889  -0.375057524156  -0.764423076923
-0.527522822701  -0.321675103533  -0.759615384615
-0.521787360623  -0.272894615747  -0.846153846154
-0.517678863426  -0.219512195123  -0.831730769231
-0.512740449798  -0.167050161084  -0.841346153846
-0.51027535148  -0.109986194208  -0.721153846154
-0.504515238413  -0.060285319837  -0.817307692308
-0.501244874654  -0.00506212608696  -0.75
-0.494663062148  0.0437183616991  -0.865384615385
-0.492197963829  0.100782328576  -0.75
-0.485616151323  0.146801656693  -0.899038461538
-0.480702388684  0.198343304191  -0.9375
-0.479880689245  0.258168430735  -0.730769230769
-0.473298876738  0.306028531979  -0.865384615385
-0.469190379541  0.359410952603  -0.841346153846
-0.464251965913  0.411872986642  -0.855769230769
-0.460159902715  0.464335020724  -0.870192307692
-0.456051405517  0.518637827889  -0.822115384615
-0.451934691329  0.572020248513  -0.802884615385
-0.447826194132  0.625402669136  -0.788461538462
-0.442887780504  0.676023930049  -0.831730769231
-0.437152318427  0.727565577546  -0.899038461538
-0.437152318427  0.788311090675  -0.673076923077
-0.429748806481  0.837091578461  -0.807692307692
-0.424810392854  0.888633225958  -0.846153846154
-0.423166993974  0.945697192835  -0.706730769231
-0.419074930776  0.999079613458  -0.6875
-0.345935463724  0.983433041862  -0.788461538462
-0.350043960921  0.92728946157  -0.807692307692
-0.35333897567  0.871145881279  -0.865384615385
-0.357447472867  0.815922687529  -0.879807692308
-0.364834550814  0.767142199743  -0.701923076923
-0.367299649133  0.707317073155  -0.836538461538
-0.373059762199  0.655775425701  -0.764423076923
-0.375524860518  0.596870685698  -0.879807692308
-0.379616923726  0.542567878533  -0.884615384615
-0.385377036784  0.491026231035  -0.807692307692
-0.390307233421  0.437643810412  -0.798076923077
-0.395245647048  0.38518177633  -0.754807692308
-0.399337710256  0.329958582623  -0.75
-0.403446207444  0.273815002288  -0.807692307692
-0.406741222193  0.218591808581  -0.836538461538
-0.41167141883  0.163368614831  -0.822115384615
-0.415788133018  0.107225034497  -0.850961538462
-0.419880196226  0.0529222273312  -0.879807692308
-0.424810392854  -0.000460193292322  -0.826923076923
-0.428927107041  -0.0566037735841  -0.870192307692
-0.435508919548  -0.107225034497  -0.754807692308
-0.439617416745  -0.162448228247  -0.740384615385
-0.442066081065  -0.221352968249  -0.889423076923
-0.449469593011  -0.268292682909  -0.6875
-0.454399789648  -0.324436263244  -0.677884615385
-0.456051405517  -0.38518177633  -0.846153846154
-0.461786867604  -0.435803037285  -0.75
-0.466725281222  -0.491026231035  -0.754807692308
-0.469190379541  -0.548090197869  -0.841346153846
-0.474120576178  -0.603313391619  -0.841346153846
-0.478237290366  -0.657616198784  -0.831730769231
-0.481507654134  -0.713759779119  -0.889423076923
-0.486437850762  -0.768062586284  -0.875
-0.492197963829  -0.821445006908  -0.831730769231
-0.497958076896  -0.871145881279  -0.75
-0.500423175214  -0.930050621239  -0.826923076923
-0.505336937852  -0.985273814989  -0.807692307692
-0.484794451883  -0.985273814989  -0.8125
-0.479058989805  -0.936493327203  -0.899038461538
-0.474942275618  -0.884951679705  -0.913461538462
-0.47083377842  -0.831569259082  -0.889423076923
-0.466725281222  -0.776346065332  -0.841346153846
-0.463430266474  -0.722043258166  -0.798076923077
-0.457694804396  -0.672342383796  -0.860576923077
-0.453578090208  -0.619880349757  -0.846153846154
-0.45111299189  -0.56281638288  -0.745192307692
-0.446182795253  -0.512195121968  -0.778846153846
-0.440422682195  -0.464335020724  -0.875
-0.437152318427  -0.409111826974  -0.802884615385
-0.43057050592  -0.363092498856  -0.956730769231
-0.429748806481  -0.303267372311  -0.759615384615
-0.423988693414  -0.25356649794  -0.846153846154
-0.419880196226  -0.199263690732  -0.788461538462
-0.416609832457  -0.145881270152  -0.764423076923
-0.410028019951  -0.0980211689073  -0.879807692308
-0.405919522753  -0.0455591348255  -0.879807692308
-0.404267906884  0.0151863782609  -0.711538461538
-0.398532444806  0.0648872526316  -0.788461538462
-0.393602248169  0.117349286713  -0.783653846154
-0.388663834542  0.167050161084  -0.860576923077
-0.384555337344  0.221352968249  -0.826923076923
-0.379616923726  0.272894615747  -0.841346153846
-0.374703161079  0.324436263244  -0.894230769231
-0.370586446891  0.378739070409  -0.850961538462
-0.365656250254  0.431201104448  -0.879807692308
-0.363182934945  0.488265071324  -0.778846153846
-0.359074437757  0.540727105406  -0.754807692308
-0.354160675109  0.593189139445  -0.798076923077
-0.347578862603  0.641969627231  -0.903846153846
-0.343470365405  0.694431661313  -0.913461538462
-0.339353651217  0.747814081936  -0.908653846154
-0.336083287458  0.803037275644  -0.826923076923
-0.3327964897  0.858260469394  -0.759615384615
-0.325392977754  0.905200184096  -0.9375
-0.321276263566  0.957662218135  -0.947115384615
-0.246509831634  0.968706856894  -0.923076923077
-0.253091644141  0.918085595938  -0.831730769231
-0.257183707339  0.863782788773  -0.817307692308
-0.261300421527  0.808559595023  -0.870192307692
-0.266230618164  0.758858720652  -0.793269230769
-0.270347332352  0.700874367234  -0.860576923077
-0.27445582955  0.645651173484  -0.850961538462
-0.279369592188  0.591348366319  -0.846153846154
-0.281842907496  0.532443626316  -0.951923076923
-0.286773104134  0.479061205692  -0.903846153846
-0.290889818321  0.423838011985  -0.913461538462
-0.298268679278  0.374137137614  -0.783653846154
-0.303207092905  0.319834330406  -0.75
-0.307315590103  0.264611136699  -0.774038461538
-0.309780688422  0.207547169823  -0.846153846154
-0.318811165248  0.16060745512  -0.629807692308
-0.337710252348  0.139438564188  0.254807692308
-0.345935463724  0.092498849528  0.456730769231
-0.350043960921  0.037275655778  0.423076923077
-0.35251727623  -0.0197883110984  0.350961538462
-0.356625773428  -0.0768522779748  0.293269230769
-0.341818749536  -0.173492867005  -0.826923076923
-0.344292064845  -0.231477220423  -0.918269230769
-0.350043960921  -0.28301886792  -0.850961538462
-0.354160675109  -0.33824206167  -0.855769230769
-0.359074437757  -0.392544868836  -0.822115384615
-0.363182934945  -0.447768062586  -0.836538461538
-0.367299649133  -0.502991256336  -0.850961538462
-0.374703161079  -0.553612517248  -0.721153846154
-0.377989958837  -0.60975609754  -0.759615384615
-0.382903721475  -0.663138518164  -0.730769230769
-0.384555337344  -0.725724804419  -0.899038461538
-0.390307233421  -0.777266451916  -0.826923076923
-0.396067346488  -0.829728485955  -0.759615384615
-0.397710745367  -0.890473999085  -0.903846153846
-0.403446207444  -0.943856419708  -0.865384615385
-0.408384621072  -0.995398067205  -0.817307692308
-0.383725420914  -0.961343764388  -0.884615384615
-0.379616923726  -0.907961343764  -0.836538461538
-0.374703161079  -0.859180855978  -0.908653846154
-0.373059762199  -0.800276115975  -0.754807692308
-0.368943048012  -0.746893695352  -0.735576923077
-0.364012851374  -0.696272434439  -0.759615384615
-0.359074437757  -0.644730786942  -0.783653846154
-0.354160675109  -0.594109525987  -0.831730769231
-0.350043960921  -0.540727105363  -0.826923076923
-0.345935463724  -0.488265071324  -0.822115384615
-0.340997050096  -0.437643810412  -0.855769230769
-0.336904986898  -0.384261389788  -0.841346153846
-0.33197479026  -0.331799355707  -0.865384615385
-0.328679775512  -0.276576161999  -0.788461538462
-0.324571278315  -0.225034514502  -0.802884615385
-0.321276263566  -0.169811320752  -0.735576923077
-0.335261588019  -0.0740911182637  0.365384615385
-0.33197479026  -0.0188679245137  0.432692307692
-0.327858076073  0.0317533363987  0.408653846154
-0.321276263566  0.0805338242277  0.3125
-0.318811165248  0.136677404519  0.389423076923
-0.31307570317  0.187298665432  0.336538461538
-0.288416503013  0.194661757938  -0.860576923077
-0.283486306376  0.247123791977  -0.879807692308
-0.280191291627  0.302346985727  -0.8125
-0.276904493879  0.35572940635  -0.788461538462
-0.271169031791  0.408191440389  -0.826923076923
-0.266230618164  0.459733087886  -0.879807692308
-0.262122120966  0.511274735383  -0.879807692308
-0.259648805658  0.569259088802  -0.75
-0.256362007909  0.622641509425  -0.701923076923
-0.248153230513  0.669581224128  -0.899038461538
-0.244044733316  0.722043258166  -0.918269230769
-0.238284620249  0.770823745995  -0.980769230769
-0.2349978225  0.826967326287  -0.927884615385
-0.2349978225  0.888633225958  -0.663461538462
-0.228432443983  0.936493327203  -0.817307692308
-0.221037149027  0.98251265532  -0.975961538462
-0.152827878622  0.969627243435  -0.846153846154
-0.155292976931  0.910722503475  -0.961538461538
-0.160231390558  0.858260469394  -0.932692307692
-0.165161587196  0.80487804877  -0.870192307692
-0.170921700263  0.751495628146  -0.836538461538
-0.175013763461  0.698113207566  -0.817307692308
-0.178300561219  0.639208467563  -0.918269230769
-0.184060674286  0.589507593192  -0.807692307692
-0.188999087913  0.535204786027  -0.798076923077
-0.193107585111  0.479981592277  -0.826923076923
-0.19637794887  0.424758398527  -0.860576923077
-0.202959761377  0.374137137614  -0.759615384615
-0.211184972762  0.327197422912  -0.543269230769
-0.233370857611  0.314312011027  0.533653846154
-0.238284620249  0.25908881732  0.548076923077
-0.242401334436  0.20386562357  0.509615384615
-0.245688132195  0.146801656693  0.442307692308
-0.251448245261  0.0961803957809  0.548076923077
-0.25554030847  0.0400368154462  0.519230769231
-0.259648805658  -0.0151863782609  0.485576923077
-0.264587219285  -0.0694891854691  0.524038461538
-0.267874017043  -0.126553152303  0.456730769231
-0.270347332352  -0.185457892306  0.350961538462
-0.27445582955  -0.240681086055  0.331730769231
-0.259648805658  -0.339162448212  -0.807692307692
-0.264587219285  -0.391624482294  -0.75
-0.267874017043  -0.449608835712  -0.846153846154
-0.271990731231  -0.504832029462  -0.860576923077
-0.276904493879  -0.559134836628  -0.817307692308
-0.283486306376  -0.608835710998  -0.697115384615
-0.289238202452  -0.659456971911  -0.615384615385
-0.290889818321  -0.722043258166  -0.793269230769
-0.29417661608  -0.779107225043  -0.850961538462
-0.299090378718  -0.833410032208  -0.831730769231
-0.303207092905  -0.887712839374  -0.817307692308
-0.307315590103  -0.945697192835  -0.865384615385
-0.314719102049  -0.993557294079  -0.6875
-0.292533217201  -0.969627243435  -0.591346153846
-0.287594803573  -0.919005982523  -0.644230769231
-0.281842907496  -0.871145881279  -0.745192307692
-0.276082794439  -0.82236539345  -0.826923076923
-0.271169031791  -0.769903359411  -0.836538461538
-0.267874017043  -0.715600552245  -0.778846153846
-0.260470505097  -0.672342383796  -0.985576923077
-0.261300421527  -0.606994937872  -0.653846153846
-0.25473504302  -0.561895996296  -0.831730769231
-0.248153230513  -0.512195121968  -0.9375
-0.245688132195  -0.455131155092  -0.822115384615
-0.240757935557  -0.405430280721  -0.884615384615
-0.258005406779  -0.303267372311  0.379807692308
-0.253091644141  -0.251725724814  0.375
-0.248153230513  -0.199263690732  0.346153846154
-0.245688132195  -0.144040497025  0.418269230769
-0.243223033876  -0.0869765301487  0.552884615385
-0.237462920809  -0.037275655778  0.480769230769
-0.23581952194  0.0207086976402  0.634615384615
-0.230905759292  0.0704095720109  0.576923076923
-0.225145646225  0.120110446382  0.485576923077
-0.220215449588  0.172572480463  0.480769230769
-0.214455336531  0.221352968249  0.375
-0.213650071081  0.28301886792  0.591346153846
-0.209541573883  0.335480902002  0.586538461538
-0.202138061937  0.382420616662  0.4375
-0.17747886178  0.391624482294  -0.735576923077
-0.173370364592  0.443166129791  -0.75
-0.167634902504  0.492867004162  -0.822115384615
-0.162696488877  0.543488265074  -0.879807692308
-0.158587991679  0.599631845366  -0.817307692308
-0.154471277492  0.652093879448  -0.826923076923
-0.149557514853  0.70271514036  -0.870192307692
-0.144619101226  0.755177174399  -0.889423076923
-0.139688904589  0.806718821896  -0.908653846154
-0.135572190401  0.859180855978  -0.923076923077
-0.133107092092  0.917165209396  -0.778846153846
-0.129015028884  0.969627243435  -0.807692307692
-0.0575189607108  0.956741831593  -0.865384615385
-0.0599840590295  0.89783709159  -0.990384615385
-0.0657441720963  0.845375057509  -0.923076923077
-0.070657934744  0.791072250343  -0.899038461538
-0.0755881313717  0.738610216304  -0.850961538462
-0.0813482444385  0.686148182223  -0.793269230769
-0.0862866580658  0.631845375057  -0.778846153846
-0.0887517563844  0.574781408181  -0.850961538462
-0.0936655190226  0.521398987557  -0.817307692308
-0.0977822332103  0.464335020724  -0.875
-0.102712429848  0.412793373227  -0.8125
-0.107650843475  0.359410952603  -0.778846153846
-0.131480127203  0.346525540718  0.317307692308
-0.139688904589  0.302346985727  0.581730769231
-0.145440800666  0.248964565103  0.620192307692
-0.147914115974  0.190980211685  0.509615384615
-0.153649578062  0.138518177646  0.586538461538
-0.158587991679  0.0851357570223  0.634615384615
-0.164339887756  0.0345144961098  0.716346153846
-0.168456601944  -0.0188679245137  0.721153846154
-0.170921700263  -0.0786930510584  0.600961538462
-0.174192064031  -0.135757017935  0.528846153846
-0.17665716234  -0.193741371353  0.418269230769
-0.182417275407  -0.24528301885  0.509615384615
-0.185704073165  -0.302346985727  0.4375
-0.188177388474  -0.364012885398  0.283653846154
-0.171743399702  -0.46617579385  -0.918269230769
-0.180773876528  -0.508513575715  -0.615384615385
-0.186525772605  -0.56281638288  -0.581730769231
-0.188999087913  -0.622641509425  -0.692307692308
-0.192285885672  -0.677864703175  -0.730769230769
-0.19637794887  -0.734928670051  -0.783653846154
-0.201316362497  -0.788311090675  -0.745192307692
-0.204603160256  -0.844454670967  -0.778846153846
-0.209541573883  -0.899677864717  -0.778846153846
-0.212006672202  -0.957662218135  -0.865384615385
-0.191464186232  -0.95674183155  -0.850961538462
-0.187347472044  -0.902439024385  -0.841346153846
-0.182417275407  -0.852738150014  -0.889423076923
-0.178300561219  -0.797514956264  -0.836538461538
-0.175013763461  -0.744132535684  -0.793269230769
-0.170100000823  -0.693511274728  -0.846153846154
-0.165983286635  -0.639208467563  -0.826923076923
-0.161874789438  -0.586746433481  -0.807692307692
-0.158587991679  -0.532443626316  -0.740384615385
-0.152022613172  -0.485503911656  -0.884615384615
-0.149557514853  -0.429360331322  -0.793269230769
-0.164339887756  -0.332719742291  0.331730769231
-0.160231390558  -0.279337321668  0.370192307692
-0.159409691119  -0.220432581665  0.533653846154
-0.155292976931  -0.167050161084  0.567307692308
-0.152827878622  -0.109986194208  0.6875
-0.149557514853  -0.0556833869995  0.725961538462
-0.142975702347  -0.00690289921339  0.620192307692
-0.139688904589  0.0464795214102  0.653846153846
-0.136393889841  0.100782328576  0.716346153846
-0.131480127203  0.152323976073  0.697115384615
-0.124898314696  0.199263690732  0.548076923077
-0.119968118059  0.248964565103  0.485576923077
-0.114208004992  0.298665439474  0.403846153846
-0.109294242354  0.350207086971  0.379807692308
-0.102712429848  0.399907961342  0.269230769231
-0.0788831461199  0.4109526001  -0.846153846154
-0.0747664319322  0.462494247597  -0.875
-0.0690309698545  0.514035895094  -0.923076923077
-0.0649224726567  0.567418315675  -0.899038461538
-0.0624491573481  0.62356189601  -0.807692307692
-0.0575189607108  0.675103543507  -0.836538461538
-0.051758847644  0.724804417878  -0.942307692308
-0.0468450850059  0.778186838458  -0.9375
-0.0452016861268  0.836171191919  -0.798076923077
-0.0386198736204  0.884951679705  -0.932692307692
-0.0345031594327  0.937413713744  -0.923076923077
-0.028767697355  0.988955361241  -0.980769230769
0.0394415730599  0.973308789688  -0.966346153846
0.0336814599931  0.923607915318  -0.860576923077
0.0295893967945  0.869305108152  -0.865384615385
0.0254726826068  0.81316152786  -0.913461538462
0.0221858848486  0.758858720652  -0.927884615385
0.0172474712213  0.703635526945  -0.932692307692
0.0123172745841  0.65301426599  -0.879807692308
0.00740351194591  0.598711458824  -0.860576923077
0.00410849719773  0.541647491948  -0.908653846154
-0.00164339887909  0.490105844451  -0.826923076923
-0.00740351194591  0.439484583538  -0.754807692308
-0.00985217627499  0.380579843535  -0.870192307692
-0.0328597605536  0.369535204777  0.245192307692
-0.0394415730599  0.317073170738  0.331730769231
-0.0468450850059  0.27105384262  0.538461538462
-0.051758847644  0.219512195123  0.586538461538
-0.0591623595899  0.169811320752  0.740384615385
-0.0632708567876  0.113667740461  0.706730769231
-0.0682092704149  0.060285319837  0.730769230769
-0.0731230330531  0.00690289921339  0.769230769231
-0.0772397472408  -0.0464795214102  0.778846153846
-0.080526544999  -0.104463874828  0.682692307692
-0.0846350421967  -0.157846295452  0.692307692308
-0.0854649586262  -0.219512195123  0.495192307692
-0.0912004207135  -0.27105384262  0.552884615385
-0.0912004207135  -0.334560515418  0.326923076923
-0.0772397472408  -0.432121491033  -0.778846153846
-0.0813482444385  -0.487344684783  -0.793269230769
-0.0862866580658  -0.540727105363  -0.745192307692
-0.089573455824  -0.59779107224  -0.798076923077
-0.092843819583  -0.657616198784  -0.899038461538
-0.0994256320894  -0.706396686613  -0.759615384615
-0.102712429848  -0.76346065349  -0.822115384615
-0.107650843475  -0.815922687529  -0.769230769231
-0.112564606123  -0.870225494694  -0.759615384615
-0.11832471918  -0.920846755649  -0.692307692308
-0.122433216378  -0.975149562815  -0.668269230769
-0.101069030968  -0.967786470309  -0.706730769231
-0.0944872184621  -0.920846755649  -0.855769230769
-0.0912004207135  -0.866543948441  -0.798076923077
-0.0862866580658  -0.815002300944  -0.817307692308
-0.0821699438781  -0.762540266905  -0.807692307692
-0.0788831461199  -0.70823745974  -0.778846153846
-0.0772397472408  -0.649332719737  -0.610576923077
-0.0714796341835  -0.601472618493  -0.716346153846
-0.0649224726567  -0.553612517248  -0.841346153846
-0.0599840590295  -0.501150483209  -0.846153846154
-0.0550456454022  -0.450529222254  -0.899038461538
-0.0723013336135  -0.347445927303  0.379807692308
-0.0690309698545  -0.294063506679  0.413461538462
-0.0673875709754  -0.236079153261  0.557692307692
-0.0640925562272  -0.180855959511  0.629807692308
-0.0624491573481  -0.121951219508  0.783653846154
-0.0583406601504  -0.0704095720109  0.774038461538
-0.0542239459626  -0.017947537972  0.788461538462
-0.0493101833245  0.0326737229834  0.740384615385
-0.0452016861268  0.0869765301487  0.783653846154
-0.0394415730599  0.136677404519  0.697115384615
-0.0336814599931  0.187298665432  0.629807692308
-0.0303946622445  0.240681086055  0.649038461538
-0.0230075842882  0.286700414173  0.495192307692
-0.0180773876509  0.337321675086  0.427884615385
-0.0123172745841  0.387022549457  0.360576923077
0.0139606734632  0.392544868836  -0.899038461538
0.0180773876509  0.445927289459  -0.879807692308
0.0221858848486  0.498389323498  -0.894230769231
0.0271242984759  0.549930970995  -0.923076923077
0.0295893967945  0.606994937872  -0.822115384615
0.0345031594327  0.658536585369  -0.860576923077
0.0402632724995  0.709157846281  -0.908653846154
0.0451934691368  0.760699493779  -0.951923076923
0.0493101833245  0.814081914402  -0.9375
0.0542239459626  0.866543948441  -0.975961538462
0.0575107437208  0.922687528776  -0.903846153846
0.0599840590295  0.977910722526  -0.831730769231
0.129006811894  0.960423377803  -0.889423076923
0.123254915817  0.907961343764  -0.807692307692
0.119138201629  0.851817763473  -0.850961538462
0.115851403871  0.795674183181  -0.908653846154
0.112581040112  0.738610216304  -0.966346153846
0.107642626485  0.686148182223  -0.908653846154
0.101890730408  0.633686148184  -0.836538461538
0.0961306173412  0.58030372756  -0.798076923077
0.0920385541426  0.52508053381  -0.802884615385
0.0887517563844  0.468936953518  -0.855769230769
0.0846350421967  0.414634146353  -0.860576923077
0.0780532296903  0.364012885398  -0.75
0.0517752816336  0.357570179477  0.528846153846
0.0484884838849  0.301426599185  0.490384615385
0.0435500702577  0.247123791977  0.485576923077
0.0386198736204  0.194661757938  0.552884615385
0.0328597605536  0.143120110441  0.615384615385
0.0262943820463  0.0943396226544  0.769230769231
0.0180773876509  0.0492406810784  0.966346153846
0.0156040723422  -0.0096640588816  0.884615384615
0.0147823729027  -0.073170731722  0.668269230769
0.00822521138545  -0.123791992634  0.774038461538
0.00328679775818  -0.1780947998  0.793269230769
0.00164339887909  -0.237919926387  0.644230769231
-0.00164339887909  -0.294063506679  0.591346153846
-0.00164339887909  -0.358490566018  0.350961538462
0.0123172745841  -0.456971928218  -0.730769230769
0.00822521138545  -0.51311550851  -0.774038461538
0.00410849719773  -0.569259088802  -0.788461538462
-0.000821699439546  -0.622641509425  -0.764423076923
-0.00411671418773  -0.680625862843  -0.826923076923
-0.00740351194591  -0.736769443178  -0.855769230769
-0.0123172745841  -0.790151863801  -0.836538461538
-0.0180773876509  -0.841693511256  -0.745192307692
-0.0213641854091  -0.898757478132  -0.817307692308
-0.0254808995968  -0.952139898756  -0.817307692308
-0.0328597605536  -1  -0.644230769231
-0.0131389740236  -0.991716520953  -0.538461538462
-0.00822521138545  -0.941095259997  -0.591346153846
-0.00329501474818  -0.890473999085  -0.629807692308
0.00246509831864  -0.841693511256  -0.701923076923
0.00822521138545  -0.79291302347  -0.807692307692
0.0131389740236  -0.741371375973  -0.846153846154
0.0164257717818  -0.686148182223  -0.774038461538
0.0205424859695  -0.631845375057  -0.764423076923
0.0254726826068  -0.58030372756  -0.778846153846
0.0295893967945  -0.528762080063  -0.798076923077
0.0336814599931  -0.476300046024  -0.788461538462
0.0156040723422  -0.372296364488  0.538461538462
0.0205424859695  -0.319834330406  0.519230769231
0.0238292837277  -0.265531523241  0.572115384615
0.0295893967945  -0.214910262328  0.495192307692
0.031232795664  -0.156925908867  0.649038461538
0.031232795664  -0.0961803957809  0.875
0.0369682577513  -0.047399907952  0.778846153846
0.0419066713786  0.00506212608696  0.769230769231
0.0419066713786  0.066728025758  1
0.0484884838849  0.114588127002  0.870192307692
0.0550456454022  0.163368614831  0.764423076923
0.0616274579086  0.211228716075  0.634615384615
0.0665576545458  0.261849976988  0.581730769231
0.0739447324926  0.307869305106  0.394230769231
0.0797048455594  0.356649792935  0.302884615385
0.104355828727  0.364933271982  -0.870192307692
0.108464325924  0.418315692606  -0.865384615385
0.110937641233  0.475379659439  -0.774038461538
0.11749480275  0.523239760684  -0.899038461538
0.122433216378  0.575701794765  -0.932692307692
0.127363413015  0.627243442263  -0.956730769231
0.130658427763  0.683387022554  -0.875
0.134766924951  0.735849056593  -0.894230769231
0.13803728872  0.791072250343  -0.8125
0.144619101226  0.838011965046  -0.980769230769
0.147905898984  0.894155545338  -0.889423076923
0.152022613172  0.946617579376  -0.899038461538
0.15775807525  0.996318453747  -0.971153846154
0.223502247346  0.998159226874  -0.894230769231
0.219385533158  0.942015646582  -0.918269230769
0.21529346996  0.887712839416  -0.903846153846
0.209533356893  0.837091578461  -0.817307692308
0.207068258574  0.779107225043  -0.918269230769
0.199664746628  0.729406350672  -0.769230769231
0.19639438286  0.672342383796  -0.836538461538
0.190634269802  0.622641509425  -0.725961538462
0.184882373726  0.570179475386  -0.668269230769
0.183238974847  0.510354348842  -0.8125
0.179943960098  0.454210768507  -0.865384615385
0.17585189689  0.399907961342  -0.870192307692
0.170091783833  0.346525540718  -0.807692307692
0.143797401787  0.339162448212  0.447115384615
0.139680687599  0.285780027632  0.461538461538
0.133123526082  0.235158766676  0.5625
0.127363413015  0.183617119179  0.658653846154
0.121611516938  0.132075471682  0.725961538462
0.11831650219  0.0759318913902  0.6875
0.113402739542  0.0225494707666  0.711538461538
0.107642626485  -0.0299125632723  0.783653846154
0.106820927045  -0.0915784629434  0.600961538462
0.101890730408  -0.144960883567  0.615384615385
0.0969523167808  -0.197422917606  0.653846153846
0.0961306173412  -0.260009203862  0.466346153846
0.0920385541426  -0.314312011027  0.456730769231
0.0871001405153  -0.368614818235  0.471153846154
0.104355828727  -0.474459272898  -0.807692307692
0.101069030968  -0.530602853189  -0.860576923077
0.0944872184621  -0.581224114145  -0.75
0.0903951552635  -0.636447307852  -0.759615384615
0.0854567416363  -0.69075011506  -0.735576923077
0.0829916433176  -0.74965485502  -0.836538461538
0.0788749291299  -0.80487804877  -0.855769230769
0.0739447324926  -0.857340082852  -0.807692307692
0.0682092704149  -0.909802116891  -0.730769230769
0.0640925562272  -0.965025310641  -0.75
0.0821699438781  -0.953980671882  -0.519230769231
0.0879218399549  -0.905200184096  -0.610576923077
0.0961306173412  -0.861021629062  -0.822115384615
0.0994174150994  -0.806718821896  -0.778846153846
0.104355828727  -0.756097560984  -0.817307692308
0.109294242354  -0.704555913487  -0.846153846154
0.111759340673  -0.64749194661  -0.725961538462
0.116673103311  -0.596870685698  -0.774038461538
0.123254915817  -0.549010584454  -0.899038461538
0.127363413015  -0.494707777245  -0.884615384615
0.127363413015  -0.433041877574  -0.649038461538
0.115029704432  -0.341003221339  0.326923076923
0.116673103311  -0.282098481379  0.490384615385
0.119959901069  -0.225954901044  0.567307692308
0.124076615257  -0.173492867005  0.548076923077
0.127363413015  -0.118269673255  0.629807692308
0.131480127203  -0.0658076392162  0.615384615385
0.135572190401  -0.011504832008  0.649038461538
0.139680687599  0.0409572020309  0.644230769231
0.142154002908  0.0971007823227  0.735576923077
0.149549297863  0.143120110441  0.581730769231
0.154487711481  0.193741371396  0.538461538462
0.160223173568  0.243442245767  0.461538461538
0.166804986075  0.291302346968  0.341346153846
0.170921700263  0.34376438105  0.336538461538
0.19557268342  0.352047860097  -0.860576923077
0.198843047189  0.407271053847  -0.798076923077
0.204603160256  0.45789231476  -0.870192307692
0.208711657453  0.511274735383  -0.865384615385
0.212828371641  0.565577542592  -0.841346153846
0.217742134279  0.616198803504  -0.894230769231
0.222672330917  0.669581224128  -0.918269230769
0.225145646225  0.726645191004  -0.817307692308
0.230075842862  0.779107225043  -0.860576923077
0.23501425649  0.83064887254  -0.899038461538
0.240749718567  0.882190520037  -0.951923076923
0.244866432755  0.937413713744  -0.9375
0.247331531074  0.993557294079  -0.817307692308
0.314719102049  0.992636907494  -0.831730769231
0.31224578674  0.935572940618  -0.899038461538
0.308137289543  0.879429360326  -0.923076923077
0.302377176476  0.826967326287  -0.846153846154
0.299106812707  0.770823745995  -0.899038461538
0.294998315519  0.715600552245  -0.9375
0.289238202452  0.663138518164  -0.870192307692
0.285129705255  0.608835710998  -0.850961538462
0.279369592188  0.556373676959  -0.798076923077
0.27445582955  0.502991256336  -0.759615384615
0.271982514241  0.445927289459  -0.860576923077
0.267874017043  0.389783709168  -0.894230769231
0.263757302856  0.335480902002  -0.870192307692
0.259648805658  0.280257708252  -0.884615384615
0.233370857611  0.271974229162  0.375
0.228432443983  0.217671421997  0.384615384615
0.221850631477  0.169811320752  0.543269230769
0.218563833719  0.112747353876  0.466346153846
0.212006672202  0.0639668660898  0.596153846154
0.207068258574  0.0115048320509  0.629807692308
0.203781460816  -0.0464795214102  0.557692307692
0.199664746628  -0.100782328576  0.552884615385
0.19557268342  -0.155085135741  0.552884615385
0.193929284551  -0.21583064887  0.403846153846
0.189812570363  -0.270133456035  0.403846153846
0.186525772605  -0.328117809497  0.341346153846
0.202129844947  -0.42843994478  -0.836538461538
0.19639438286  -0.480901978819  -0.764423076923
0.192285885672  -0.536125172569  -0.774038461538
0.188990870923  -0.594109525987  -0.846153846154
0.184882373726  -0.649332719737  -0.870192307692
0.180765659538  -0.704555913487  -0.870192307692
0.174208498021  -0.754256787858  -0.764423076923
0.170921700263  -0.809479981608  -0.788461538462
0.164339887756  -0.86010124252  -0.677884615385
0.161044873008  -0.918085595938  -0.75
0.156114676371  -0.97054763002  -0.697115384615
0.17585189689  -0.996318453747  -0.774038461538
0.179122260659  -0.941095259997  -0.721153846154
0.184882373726  -0.890473999085  -0.778846153846
0.188169171484  -0.838011965003  -0.754807692308
0.191464186232  -0.782788771296  -0.706730769231
0.198021347749  -0.734008283467  -0.807692307692
0.202959761377  -0.684307409096  -0.875
0.203781460816  -0.622641509425  -0.653846153846
0.208711657453  -0.572020248513  -0.697115384615
0.213650071081  -0.521398987557  -0.745192307692
0.217742134279  -0.467096180392  -0.706730769231
0.224323946786  -0.420156465732  -0.841346153846
0.223502247346  -0.35572940635  -0.567307692308
0.211176755772  -0.264611136656  0.418269230769
0.213650071081  -0.209387942949  0.495192307692
0.216936868829  -0.154164749199  0.5625
0.221028932037  -0.0998619420337  0.610576923077
0.225145646225  -0.0483202945366  0.591346153846
0.229254143423  0.00506212608696  0.600961538462
0.232549158171  0.0612057063787  0.682692307692
0.238284620249  0.108145421081  0.567307692308
0.244866432755  0.156005522326  0.427884615385
0.249796629392  0.207547169823  0.399038461538
0.256378441899  0.255407271067  0.278846153846
0.280191291627  0.264611136699  -0.860576923077
0.282656389946  0.321675103533  -0.774038461538
0.289238202452  0.369535204777  -0.908653846154
0.292525000211  0.425678785112  -0.836538461538
0.297463413838  0.477220432566  -0.870192307692
0.302377176476  0.527841693521  -0.927884615385
0.307315590103  0.58030372756  -0.947115384615
0.310602387861  0.63552692131  -0.889423076923
0.314719102049  0.688909341934  -0.884615384615
0.316362500928  0.746893695352  -0.745192307692
0.322919662445  0.795674183181  -0.846153846154
0.328679775512  0.846295444093  -0.918269230769
0.331144873831  0.901518637843  -0.841346153846
0.335261588019  0.954901058467  -0.841346153846
0.406733005203  0.994477680621  -0.836538461538
0.401819242555  0.943856419708  -0.759615384615
0.396889045927  0.8895536125  -0.759615384615
0.393594031179  0.833410032208  -0.817307692308
0.390307233421  0.777266451916  -0.870192307692
0.385368819794  0.723884031293  -0.826923076923
0.381276756585  0.669581224128  -0.831730769231
0.377989958837  0.613437643793  -0.879807692308
0.370586446891  0.564657156007  -0.721153846154
0.368943048012  0.503911642878  -0.865384615385
0.364004634385  0.44868844917  -0.870192307692
0.359912571176  0.392544868836  -0.884615384615
0.355804073988  0.33824206167  -0.879807692308
0.350865660361  0.284859641047  -0.831730769231
0.345105547294  0.232397607008  -0.759615384615
0.340997050096  0.1780947998  -0.778846153846
0.336904986898  0.123791992634  -0.778846153846
0.31306748618  0.111826967334  0.365384615385
0.307315590103  0.0621260929634  0.442307692308
0.304020575355  0.00598251267161  0.403846153846
0.299106812707  -0.047399907952  0.427884615385
0.296641714398  -0.10538426137  0.331730769231
0.291703300771  -0.158766681994  0.331730769231
0.306493890664  -0.256327657609  -0.754807692308
0.301555477036  -0.311550851359  -0.730769230769
0.296641714398  -0.365853658524  -0.721153846154
0.292525000211  -0.4229176254  -0.75
0.288416503013  -0.47814081915  -0.754807692308
0.284299788825  -0.5333640129  -0.769230769231
0.280191291627  -0.589507593192  -0.778846153846
0.275277528989  -0.641969627231  -0.735576923077
0.271160814801  -0.696272434439  -0.745192307692
0.267052317604  -0.752416014731  -0.764423076923
0.263757302856  -0.809479981608  -0.8125
0.260470505097  -0.867464335026  -0.889423076923
0.255556742459  -0.921767142191  -0.884615384615
0.249796629392  -0.969627243435  -0.754807692308
0.27363413011  -0.958582604677  -0.817307692308
0.277742627298  -0.907961343764  -0.846153846154
0.281834690506  -0.854578923141  -0.826923076923
0.286773104134  -0.803037275644  -0.841346153846
0.288416503013  -0.745973308767  -0.706730769231
0.292525000211  -0.693511274728  -0.706730769231
0.297463413838  -0.642890013816  -0.75
0.303198875915  -0.59226875286  -0.8125
0.305672191224  -0.536125172569  -0.721153846154
0.31224578674  -0.488265071324  -0.850961538462
0.315540801489  -0.432121491033  -0.802884615385
0.320454564127  -0.382420616662  -0.846153846154
0.324563061325  -0.328117809497  -0.817307692308
0.328679775512  -0.276576161999  -0.836538461538
0.33196657327  -0.223193741376  -0.798076923077
0.315540801489  -0.122871606093  0.432692307692
0.321276263566  -0.073170731722  0.370192307692
0.324563061325  -0.0197883110984  0.413461538462
0.328679775512  0.0345144961098  0.432692307692
0.337726686337  0.0750115048484  0.115384615385
0.358269172307  0.092498849528  -0.807692307692
0.362361235505  0.145881270152  -0.807692307692
0.365648033264  0.200184077317  -0.754807692308
0.370586446891  0.252646111356  -0.778846153846
0.373873244649  0.307869305106  -0.725961538462
0.378811658276  0.359410952603  -0.75
0.385368819794  0.406350667263  -0.903846153846
0.388663834542  0.462494247597  -0.846153846154
0.39112893286  0.518637827889  -0.745192307692
0.393594031179  0.575701794765  -0.644230769231
0.401819242555  0.619880349757  -0.870192307692
0.405089606324  0.675103543507  -0.817307692308
0.409206320511  0.729406350672  -0.802884615385
0.414958216588  0.780027611585  -0.850961538462
0.419896630215  0.832489645666  -0.884615384615
0.423988693414  0.884031293164  -0.918269230769
0.427275491172  0.942015646582  -0.8125
0.432213904799  0.993557294079  -0.855769230769
0.497949859906  0.993557294079  -0.817307692308
0.493841362708  0.940174873455  -0.807692307692
0.48972464852  0.883110906579  -0.836538461538
0.485616151323  0.827887712829  -0.850961538462
0.482345787563  0.770823745995  -0.899038461538
0.475763975057  0.719282098498  -0.807692307692
0.471655477859  0.66497929129  -0.807692307692
0.468360463111  0.608835710998  -0.870192307692
0.464251965913  0.553612517248  -0.875
0.459338203275  0.501150483209  -0.817307692308
0.456864887967  0.444086516333  -0.918269230769
0.45111299189  0.391624482294  -0.850961538462
0.446174578263  0.337321675086  -0.826923076923
0.442082515054  0.281178094794  -0.855769230769
0.437144101437  0.230556833882  -0.778846153846
0.433035604239  0.176254026673  -0.788461538462
0.428097190612  0.121030832966  -0.764423076923
0.424810392854  0.0630464795052  -0.841346153846
0.419074930776  0.0115048320509  -0.778846153846
0.416601615467  -0.047399907952  -0.860576923077
0.41084971939  -0.100782328576  -0.817307692308
0.405089606324  -0.151403589488  -0.716346153846
0.400175843685  -0.204786010112  -0.673076923077
0.396059129498  -0.25908881732  -0.668269230769
0.396059129498  -0.324436263244  -0.951923076923
0.389485533981  -0.375057524156  -0.826923076923
0.385368819794  -0.429360331322  -0.826923076923
0.378811658276  -0.479061205692  -0.706730769231
0.373873244649  -0.5333640129  -0.668269230769
0.370586446891  -0.590427979734  -0.725961538462
0.368121348572  -0.650253106321  -0.855769230769
0.364004634385  -0.704555913487  -0.836538461538
0.358269172307  -0.757017947526  -0.783653846154
0.35333075868  -0.809479981608  -0.711538461538
0.350043960921  -0.866543948441  -0.798076923077
0.345927246734  -0.922687528776  -0.817307692308
0.340997050096  -0.976069949356  -0.769230769231
0.362361235505  -0.975149562815  -0.735576923077
0.366469732703  -0.922687528776  -0.725961538462
0.369764747451  -0.868384721568  -0.682692307692
0.374694944089  -0.817763460655  -0.725961538462
0.377989958837  -0.76346065349  -0.6875
0.382903721475  -0.710998619408  -0.682692307692
0.389485533981  -0.66497929129  -0.846153846154
0.394415730619  -0.614358030378  -0.879807692308
0.398532444806  -0.560055223212  -0.855769230769
0.400175843685  -0.502991256336  -0.740384615385
0.405089606324  -0.450529222254  -0.759615384615
0.410028019951  -0.399907961342  -0.807692307692
0.415779916028  -0.350207086971  -0.875
0.419074930776  -0.295904279805  -0.836538461538
0.423166993974  -0.242521859182  -0.802884615385
0.428097190612  -0.191900598269  -0.855769230769
0.43139220536  -0.138518177646  -0.822115384615
0.436322401997  -0.0860561435641  -0.850961538462
0.439617416745  -0.0299125632723  -0.774038461538
0.443709479944  0.0234698573512  -0.759615384615
0.448639676581  0.073170731722  -0.831730769231
0.452756390769  0.125632765761  -0.817307692308
0.456864887967  0.1780947998  -0.817307692308
0.460981602154  0.232397607008  -0.783653846154
0.465073665353  0.283939254505  -0.8125
0.47001207898  0.336401288544  -0.826923076923
0.475763975057  0.38518177633  -0.9375
0.478229073376  0.443166129791  -0.798076923077
0.482345787563  0.496548550415  -0.788461538462
0.487259550202  0.548090197869  -0.850961538462
0.493019663268  0.598711458824  -0.927884615385
0.497949859906  0.651173492863  -0.942307692308
0.499601475775  0.710078232866  -0.783653846154
0.504531672402  0.762540266905  -0.841346153846
0.50944543505  0.81316152786  -0.889423076923
0.514383848677  0.864703175358  -0.899038461538
0.519314045315  0.916244822812  -0.947115384615
0.521787360623  0.972388403146  -0.846153846154
0.585879916841  0.948458352503  -0.836538461538
0.580941503223  0.896916705006  -0.783653846154
0.578476404905  0.838932351588  -0.889423076923
0.572724508828  0.78739070409  -0.822115384615
0.566964395761  0.735849056593  -0.740384615385
0.564515731442  0.677864703175  -0.826923076923
0.559577317814  0.621721122883  -0.826923076923
0.556290520056  0.566497929133  -0.855769230769
0.550530406989  0.514956281636  -0.774038461538
0.546421909792  0.45789231476  -0.831730769231
0.539856531284  0.408191440389  -0.692307692308
0.537391432966  0.350207086971  -0.788461538462
0.534926334647  0.291302346968  -0.889423076923
0.528344522141  0.240681086055  -0.778846153846
0.524252458932  0.18637827889  -0.759615384615
0.519314045315  0.133916244808  -0.721153846154
0.514383848677  0.0786930511012  -0.721153846154
0.51026713449  0.024390243893  -0.701923076923
0.506980336732  -0.0335941095252  -0.778846153846
0.502888273533  -0.0878969166905  -0.798076923077
0.498771559345  -0.143120110441  -0.807692307692
0.494663062148  -0.198343304191  -0.831730769231
0.49055456495  -0.25356649794  -0.831730769231
0.485616151323  -0.306948918564  -0.783653846154
0.479880689245  -0.359410952603  -0.721153846154
0.475763975057  -0.414634146353  -0.735576923077
0.471655477859  -0.470777726645  -0.745192307692
0.469182162551  -0.529682466648  -0.860576923077
0.465073665353  -0.583985273813  -0.865384615385
0.460981602154  -0.639208467563  -0.865384615385
0.455221489088  -0.69075011506  -0.798076923077
0.45029129245  -0.743212149099  -0.735576923077
0.446174578263  -0.799355729391  -0.759615384615
0.441260815624  -0.852738150014  -0.721153846154
0.437144101437  -0.907961343764  -0.730769230769
0.433035604239  -0.964104924056  -0.783653846154
0.452756390769  -0.986194201573  -0.831730769231
0.456864887967  -0.933732167491  -0.846153846154
0.460159902715  -0.878508973784  -0.778846153846
0.465895364793  -0.827887712829  -0.846153846154
0.469182162551  -0.773584905664  -0.788461538462
0.472477177299  -0.72020248504  -0.759615384615
0.476585674497  -0.666820064416  -0.754807692308
0.483167486993  -0.619880349757  -0.875
0.485616151323  -0.563736769422  -0.783653846154
0.491376264389  -0.514956281636  -0.870192307692
0.495484761587  -0.462494247597  -0.865384615385
0.497949859906  -0.405430280721  -0.745192307692
0.502066574093  -0.353888633224  -0.769230769231
0.506158637292  -0.299585826058  -0.735576923077
0.50944543505  -0.24528301885  -0.6875
0.515205548117  -0.195582144479  -0.774038461538
0.519314045315  -0.142199723899  -0.75
0.524252458932  -0.0915784629434  -0.8125
0.527522822701  -0.0363552691934  -0.759615384615
0.534104635207  0.0115048320509  -0.899038461538
0.538213132405  0.066728025758  -0.846153846154
0.540686447714  0.121030832966  -0.783653846154
0.546421909792  0.171652093879  -0.841346153846
0.551352106429  0.223193741376  -0.875
0.554647121177  0.277496548541  -0.841346153846
0.557112219496  0.334560515418  -0.721153846154
0.562872332562  0.383341003204  -0.836538461538
0.566159130311  0.439484583538  -0.759615384615
0.572724508828  0.487344684783  -0.899038461538
0.576011306586  0.543488265074  -0.817307692308
0.580119803784  0.595950299113  -0.822115384615
0.585879916841  0.645651173484  -0.908653846154
0.58832858117  0.70271514036  -0.798076923077
0.593266994797  0.753336401273  -0.850961538462
0.597375491995  0.807639208481  -0.831730769231
0.602313905622  0.86010124252  -0.860576923077
0.605600703381  0.914404049685  -0.826923076923
0.60887106714  0.969627243435  -0.783653846154
0.675436938675  0.95306028534  -0.836538461538
0.670498525048  0.901518637843  -0.759615384615
0.66640646185  0.846295444093  -0.788461538462
0.663111447101  0.789231477217  -0.831730769231
0.658181250464  0.736769443178  -0.807692307692
0.651599437958  0.686148182223  -0.701923076923
0.649956039079  0.624482282551  -0.841346153846
0.642568961132  0.577542567892  -0.653846153846
0.640925562253  0.516797054763  -0.836538461538
0.637638764495  0.460653474471  -0.855769230769
0.631878651428  0.408191440389  -0.802884615385
0.624499790471  0.360331339145  -0.610576923077
0.619561376844  0.305108145438  -0.600961538462
0.617096278525  0.248964565103  -0.682692307692
0.615452879646  0.189139438558  -0.8125
0.611336165458  0.133916244808  -0.831730769231
0.60724410225  0.0777726645166  -0.841346153846
0.603135605062  0.0216290842248  -0.894230769231
0.596553792556  -0.0262310170195  -0.740384615385
0.592437078368  -0.0832949838959  -0.774038461538
0.587506881731  -0.136677404519  -0.721153846154
0.585058217411  -0.194661757938  -0.822115384615
0.579298104344  -0.24528301885  -0.725961538462
0.575189607146  -0.302346985727  -0.769230769231
0.571072892959  -0.357570179477  -0.788461538462
0.56860779464  -0.415554532895  -0.870192307692
0.563694032002  -0.468936953518  -0.831730769231
0.559577317814  -0.523239760684  -0.855769230769
0.552182022858  -0.571099861928  -0.673076923077
0.54970870755  -0.630924988473  -0.788461538462
0.544794944902  -0.683387022554  -0.75
0.539034831845  -0.735849056593  -0.682692307692
0.535748034087  -0.793833410011  -0.716346153846
0.531639536889  -0.849976990346  -0.754807692308
0.52916622158  -0.908881730306  -0.850961538462
0.524252458932  -0.963184537514  -0.822115384615
0.539856531284  -0.993557294079  -0.754807692308
0.543973245472  -0.942015646582  -0.778846153846
0.54970870755  -0.893235158753  -0.860576923077
0.553003722298  -0.838932351588  -0.807692307692
0.556290520056  -0.782788771296  -0.721153846154
0.562872332562  -0.735849056593  -0.860576923077
0.566159130311  -0.680625862843  -0.822115384615
0.56942949408  -0.625402669136  -0.745192307692
0.571894592398  -0.570179475386  -0.653846153846
0.577654705465  -0.521398987557  -0.754807692308
0.582593119092  -0.470777726645  -0.802884615385
0.58832858117  -0.420156465732  -0.870192307692
0.58832858117  -0.358490566018  -0.629807692308
0.595732093116  -0.3124712379  -0.817307692308
0.599018890874  -0.258168430735  -0.778846153846
0.603957304501  -0.206626783238  -0.798076923077
0.604779003941  -0.146801656693  -0.610576923077
0.609692766579  -0.0934192360698  -0.620192307692
0.613809480767  -0.0427979751573  -0.658653846154
0.622026475162  0.00230096641875  -0.860576923077
0.624499790471  0.0593649332952  -0.754807692308
