# .PCD v.7 - Point Cloud Data file format
VERSION .7
FIELDS x y z
SIZE 4 4 4
TYPE F F F
COUNT 1 1 1
WIDTH 1216
HEIGHT 1
VIEWPOINT 0 0 0 1 0 0 0
POINTS 1216
DATA ascii
-0.694838 1 -0.9994379
-0.7087932 0.9892775 -0.9792018
-0.6827341 0.9871417 -0.970208
-0.7033108 0.9971047 -0.9718943
-0.694126 0.9975796 -0.9780776
-0.647775 0.9491892 -0.9600899
-0.6914917 0.9838683 -0.9690837
-0.6786757 0.9805005 -0.9626194
-0.6810253 0.9791242 -0.9539067
-0.6782485 0.9716299 -0.950534
-0.6879317 0.9805954 -0.955593
-0.7115344 0.9914132 -0.9544688
-0.6582414 0.9574913 -0.940416
-0.6788893 0.9682371 -0.9446318
-0.6751157 0.9737551 -0.946262
-0.6814525 0.9819711 -0.9432265
-0.6415806 0.9313042 -0.9376054
-0.6642933 0.9549314 -0.9347948
-0.6549662 0.9541949 -0.9342327
-0.6772873 0.967715 -0.9336706
-0.6689925 0.9656753 -0.9345138
-0.7089356 0.9926223 -0.9390107
-0.6437878 0.9304976 -0.9229904
-0.6534948 0.9425324 -0.9214915
-0.6557494 0.9518229 -0.9269252
-0.6847988 0.965747 -0.9232715
-0.6762834 0.9644281 -0.9217538
-0.6672481 0.9647509 -0.920742
-0.7140263 0.9881864 -0.9297358
-0.7176932 0.9902502 -0.9238336
-0.6127447 0.9108592 -0.9196178
-0.6334639 0.9255638 -0.9145588
-0.6631541 0.9496176 -0.9184935
-0.6521894 0.9404146 -0.9196178
-0.6575294 0.9551193 -0.9139966
-0.6844785 0.9644431 -0.9165261
-0.6751869 0.964466 -0.9190556
-0.6682805 0.9631851 -0.9184935
-0.707031 0.9736223 -0.9128724
-0.6981132 0.9731942 -0.9117482
-0.6153791 0.9085101 -0.9066892
-0.6500534 0.9295968 -0.9044407
-0.6424528 0.9245452 -0.9041596
-0.6361517 0.9224933 -0.9033165
-0.6516198 0.937804 -0.9080944
-0.6440727 0.9335348 -0.9005059
-0.6841581 0.9490944 -0.9016301
-0.6749021 0.9496176 -0.9033165
-0.6548238 0.9415058 -0.906127
-0.6467782 0.9471507 -0.9089376
-0.6927021 0.959342 -0.9016301
-0.6635101 0.9525594 -0.9066892
-0.6867213 0.9628052 -0.9033165
-0.7174084 0.9750937 -0.9016301
-0.7045212 0.9709175 -0.9005059
-0.6854396 0.970065 -0.9094997
-0.6404414 0.9145121 -0.8915121
-0.6364068 0.9223864 -0.899569
-0.644571 0.9362868 -0.8971332
-0.6911356 0.9511348 -0.896009
-0.6845853 0.9519897 -0.8926363
-0.7143111 0.9662695 -0.8937606
-0.6936276 0.9650823 -0.8903878
-0.6654325 0.9639447 -0.89095
-0.70445 0.9709175 -0.8993817
-0.7199715 0.9888975 -0.8948848
-0.6408687 0.9174055 -0.8825183
-0.6388751 0.9135393 -0.8847667
-0.6210751 0.9101945 -0.8842046
-0.6510502 0.9226244 -0.8836425
-0.6405838 0.9292656 -0.8875773
-0.6904948 0.9485265 -0.8847667
-0.6742613 0.9470558 -0.8892636
-0.6914917 0.9540771 -0.8819562
-0.7117124 0.9602433 -0.8830804
-0.6654325 0.9639912 -0.8898258
-0.7239587 0.9744291 -0.8853288
-0.5567818 0.8491375 -0.8724002
-0.6142399 0.8867589 -0.8768972
-0.6347455 0.8987139 -0.8735244
-0.6189391 0.8993301 -0.8757729
-0.6368815 0.9097913 -0.8788645
-0.657031 0.9196337 -0.8718381
-0.6519758 0.9283401 -0.8707139
-0.6412959 0.9202524 -0.8735244
-0.6900676 0.9325851 -0.8724002
-0.6524742 0.9310214 -0.8740866
-0.6915628 0.9407923 -0.8718381
-0.6899253 0.945821 -0.8785835
-0.7109529 0.9566225 -0.8759603
-0.7156283 0.9672181 -0.876335
-0.7136347 0.9715356 -0.8701518
-0.5438234 0.835144 -0.8634064
-0.5852379 0.8665642 -0.863219
-0.5880384 0.8771759 -0.8650928
-0.6146671 0.889842 -0.8634064
-0.5864009 0.8808753 -0.8673412
-0.6336775 0.8932587 -0.8656549
-0.6178355 0.8940175 -0.8648117
-0.6391599 0.9093396 -0.8695897
-0.6563902 0.9169306 -0.8634064
-0.6882877 0.9375677 -0.8684654
-0.7126617 0.9568125 -0.8658422
-0.7006052 0.9517511 -0.8695897
-0.7147384 0.9632801 -0.8605958
-0.7433251 0.9744291 -0.8650928
-0.737273 0.9795531 -0.8650928
-0.7143824 0.9757332 -0.8679034
-0.7443218 0.980074 -0.8650928
-0.5444642 0.8338621 -0.8541316
-0.5548238 0.8456039 -0.851321
-0.5868993 0.8719105 -0.8510399
-0.6161624 0.8859528 -0.8521641
-0.6242791 0.8930689 -0.8504778
-0.6153792 0.8941356 -0.8566611
-0.6454254 0.9081536 -0.851602
-0.635766 0.905513 -0.853101
-0.6293343 0.9073476 -0.8538505
-0.6464934 0.9136088 -0.8549747
-0.709434 0.9494739 -0.8589095
-0.6924172 0.9465809 -0.8504778
-0.7206479 0.9580855 -0.8583474
-0.713172 0.9550486 -0.8583474
-0.7129939 0.9689739 -0.8549747
-0.746885 0.9786983 -0.8555368
-0.545105 0.8327236 -0.8431703
-0.5555001 0.8442037 -0.8437324
-0.6129584 0.8698211 -0.8403597
-0.602848 0.8673557 -0.8418587
-0.6043432 0.871056 -0.8442945
-0.5954432 0.871102 -0.8426082
-0.6220719 0.8817301 -0.8471051
-0.6759226 0.9227347 -0.8450441
-0.6991812 0.9325851 -0.8431703
-0.7210395 0.9610736 -0.8476672
-0.7449626 0.9767534 -0.8471051
-0.5332147 0.8172335 -0.8353007
-0.5523674 0.827933 -0.8395166
-0.5498042 0.8250377 -0.8336144
-0.5527946 0.8307775 -0.8302417
-0.6008544 0.8653157 -0.8364249
-0.6107512 0.8705347 -0.8381113
-0.6019224 0.8709123 -0.8358628
-0.5929512 0.870296 -0.8392355
-0.6175151 0.8944912 -0.8330523
-0.6783553 0.9227414 -0.8333334
-0.7266948 0.9558113 -0.8358629
-0.7194019 0.9528911 -0.8330523
-0.7214667 0.96404 -0.8324901
-0.5418298 0.8167356 -0.8234963
-0.5356829 0.8158035 -0.82181
-0.5514774 0.8241134 -0.8234963
-0.5492346 0.8223341 -0.8285553
-0.5592738 0.8314911 -0.8206858
-0.5424706 0.8301613 -0.8263069
-0.5527946 0.8421652 -0.8206858
-0.6211997 0.8661926 -0.8225127
-0.6132609 0.8663234 -0.8234963
-0.6090423 0.8623739 -0.8206858
-0.6629406 0.9044054 -0.8223721
-0.6479174 0.909768 -0.8263069
-0.6840513 0.9172629 -0.8234963
-0.6766821 0.9146999 -0.8201237
-0.6570666 0.9163609 -0.8232153
-0.6462442 0.9141082 -0.8257448
-0.6966002 0.9232637 -0.8250422
-0.6769669 0.9294554 -0.8291175
-0.7060876 0.9332036 -0.8285553
-0.6525454 0.9345794 -0.821529
-0.7198291 0.9557379 -0.8277122
-0.491634 0.7665914 -0.8100056
-0.5371307 0.8022183 -0.8133783
-0.5651833 0.8174003 -0.8122541
-0.5592026 0.8199137 -0.8184373
-0.5444286 0.8194168 -0.8142215
-0.5316483 0.8153605 -0.8125352
-0.5541474 0.8271246 -0.811692
-0.5614098 0.8321778 -0.8133783
-0.6247063 0.8608721 -0.8111299
-0.6182271 0.8629437 -0.811692
-0.6095408 0.8652669 -0.8184373
-0.6440014 0.9031733 -0.8111299
-0.6769313 0.9161243 -0.8192805
-0.6639373 0.9100507 -0.8189994
-0.6489142 0.9153646 -0.8173131
-0.6792453 0.9284108 -0.8195615
-0.7373443 0.9830163 -0.8178752
-0.4830545 0.7560598 -0.8012928
-0.5000356 0.7631747 -0.8015739
-0.4961196 0.7665672 -0.8052276
-0.5102171 0.7760311 -0.802136
-0.5097188 0.7732815 -0.8038224
-0.4951228 0.7768395 -0.8060708
-0.5197579 0.7848081 -0.8055087
-0.5401922 0.8089084 -0.8071951
-0.5532573 0.8176839 -0.8052276
-0.5492346 0.8136764 -0.8026981
-0.5505162 0.8203886 -0.8032603
-0.5426843 0.8225703 -0.8015739
-0.5505874 0.8311343 -0.8049466
-0.6288714 0.8585796 -0.8052276
-0.6079032 0.8569648 -0.8088814
-0.6347455 0.8658053 -0.8034477
-0.6263795 0.863821 -0.8063519
-0.6181797 0.8631491 -0.8062582
-0.6721253 0.9048342 -0.8015739
-0.6658598 0.9072523 -0.8088814
-0.6553578 0.9084152 -0.8035413
-0.6830901 0.9134209 -0.8032603
-0.6741901 0.9158859 -0.8066329
-0.6667854 0.9128028 -0.8004497
-0.6555595 0.9115069 -0.805134
-0.6664293 0.9241881 -0.8086003
-0.6393023 0.9276764 -0.8052276
-0.4493414 0.7281641 -0.7925801
-0.457209 0.7348294 -0.795297
-0.4823781 0.7487063 -0.7931422
-0.4591314 0.7407123 -0.7982012
-0.4815237 0.7529294 -0.7903317
-0.5010324 0.7686788 -0.7948285
-0.4919663 0.7667338 -0.7927675
-0.4842293 0.7670179 -0.7942665
-0.5091491 0.7707196 -0.7959528
-0.545817 0.8060383 -0.7942665
-0.5669633 0.8165942 -0.7903317
-0.5474724 0.8125733 -0.7942665
-0.5771449 0.8239466 -0.7931422
-0.5581583 0.8232979 -0.795578
-0.6057672 0.8460544 -0.7959528
-0.6259025 0.8557321 -0.7970771
-0.6180491 0.8572037 -0.7934233
-0.6332147 0.8640348 -0.796796
-0.6287362 0.863313 -0.7989882
-0.6351014 0.9054505 -0.7987633
-0.6573158 0.9130414 -0.792018
-0.649199 0.9184012 -0.7953907
-0.4472766 0.7176337 -0.7841484
-0.4714489 0.7381271 -0.7841484
-0.4643408 0.7358656 -0.7830242
-0.4497686 0.731011 -0.7818999
-0.4895692 0.7571268 -0.7875211
-0.4739053 0.7508421 -0.7897695
-0.5075116 0.7629384 -0.7824621
-0.4956924 0.7655954 -0.7869589
-0.4849175 0.7655638 -0.7865843
-0.5259523 0.7771707 -0.7852726
-0.5006764 0.7735178 -0.7863969
-0.4978284 0.7716678 -0.7869591
-0.5290139 0.7933949 -0.7841484
-0.5473122 0.8045439 -0.7818999
-0.5639017 0.8121348 -0.7875211
-0.5584193 0.8176854 -0.7863969
-0.5478106 0.8174003 -0.7886453
-0.5846921 0.8291655 -0.7858347
-0.6246351 0.8497078 -0.786959
-0.6157115 0.8432872 -0.7835863
-0.6069064 0.8456464 -0.7874086
-0.5544322 0.8424014 -0.7847105
-0.6252047 0.8524593 -0.7897695
-0.6170167 0.8581508 -0.7886453
-0.6557494 0.9364047 -0.7827431
-0.6532218 0.9405327 -0.7855537
-0.4208615 0.6966165 -0.7706577
-0.4188323 0.6929164 -0.7731872
-0.4458526 0.7192922 -0.7762788
-0.4474368 0.7234439 -0.7729062
-0.4740714 0.734143 -0.7736556
-0.4637475 0.7331137 -0.7766535
-0.4564614 0.7365615 -0.7712198
-0.488786 0.7453385 -0.7734683
-0.4660021 0.7402628 -0.7712198
-0.4829477 0.7617989 -0.7712198
-0.5234603 0.7737075 -0.7757167
-0.507654 0.7736591 -0.772344
-0.5456746 0.7965733 -0.7751546
-0.5294411 0.7961469 -0.7785273
-0.5461018 0.8092395 -0.7706577
-0.5740477 0.8143401 -0.7734683
-0.5654919 0.8135256 -0.7768409
-0.5577786 0.815218 -0.772344
-0.5482378 0.8101893 -0.7700956
-0.5866144 0.828739 -0.7757167
-0.6061944 0.8418641 -0.7755293
-0.6175151 0.8535819 -0.7745924
-0.6087576 0.851936 -0.7700956
-0.6526166 0.9378989 -0.7790894
-0.6498398 0.9370463 -0.7729061
-0.6315058 0.9304394 -0.777122
-0.4017978 0.6749477 -0.7644744
-0.4192951 0.6889307 -0.7611017
-0.4256141 0.6963319 -0.7655987
-0.4196511 0.6943396 -0.7664418
-0.4526878 0.7168252 -0.762226
-0.4772873 0.7280232 -0.7611017
-0.4694197 0.7286854 -0.7616639
-0.4537558 0.7224726 -0.7650365
-0.448131 0.7233739 -0.7633502
-0.4772232 0.7342843 -0.7637998
-0.4699893 0.7313426 -0.7695335
-0.4578142 0.7359913 -0.7644744
-0.5202563 0.7570084 -0.7650365
-0.4972588 0.7593804 -0.7667229
-0.5156996 0.7752251 -0.7689713
-0.5651833 0.8088619 -0.7650365
-0.5541118 0.8016981 -0.7661608
-0.5471461 0.8080704 -0.7691587
-0.5738341 0.8137003 -0.767004
-0.6023496 0.8296864 -0.7678471
-0.6060045 0.8376104 -0.7639124
-0.615486 0.8465051 -0.7655424
-0.6555358 0.9052118 -0.7650365
-0.6838732 0.95659 -0.7633502
-0.3551442 0.621233 -0.7521079
-0.4348285 0.6970513 -0.755949
-0.4272411 0.6952028 -0.7559303
-0.4464934 0.7043015 -0.7521079
-0.4526166 0.7169932 -0.7549185
-0.4384478 0.7121761 -0.7577291
-0.4710573 0.7296352 -0.7532322
-0.4682805 0.7231354 -0.7532322
-0.4472766 0.7281641 -0.7599775
-0.4789605 0.7334295 -0.7532322
-0.4890708 0.7484217 -0.7521079
-0.4796725 0.7450534 -0.7577291
-0.4825205 0.7520281 -0.7582912
-0.5315771 0.7667328 -0.7543564
-0.5130652 0.7613264 -0.7582912
-0.5498754 0.7848081 -0.7554806
-0.5625489 0.795626 -0.7504216
-0.5535778 0.7939651 -0.7594154
-0.5450338 0.7941548 -0.7599775
-0.5807761 0.809976 -0.7551996
-0.5719473 0.809786 -0.7566048
-0.5646138 0.8063461 -0.7543564
-0.5548831 0.8046699 -0.7554806
-0.5823424 0.8184449 -0.7521079
-0.6636525 0.9630903 -0.7568859
-0.361125 0.619667 -0.7492974
-0.3537202 0.617972 -0.7415683
-0.3538626 0.6227525 -0.7408656
-0.3915984 0.6638114 -0.7414278
-0.4151655 0.6749371 -0.7478921
-0.4036431 0.6723591 -0.7455499
-0.4173015 0.6862275 -0.7492974
-0.4353863 0.696663 -0.7453626
-0.4572446 0.703068 -0.7408656
-0.453649 0.7151424 -0.7456436
-0.4687789 0.7260771 -0.7481731
-0.4786045 0.7395982 -0.7498595
-0.4873621 0.7479951 -0.7453626
-0.5295123 0.7562973 -0.7436762
-0.5310075 0.7643147 -0.7403035
-0.5218227 0.7624173 -0.7405846
-0.5503738 0.7780255 -0.7431141
-0.5414026 0.7755098 -0.7487352
-0.5391243 0.7731377 -0.7459247
-0.5609826 0.7877034 -0.7450815
-0.554628 0.782721 -0.7435357
-0.5624777 0.7958145 -0.7422709
-0.555607 0.7933232 -0.7439573
-0.5427554 0.792874 -0.7470489
-0.5711167 0.806251 -0.7453626
-0.5741545 0.8113046 -0.7439573
-0.5853329 0.8238517 -0.7448004
-0.3591314 0.6031116 -0.7304666
-0.3649697 0.6171474 -0.7335582
-0.3537202 0.6181614 -0.7387577
-0.3714845 0.6284209 -0.7310287
-0.3624777 0.62064 -0.7363688
-0.3553436 0.6248865 -0.7361439
-0.3648985 0.6334973 -0.7383361
-0.4026344 0.6469453 -0.7324339
-0.3810253 0.646709 -0.7335582
-0.3739409 0.6430202 -0.7355256
-0.4279103 0.6580943 -0.7310287
-0.397152 0.6552718 -0.7341202
-0.4209327 0.6633486 -0.7363688
-0.3909576 0.6611775 -0.7313097
-0.4383766 0.6737744 -0.7332771
-0.4153258 0.6730389 -0.7346824
-0.4085677 0.6742005 -0.7352445
-0.4423638 0.6949556 -0.7301855
-0.4804557 0.7113701 -0.7358066
-0.4704877 0.7272167 -0.7397414
-0.4856533 0.739693 -0.7341203
-0.4947668 0.7437492 -0.7352445
-0.5243978 0.7540037 -0.735713
-0.5192239 0.7533323 -0.7355256
-0.5285867 0.7613724 -0.7346824
-0.548665 0.7795427 -0.7358066
-0.5384834 0.7704346 -0.737493
-0.5491634 0.7823412 -0.7380551
-0.5728444 0.8068304 -0.7381675
-0.660947 0.9356706 -0.7363688
-0.6801709 0.9530808 -0.7341203
-0.3410466 0.5884994 -0.7240022
-0.3566276 0.6059812 -0.7241896
-0.3689095 0.6150189 -0.7221286
-0.3528302 0.6143427 -0.7240022
-0.3449864 0.6147023 -0.7241896
-0.3836241 0.6213998 -0.7282181
-0.3702385 0.6294402 -0.7206296
-0.3954432 0.6469453 -0.7211917
-0.3889641 0.6430793 -0.7287802
-0.4343895 0.6531847 -0.7214727
-0.4207903 0.6599914 -0.7245644
-0.4193663 0.6590199 -0.7225969
-0.4051264 0.654478 -0.725548
-0.3981488 0.6547749 -0.7217538
-0.4279578 0.6610047 -0.7260634
-0.413884 0.6697647 -0.7220349
-0.4006408 0.6679159 -0.7268128
-0.3967485 0.6668081 -0.726438
-0.4378071 0.6713074 -0.7220348
-0.4214311 0.6703809 -0.7206296
-0.4165183 0.6765497 -0.7240022
-0.4047348 0.6745216 -0.7238617
-0.4140975 0.686275 -0.7290612
-0.4423638 0.6949556 -0.7290612
-0.4328943 0.6925836 -0.7268128
-0.4888572 0.7087618 -0.7240022
-0.4729085 0.7067453 -0.7282181
-0.4658597 0.7080262 -0.7214727
-0.4908508 0.719341 -0.7240022
-0.4983268 0.7264571 -0.7268128
-0.4803133 0.7418754 -0.727937
-0.5250623 0.7509835 -0.725876
-0.5506586 0.7908819 -0.727937
-0.5636407 0.8032949 -0.7238149
-0.6806692 0.9559742 -0.7287802
-0.6860805 0.9708222 -0.7251265
-0.339765 0.5892594 -0.7110736
-0.3676041 0.6083766 -0.7166948
-0.3540406 0.6038936 -0.7164137
-0.3885368 0.610084 -0.7124789
-0.3662107 0.6146734 -0.7166948
-0.3458882 0.6151131 -0.7189432
-0.3849769 0.6227525 -0.7181001
-0.3614098 0.6231069 -0.7186621
-0.3717337 0.6382172 -0.7110736
-0.3634034 0.6346359 -0.71276
-0.4333927 0.6484406 -0.7113547
-0.4040584 0.6495792 -0.7119168
-0.4331791 0.6553423 -0.7113547
-0.4269135 0.6573005 -0.715149
-0.4238282 0.6658282 -0.7187559
-0.414151 0.6664799 -0.7148679
-0.4068708 0.6673816 -0.7175379
-0.443859 0.6723035 -0.7181001
-0.4368815 0.6749836 -0.7164137
-0.4224754 0.6761695 -0.7168822
-0.4154503 0.6714972 -0.7150084
-0.4079744 0.6703345 -0.7107925
-0.4464934 0.6866075 -0.7144463
-0.4164471 0.6840917 -0.7133221
-0.4716269 0.6971379 -0.7121978
-0.440655 0.6949096 -0.7183811
-0.4660377 0.7051436 -0.7175379
-0.4885724 0.7119875 -0.7130411
-0.4741901 0.7102559 -0.7186621
-0.5003204 0.7379838 -0.7116358
-0.5163404 0.7460591 -0.7125351
-0.5016376 0.7404286 -0.7161326
-0.4947312 0.7447208 -0.7150084
-0.5288715 0.7591674 -0.7169758
-0.5606977 0.79923 -0.7183811
-0.5622464 0.8047925 -0.7159921
-0.6726949 0.9645609 -0.7110736
-0.6658598 0.9633033 -0.7164137
-0.2946956 0.5567378 -0.7037662
-0.3493414 0.5930421 -0.7046093
-0.395016 0.6076887 -0.7071388
-0.3656995 0.6054835 -0.7062957
-0.3579032 0.6049734 -0.7060146
-0.349377 0.6006677 -0.7054525
-0.39555 0.6105833 -0.7057335
-0.3607689 0.6136664 -0.7054525
-0.3597722 0.6148524 -0.708263
-0.3987184 0.6276147 -0.707701
-0.3772161 0.62102 -0.7012367
-0.3643913 0.6264635 -0.7023609
-0.4227127 0.63919 -0.7015177
-0.4068352 0.633142 -0.7015177
-0.3805981 0.6388576 -0.7054525
-0.3713777 0.6363193 -0.7084505
-0.3651121 0.6366756 -0.707982
-0.40356 0.6471598 -0.7043283
-0.3965112 0.647469 -0.7015177
-0.3815593 0.6440059 -0.708263
-0.4331435 0.6555209 -0.7032041
-0.4120802 0.6587267 -0.7050778
-0.4443574 0.6687225 -0.7009556
-0.4207547 0.6678443 -0.7037662
-0.4172066 0.6620161 -0.7060146
-0.4069776 0.6652104 -0.7093873
-0.453471 0.6782566 -0.7009556
-0.4454254 0.6738693 -0.7048904
-0.4362406 0.6723983 -0.7037662
-0.4066216 0.6702396 -0.7051715
-0.4245639 0.6811984 -0.7099494
-0.4158063 0.6815299 -0.7020798
-0.4400142 0.6922041 -0.7093873
-0.4763973 0.7071713 -0.7068578
-0.4647917 0.7071009 -0.708263
-0.5088643 0.7426348 -0.7020798
-0.5278035 0.792114 -0.7037662
-0.5616233 0.8051371 -0.7020798
-0.5697401 0.8369927 -0.7048904
-0.6259167 0.8986655 -0.7093873
-0.6279815 0.9095783 -0.7060146
-0.6585974 0.9387997 -0.707701
-0.6864365 0.9738128 -0.707701
-0.3189391 0.5565236 -0.6975829
-0.3541474 0.5788216 -0.6944913
-0.3391242 0.5866488 -0.6998314
-0.3569242 0.5939546 -0.6908376
-0.3660614 0.6058629 -0.6972082
-0.3566821 0.604468 -0.6975829
-0.3498754 0.6036325 -0.6992692
-0.3967604 0.6114367 -0.6987071
-0.3839919 0.6148803 -0.6933203
-0.3754361 0.6190047 -0.6916807
-0.3635457 0.6121247 -0.6935076
-0.352759 0.612243 -0.6933671
-0.3452118 0.6130976 -0.6939292
-0.3917764 0.6258589 -0.6933671
-0.3762193 0.623309 -0.6919618
-0.3635315 0.6250481 -0.6957842
-0.4074997 0.6371107 -0.6940228
-0.3736764 0.6352214 -0.6946117
-0.3626913 0.6322406 -0.6913996
-0.4089 0.6447635 -0.6913997
-0.3959416 0.645143 -0.6905565
-0.3755358 0.6422214 -0.6940978
-0.4344844 0.6554378 -0.6949598
-0.411653 0.6569725 -0.6975829
-0.4044144 0.6589248 -0.6987071
-0.4215023 0.6658034 -0.6944913
-0.4126735 0.6616538 -0.6950534
-0.4056604 0.6625183 -0.6935076
-0.4447134 0.6784468 -0.6953344
-0.4224991 0.6709507 -0.6987071
-0.447775 0.6871042 -0.6933671
-0.4172303 0.6822895 -0.6987072
-0.4091848 0.6846131 -0.6987072
-0.4716625 0.7018819 -0.6984261
-0.5730153 0.8192025 -0.6987072
-0.6284087 0.9124228 -0.6964587
-0.6610181 0.9390849 -0.6902754
-0.6922748 0.9705859 -0.6936481
-0.6837546 0.9749503 -0.695147
-0.2804913 0.5319263 -0.6826869
-0.3264507 0.5550303 -0.6849353
-0.3086508 0.552326 -0.6840922
-0.3560698 0.5663134 -0.6835301
-0.3531506 0.5740311 -0.6854975
-0.3541474 0.5826527 -0.6838111
-0.3480242 0.5871721 -0.6863406
-0.3562359 0.5949516 -0.6863407
-0.3400498 0.5926738 -0.6835301
-0.3879198 0.6045898 -0.6870901
-0.3901744 0.6147574 -0.683249
-0.3820043 0.6120658 -0.6866217
-0.3747953 0.6162527 -0.6846543
-0.3513706 0.6125048 -0.6869028
-0.343681 0.6125278 -0.6863406
-0.3915984 0.6223958 -0.6852164
-0.3842649 0.6208774 -0.6846543
-0.3738341 0.6241273 -0.683249
-0.3694553 0.6244408 -0.6881394
-0.4089 0.638312 -0.6894323
-0.3744251 0.6339383 -0.685891
-0.3635457 0.632097 -0.6861533
-0.4230687 0.6422961 -0.6874648
-0.3947312 0.6423205 -0.6854975
-0.4258455 0.6538247 -0.6822653
-0.4122819 0.6564334 -0.6883081
-0.4027412 0.6507885 -0.6838111
-0.4127685 0.6637404 -0.686528
-0.4166607 0.6799175 -0.6863406
-0.4080456 0.6791579 -0.688027
-0.4715201 0.7020013 -0.6874648
-0.6743325 0.9610029 -0.6807195
-0.6932004 0.9763262 -0.6846543
-0.2912068 0.5265416 -0.6722878
-0.2702741 0.5251658 -0.6700394
-0.297686 0.5313578 -0.6776279
-0.2757565 0.5377859 -0.6706015
-0.3173727 0.549787 -0.6708825
-0.298754 0.5435964 -0.6706015
-0.324647 0.5525237 -0.6709762
-0.3191883 0.5595847 -0.6711636
-0.3268067 0.5620914 -0.674911
-0.3620506 0.5817145 -0.6700394
-0.3471698 0.5880409 -0.6760353
-0.3774297 0.5912975 -0.6767848
-0.3546221 0.5961059 -0.6769721
-0.3462442 0.5944903 -0.6720469
-0.3881452 0.6077131 -0.6727093
-0.3794945 0.6027781 -0.6711636
-0.3506942 0.6099659 -0.6714447
-0.3967533 0.6153321 -0.6743115
-0.3758277 0.6151732 -0.6766442
-0.3589178 0.6127411 -0.6736931
-0.3920256 0.6252194 -0.673412
-0.3836953 0.6253608 -0.6748173
-0.3737095 0.6274955 -0.6745363
-0.3929512 0.6364856 -0.6756605
-0.3769135 0.6348134 -0.6743255
-0.3817729 0.6472788 -0.673412
-0.3799929 0.6450481 -0.6756605
-0.4245639 0.6510271 -0.6756605
-0.4042008 0.6560547 -0.6741146
-0.4054824 0.6627434 -0.6759416
-0.4461374 0.6795863 -0.6762226
-0.4237807 0.679277 -0.6750984
-0.6271983 0.9073011 -0.6784711
-0.6257031 0.9126126 -0.6717257
-0.6713421 0.9594858 -0.6756605
-0.6718405 0.9623303 -0.6722878
-0.662371 0.9614778 -0.6748173
-0.6773941 0.9775122 -0.6750984
-0.6778925 0.9802642 -0.6728499
-0.298042 0.5261155 -0.6610456
-0.2703097 0.5250477 -0.6655425
-0.2699181 0.5291039 -0.6694772
-0.2972588 0.5337286 -0.6649803
-0.2744393 0.5351051 -0.6649803
-0.3164649 0.5486018 -0.6655424
-0.3088644 0.5476769 -0.6610456
-0.2981844 0.540964 -0.6630129
-0.2896404 0.5403478 -0.6638561
-0.3258811 0.5559959 -0.6655425
-0.3177999 0.5522786 -0.6686341
-0.3276611 0.5626922 -0.6689151
-0.3557494 0.5958169 -0.6673692
-0.349733 0.5975127 -0.6694772
-0.3843717 0.6070715 -0.6627319
-0.3657174 0.6019961 -0.6616076
-0.3853329 0.6155049 -0.6646993
-0.3756497 0.6174542 -0.6638561
-0.352047 0.6103458 -0.663294
-0.3845853 0.6273651 -0.6669477
-0.3783197 0.6294169 -0.6630129
-0.408188 0.6362252 -0.6658235
-0.3862584 0.6328088 -0.6652614
-0.3807049 0.6423206 -0.663294
-0.4338911 0.661891 -0.6672288
-0.4283375 0.6646407 -0.6604834
-0.6230687 0.8988323 -0.6618887
-0.6737629 0.9583946 -0.6694772
-0.6841581 0.9791242 -0.6655424
-0.6783197 0.9830623 -0.668353
-0.2918832 0.5172679 -0.6554244
-0.2694909 0.5185246 -0.6568297
-0.296675 0.5275666 -0.6549747
-0.2702029 0.5241235 -0.6503654
-0.2634034 0.5235294 -0.6554244
-0.3184763 0.5353662 -0.6540191
-0.2977098 0.5324872 -0.6550497
-0.2732645 0.5328516 -0.658516
-0.3154147 0.5405133 -0.6517707
-0.3073336 0.547392 -0.6512085
-0.3338555 0.5540818 -0.6571107
-0.3257743 0.5532501 -0.6557055
-0.3170049 0.5555996 -0.6555182
-0.3271627 0.5605332 -0.6568297
-0.3521776 0.5748278 -0.6579539
-0.357565 0.5997192 -0.6520517
-0.3477038 0.5946547 -0.6555649
-0.3896048 0.6198107 -0.653457
-0.3740833 0.6139271 -0.6587971
-0.3910051 0.6274163 -0.655237
-0.3777857 0.6270217 -0.6554244
-0.4044322 0.6357853 -0.6583755
-0.3922392 0.633971 -0.6571107
-0.3845496 0.6315271 -0.6514896
-0.3792097 0.6347772 -0.6545812
-0.4100392 0.6468504 -0.6514896
-0.4029904 0.6542284 -0.6523328
-0.3959416 0.6540858 -0.6520517
-0.4283375 0.6646895 -0.6599213
-0.4735256 0.716257 -0.6524265
-0.5784977 0.8396983 -0.6587971
-0.5688145 0.8350491 -0.6576728
-0.5613385 0.8415005 -0.6571108
-0.6234959 0.9017971 -0.6543002
-0.6250623 0.9100507 -0.6559865
-0.6864365 0.9773225 -0.6509275
-0.6965468 0.9960625 -0.6587971
-0.2955856 0.5170305 -0.6408094
-0.2853685 0.5100811 -0.6419337
-0.2684229 0.5132108 -0.6464306
-0.298754 0.5240113 -0.6439948
-0.2747419 0.5255932 -0.6465711
-0.2634389 0.5233868 -0.6469927
-0.3186187 0.5338014 -0.6408094
-0.2813101 0.5325205 -0.6419337
-0.2762549 0.5370748 -0.6498033
-0.3004628 0.5481285 -0.64362
-0.2995847 0.543234 -0.6464306
-0.333001 0.556667 -0.6472737
-0.3245995 0.5540344 -0.6461495
-0.3180847 0.5551729 -0.6478359
-0.3077964 0.5503572 -0.6447443
-0.3179067 0.5615292 -0.6439011
-0.3535066 0.5848949 -0.6475548
-0.3633322 0.5969671 -0.6430579
-0.3661089 0.6047725 -0.6492411
-0.3906016 0.6255971 -0.6492411
-0.3853329 0.6293695 -0.6453063
-0.3847632 0.6330457 -0.6458685
-0.3795657 0.6375765 -0.6422148
-0.4100392 0.6468993 -0.6498033
-0.3942328 0.6456411 -0.6441821
-0.3961125 0.6517947 -0.6437325
-0.3984336 0.6684838 -0.6413716
-0.4924884 0.7420167 -0.6402473
-0.48665 0.7422553 -0.6481169
-0.5697401 0.8406457 -0.6458685
-0.6244215 0.9074908 -0.6444632
-0.2469206 0.483165 -0.6306914
-0.2325116 0.4873854 -0.6335723
-0.2523318 0.5093216 -0.6306914
-0.2971378 0.518397 -0.6350759
-0.2856533 0.5103406 -0.6343452
-0.2709327 0.5182524 -0.6319562
-0.3043432 0.5255811 -0.6316751
-0.296262 0.5254826 -0.6331272
-0.2701317 0.526162 -0.638561
-0.263795 0.5230792 -0.6353288
-0.3117124 0.5344177 -0.6312535
-0.2977572 0.5331841 -0.636172
-0.3238875 0.5487439 -0.6346263
-0.3152723 0.5474638 -0.6368747
-0.333096 0.5537729 -0.6331272
-0.3103596 0.5581135 -0.6309724
-0.309434 0.5551481 -0.6350009
-0.3349947 0.5620041 -0.6306914
-0.3195799 0.5640437 -0.6368747
-0.3638306 0.5937293 -0.6350478
-0.3551442 0.5904601 -0.6306914
-0.3949448 0.6331255 -0.6340641
-0.3849769 0.6346126 -0.6396852
-0.386472 0.6433643 -0.6309724
-0.3969384 0.6538251 -0.6396852
-0.4217515 0.6778061 -0.6343452
-0.4860093 0.7398833 -0.6335019
-0.4552272 0.7331778 -0.6357505
-0.6115344 0.8877062 -0.6379989
-0.6533286 0.9508985 -0.6346262
-0.6646494 0.961714 -0.6357504
-0.6969028 0.9990968 -0.638561
-0.2621514 0.4746617 -0.6222597
-0.253827 0.4787699 -0.6205733
-0.2468494 0.4797173 -0.6228218
-0.2337487 0.4774882 -0.6216976
-0.2604343 0.4835041 -0.6232153
-0.2560627 0.4867581 -0.6249954
-0.2467284 0.4825552 -0.6233839
-0.2386614 0.4847548 -0.6265693
-0.2865077 0.5070904 -0.6211355
-0.2921324 0.5178134 -0.6264756
-0.2860804 0.511112 -0.6252108
-0.2614453 0.5158215 -0.6205733
-0.3053044 0.5253719 -0.6261945
-0.2988964 0.5205885 -0.6273187
-0.297387 0.5378613 -0.62552
-0.3246707 0.548981 -0.6295671
-0.3333367 0.5563011 -0.6243476
-0.309078 0.5536618 -0.6276935
-0.3338555 0.5629527 -0.6205734
-0.3107511 0.5608181 -0.6205734
-0.354005 0.5829005 -0.6200113
-0.354361 0.5909663 -0.6290051
-0.3327875 0.5933142 -0.6225408
-0.3955246 0.635622 -0.6262749
-0.3876112 0.6425812 -0.6264756
-0.409968 0.6545851 -0.6290051
-0.4286579 0.6725639 -0.6242271
-0.4846327 0.7384433 -0.6216976
-0.6145959 0.8922606 -0.6245081
-0.6237807 0.9050239 -0.6250703
-0.6593806 0.9483367 -0.6267566
-0.6703453 0.95735 -0.6278808
-0.2480598 0.464217 -0.6127038
-0.2332503 0.4677157 -0.6104553
-0.2536846 0.4781214 -0.6140153
-0.2462324 0.4774099 -0.6150459
-0.2362584 0.4766878 -0.6144603
-0.2624243 0.4841481 -0.6141793
-0.2558918 0.4864417 -0.6179234
-0.246584 0.4839139 -0.6149012
-0.236531 0.4858602 -0.6161197
-0.2501246 0.4980542 -0.6183249
-0.2418654 0.4958242 -0.6120011
-0.2857957 0.5111234 -0.6124227
-0.2782752 0.5132767 -0.6168494
-0.2576718 0.5148008 -0.6183249
-0.2989676 0.5246444 -0.6155143
-0.2630118 0.5237273 -0.6112048
-0.2979708 0.5366229 -0.6169196
-0.3181915 0.5649205 -0.6174817
-0.3546221 0.5863329 -0.6170133
-0.3425418 0.6111993 -0.614109
-0.4013528 0.6412296 -0.6155143
-0.3929512 0.6406376 -0.6110174
-0.4139077 0.6567502 -0.6155143
-0.3889285 0.6579046 -0.6118606
-0.3894624 0.660705 -0.6143901
-0.618156 0.9115214 -0.6177628
-0.6638662 0.959342 -0.6115795
-0.2202919 0.4540998 -0.6008994
-0.245777 0.4638937 -0.6063448
-0.2332503 0.4676673 -0.6093311
-0.2540665 0.4780837 -0.605243
-0.2436217 0.4769273 -0.6050215
-0.235488 0.4778821 -0.6072433
-0.2626736 0.4855357 -0.605045
-0.2543539 0.4867726 -0.6060146
-0.2463065 0.4862827 -0.6058179
-0.2366514 0.4832067 -0.6064773
-0.2528302 0.4924682 -0.6042721
-0.2464833 0.4971017 -0.6057175
-0.2385903 0.494638 -0.6058179
-0.2447134 0.5020976 -0.6021641
-0.2927732 0.5179083 -0.6031479
-0.2789012 0.513322 -0.6038037
-0.2577786 0.5114085 -0.6025857
-0.2988964 0.5224138 -0.6070826
-0.2636525 0.5247398 -0.6093311
-0.2961908 0.5339428 -0.6028668
-0.3085084 0.556857 -0.6073637
-0.353649 0.588665 -0.6045531
-0.3933429 0.6368898 -0.6053963
-0.3864008 0.6378616 -0.6034289
-0.3976267 0.6409056 -0.6085817
-0.3857601 0.6409692 -0.6079258
-0.4218346 0.6754422 -0.6063332
-0.4613979 0.7317702 -0.6055837
-0.5163403 0.7895057 -0.6008994
-0.6057672 0.8939214 -0.6020236
-0.6607333 0.9568995 -0.6062394
-0.6536134 0.9540771 -0.6053963
-0.6857245 0.9866366 -0.6033353
-0.2205055 0.4521078 -0.5949972
-0.2429334 0.4672294 -0.5947162
-0.2339623 0.4667904 -0.5972456
-0.2542542 0.4772503 -0.5997751
-0.2435386 0.4761716 -0.5958403
-0.2359915 0.4782714 -0.5945756
-0.2419841 0.4892217 -0.5943414
-0.2356533 0.485388 -0.5949972
-0.2525276 0.4941639 -0.5954188
-0.245173 0.4945974 -0.5942051
-0.2386377 0.4917601 -0.5963088
-0.2446778 0.5007576 -0.599213
-0.2697045 0.5178134 -0.5921866
-0.2579566 0.5148717 -0.5913435
-0.2641509 0.5247398 -0.5969646
-0.29733 0.5348437 -0.5902192
-0.3013884 0.556572 -0.5933108
-0.3035956 0.5688353 -0.5949972
-0.3941972 0.6421064 -0.5955593
-0.3868281 0.6406376 -0.5947161
-0.3916696 0.6664683 -0.5933108
-0.424749 0.6748414 -0.5976391
-0.6051264 0.8913592 -0.5930298
-0.6168743 0.9063978 -0.5930298
-0.214895 0.4364524 -0.5838112
-0.2246226 0.4469758 -0.5842344
-0.2034354 0.4470671 -0.5831928
-0.2209042 0.4520509 -0.583249
-0.2069776 0.4512529 -0.5801012
-0.2415183 0.4637957 -0.5835441
-0.2337843 0.4670041 -0.5875491
-0.2270915 0.4602443 -0.5829117
-0.254005 0.4750139 -0.5841297
-0.2443841 0.4754722 -0.5849494
-0.2363949 0.4757091 -0.5850666
-0.2539694 0.4823037 -0.5815065
-0.2458526 0.488258 -0.589095
-0.2550244 0.4917465 -0.5857224
-0.2454895 0.4939553 -0.5865655
-0.2383054 0.4931678 -0.5876898
-0.2449982 0.5032478 -0.5885329
-0.2790317 0.5152273 -0.584036
-0.29733 0.5348437 -0.5896571
-0.3095764 0.5567378 -0.5837549
-0.3023954 0.5639185 -0.5825103
-0.3366679 0.5740901 -0.5851602
-0.3850481 0.6385972 -0.5854412
-0.3947668 0.664772 -0.5850196
-0.462727 0.7429176 -0.5812254
-0.2151798 0.4372303 -0.5756043
-0.2260591 0.4443326 -0.5769784
-0.2147621 0.441592 -0.5718569
-0.2054468 0.4455196 -0.5762367
-0.1978437 0.4450732 -0.5741588
-0.2244749 0.4536968 -0.5749016
-0.2161623 0.4539817 -0.5725126
-0.2069776 0.4513018 -0.5778527
-0.1998932 0.4512529 -0.5719506
-0.2424706 0.4653201 -0.5750421
-0.2354575 0.4655095 -0.5750421
-0.247419 0.472863 -0.5713884
-0.2370238 0.4744765 -0.5719506
-0.2544856 0.4822441 -0.5757448
-0.2473122 0.4892068 -0.5716695
-0.2355999 0.485874 -0.5713884
-0.2583838 0.4905345 -0.5791644
-0.247686 0.4917563 -0.5764474
-0.2501246 0.50147 -0.5716695
-0.2788181 0.5149898 -0.5761664
-0.3016732 0.5594895 -0.5739179
-0.3278035 0.5696888 -0.5736369
-0.3013647 0.564431 -0.5784149
-0.3432894 0.6105356 -0.5761664
-0.4618725 0.7306314 -0.5784149
-0.1953008 0.4128037 -0.5637999
-0.2043195 0.4264742 -0.5631441
-0.2145746 0.4349486 -0.5653738
-0.2031328 0.4307595 -0.5609893
-0.214062 0.4420266 -0.564081
-0.2061435 0.4451272 -0.5637196
-0.1997627 0.4459397 -0.5637999
-0.2331791 0.4584409 -0.5660484
-0.2245283 0.4554051 -0.5659078
-0.2156639 0.452131 -0.5612704
-0.2343717 0.4633749 -0.5629567
-0.2248182 0.4648353 -0.5658878
-0.2197081 0.4669473 -0.5629005
-0.2472054 0.4760888 -0.5626757
-0.2260354 0.4764929 -0.5649241
-0.2465646 0.4884482 -0.569421
-0.2603773 0.4910333 -0.5685778
-0.2524742 0.4957541 -0.5637999
-0.2720185 0.5144684 -0.5629567
-0.258455 0.5125945 -0.5615515
-0.2838377 0.5379038 -0.5694211
-0.3265219 0.5699032 -0.5668916
-0.3275899 0.5725601 -0.564081
-0.343681 0.6132876 -0.5652052
-0.3899608 0.6592573 -0.5654862
-0.3972588 0.6638826 -0.5626757
-0.1666073 0.4152949 -0.5508713
-0.1866857 0.4288135 -0.5503092
-0.2063605 0.433859 -0.5594904
-0.1945176 0.4373775 -0.554525
-0.2147384 0.443379 -0.5540192
-0.2043005 0.4447165 -0.5559865
-0.1952059 0.443616 -0.5550403
-0.2256675 0.4553809 -0.5580382
-0.2147027 0.4513249 -0.5563987
-0.2071627 0.4520129 -0.5551434
-0.2343183 0.4659607 -0.5526981
-0.2246351 0.4659524 -0.5539629
-0.2195087 0.4690201 -0.5514334
-0.2364542 0.4727205 -0.5511523
-0.2264863 0.4766659 -0.5553682
-0.2462086 0.4911988 -0.5552276
-0.2581702 0.5128308 -0.5548061
-0.3001068 0.5526109 -0.5531197
-0.3003204 0.5602007 -0.5573356
-0.3407618 0.598438 -0.554525
-0.3310787 0.59545 -0.559303
-0.3908864 0.66457 -0.559303
-0.5489142 0.8381323 -0.5562114
-0.1755785 0.3975744 -0.5410343
-0.1562122 0.3994483 -0.5401911
-0.1729441 0.4098862 -0.5424396
-0.1886792 0.4143683 -0.5463743
-0.1738768 0.4135912 -0.5430579
-0.1668209 0.4165509 -0.5434701
-0.1866857 0.4287675 -0.5486228
-0.207893 0.4344466 -0.5454911
-0.1954432 0.4381837 -0.5455312
-0.2140382 0.4475065 -0.5441259
-0.2059808 0.4440669 -0.5477797
-0.194538 0.4417795 -0.5427608
-0.2276967 0.4575874 -0.5469365
-0.2142399 0.4519885 -0.5491849
-0.2063546 0.4538867 -0.5430017
-0.1994304 0.4512299 -0.5486228
-0.2200605 0.4666372 -0.5456717
-0.2172303 0.4678816 -0.5458122
-0.2261481 0.4751876 -0.547358
-0.2462798 0.4888036 -0.5472175
-0.2300463 0.4854576 -0.5401911
-0.2292631 0.4860041 -0.5474986
-0.239587 0.4963215 -0.5435638
-0.2412958 0.5001181 -0.5435638
-0.2724101 0.5126178 -0.5415964
-0.300534 0.5551729 -0.5463743
-0.2989676 0.5533934 -0.5452502
-0.3981132 0.6662309 -0.5455312
-0.4544678 0.7320537 -0.5480607
-0.4635814 0.7418265 -0.5458122
-0.1516554 0.3775544 -0.5309162
-0.145105 0.3781 -0.5311973
-0.1736561 0.3967287 -0.5347574
-0.1650053 0.3983341 -0.5373806
-0.1557375 0.3994175 -0.5364437
-0.1457458 0.3925708 -0.5323215
-0.1728373 0.4063987 -0.5344294
-0.1640869 0.4025894 -0.5323216
-0.1579744 0.4025917 -0.5329539
-0.174107 0.4147561 -0.5346637
-0.1661496 0.4143648 -0.5363367
-0.1862407 0.4280782 -0.53457
-0.2038336 0.4357232 -0.5335937
-0.195016 0.436334 -0.5359753
-0.1792809 0.4309958 -0.53457
-0.213706 0.4486558 -0.5338674
-0.2049128 0.4481237 -0.5385048
-0.1938911 0.4447926 -0.5376054
-0.2208259 0.4560688 -0.5337268
-0.2067335 0.4544597 -0.5332852
-0.2340572 0.4692973 -0.5321342
-0.2223567 0.4627101 -0.5384111
-0.2133856 0.4604564 -0.530073
-0.2335351 0.472863 -0.5379426
-0.2200427 0.4713922 -0.5326026
-0.2300463 0.485506 -0.5390669
-0.2528777 0.4963702 -0.5338205
-0.2452118 0.5020618 -0.5356942
-0.2727661 0.5132592 -0.5373806
-0.2773229 0.5362442 -0.5370995
-0.2996084 0.5579712 -0.5314783
-0.349021 0.6099891 -0.5351321
-0.4528302 0.732577 -0.5334457
-0.1294411 0.3694179 -0.5205172
-0.1446956 0.3781597 -0.5241709
-0.1349235 0.3773414 -0.5205172
-0.1453186 0.380046 -0.5222035
-0.1630168 0.3985208 -0.5267004
-0.155785 0.3979771 -0.525014
-0.1723033 0.405984 -0.5272625
-0.1627039 0.4048934 -0.5257415
-0.1585736 0.4063038 -0.5267941
-0.184448 0.4160667 -0.5253353
-0.1736561 0.4149383 -0.5278246
-0.1671769 0.4121389 -0.5236088
-0.1802777 0.4206068 -0.5210792
-0.1761481 0.4245213 -0.5224845
-0.2033245 0.4352552 -0.5254464
-0.1801353 0.430713 -0.5222034
-0.2034176 0.4408407 -0.5230467
-0.1956568 0.4456796 -0.5261383
-0.2145959 0.4541487 -0.5210792
-0.2002848 0.4523685 -0.5258572
-0.2270559 0.467739 -0.5224845
-0.2137653 0.4606939 -0.528012
-0.2351727 0.4726256 -0.525014
-0.2264329 0.4746537 -0.5258572
-0.2304023 0.4880193 -0.5278246
-0.2532574 0.4959438 -0.529511
-0.2781595 0.5343813 -0.5251546
-0.1046636 0.3451767 -0.5106802
-0.1340216 0.3572421 -0.5122728
-0.1290673 0.369074 -0.5146149
-0.1453136 0.3762369 -0.5154582
-0.1371485 0.3785512 -0.5164418
-0.1245283 0.3706284 -0.5163013
-0.1476148 0.3816939 -0.5161608
-0.16267 0.397608 -0.5142215
-0.1480954 0.3966502 -0.5109612
-0.1744927 0.4093522 -0.5127881
-0.165832 0.4064039 -0.5156454
-0.1547526 0.402924 -0.5144745
-0.1845022 0.4163696 -0.5166448
-0.1739528 0.4187808 -0.5136781
-0.1816499 0.4237816 -0.5141295
-0.1746826 0.4233309 -0.5151302
-0.1936988 0.4378291 -0.5134907
-0.2140026 0.4569153 -0.5186434
-0.2049484 0.4526691 -0.5164887
-0.2270559 0.4692101 -0.5123665
-0.2273644 0.4716538 -0.5141466
-0.2174439 0.4712254 -0.5157392
-0.2457814 0.5030115 -0.5115233
-0.2678533 0.518975 -0.5163013
-0.2895692 0.5414849 -0.5174255
-0.308722 0.5645894 -0.5134907
-0.3323247 0.5981531 -0.5140529
-0.1130295 0.3362351 -0.5008432
-0.1071793 0.336337 -0.5008432
-0.1044144 0.3444298 -0.5054103
-0.1264685 0.3551274 -0.5037943
-0.1347811 0.3611172 -0.5025295
-0.1290851 0.3680421 -0.509837
-0.1456924 0.3770211 -0.5035132
-0.1255607 0.3705335 -0.5011242
-0.1468494 0.3821097 -0.5049185
-0.139053 0.3858091 -0.500281
-0.1462442 0.3905764 -0.500281
-0.1676397 0.4047146 -0.5035132
-0.174107 0.4158317 -0.5072138
-0.1653257 0.4122238 -0.5060629
-0.1826807 0.4251027 -0.5014053
-0.1768245 0.4252089 -0.5039348
-0.1943752 0.4383016 -0.5078696
-0.2144179 0.4581085 -0.5059022
-0.1999288 0.451918 -0.500281
-0.2273407 0.4728863 -0.5092749
-0.2197935 0.4713447 -0.5056211
-0.2284799 0.4842483 -0.5089938
-0.2471698 0.5030357 -0.5053401
-0.2781061 0.5336423 -0.5060896
-0.3411178 0.6106782 -0.5059022
-0.08821645 0.3299018 -0.4907251
-0.1067177 0.3339591 -0.493901
-0.09619728 0.3346235 -0.4942511
-0.1112852 0.3462444 -0.4966273
-0.1044687 0.3447775 -0.4942161
-0.0982556 0.3408587 -0.4980326
-0.1266524 0.3544041 -0.4980326
-0.1253827 0.3633465 -0.4924115
-0.137184 0.3770333 -0.4948004
-0.1440065 0.3855695 -0.4965069
-0.1383648 0.3832162 -0.4957842
-0.1675329 0.4029356 -0.4940978
-0.1737985 0.4182831 -0.490163
-0.1658241 0.4131107 -0.4985947
-0.1839089 0.423442 -0.496276
-0.1753293 0.4241529 -0.4977515
-0.1942328 0.4335116 -0.4985947
-0.2068352 0.4565207 -0.4932546
-0.1999288 0.4518715 -0.4997189
-0.2178711 0.4687827 -0.4980326
-0.2292631 0.4843664 -0.4904441
-0.2465409 0.5028217 -0.4978452
-0.2590246 0.5170075 -0.4921304
-0.2747241 0.5324719 -0.4946599
-0.3222499 0.5881683 -0.4918494
-0.07888929 0.3068684 -0.4820124
-0.08567105 0.3152715 -0.4822232
-0.07815694 0.3128091 -0.4811692
-0.09508722 0.3245325 -0.4823871
-0.08737391 0.3270706 -0.4834176
-0.1048218 0.3349929 -0.4866862
-0.09553476 0.334086 -0.4857063
-0.114005 0.3432409 -0.4826307
-0.1046066 0.3419127 -0.4873525
-0.1262015 0.3565027 -0.4844013
-0.1188323 0.3521514 -0.480045
-0.1360627 0.3698468 -0.4811692
-0.1280527 0.3659976 -0.4854553
-0.1181203 0.3612595 -0.480045
-0.1355287 0.372621 -0.4848229
-0.1400498 0.3844101 -0.4896009
-0.1394921 0.3846154 -0.4854788
-0.1745105 0.4137761 -0.4892262
-0.1661089 0.4152949 -0.4884767
-0.1823603 0.4242364 -0.4881956
-0.2204699 0.4722468 -0.4845419
-0.2182271 0.4712496 -0.4865093
-0.2491278 0.5075545 -0.485104
-0.26513 0.5252255 -0.4815908
-0.07679127 0.3063893 -0.4737869
-0.06913492 0.3079596 -0.4758291
-0.08536095 0.3136937 -0.4752522
-0.07744016 0.3133442 -0.4757795
-0.09307385 0.3229848 -0.4742989
-0.08670483 0.3249268 -0.4754616
-0.09584668 0.3333838 -0.4780776
-0.1106159 0.344503 -0.4780214
-0.1099324 0.3419982 -0.4786397
-0.1192061 0.3573338 -0.4755481
-0.1252937 0.3653509 -0.4745644
-0.1186899 0.3614803 -0.4776092
-0.1339461 0.3736584 -0.4743727
-0.1380918 0.3820971 -0.4731591
-0.2200071 0.4723407 -0.4761102
-0.07623573 0.304241 -0.4650625
-0.068684 0.306807 -0.4657299
-0.08562782 0.3156449 -0.4650687
-0.07708386 0.3128493 -0.4656709
-0.08614658 0.3234015 -0.4655505
-0.102848 0.3384404 -0.4696459
-0.09615521 0.3382858 -0.4638842
-0.1103358 0.3437141 -0.4657111
-0.1030972 0.3410254 -0.4671164
-0.1187611 0.3541667 -0.4688027
-0.1212887 0.3670229 -0.4614952
-0.1357636 0.3757665 -0.4670039
-0.1394802 0.3831059 -0.4688027
-0.1872552 0.4365947 -0.4624789
-0.04489142 0.2751664 -0.4551715
-0.05494584 0.2841949 -0.4539469
-0.04777501 0.2833253 -0.4572794
-0.06274886 0.2942073 -0.4556579
-0.07445548 0.3072719 -0.4564362
-0.06885013 0.3060265 -0.4568578
-0.07828408 0.3182537 -0.4519393
-0.08663582 0.3238657 -0.455312
-0.09234603 0.3303743 -0.4558741
-0.1325383 0.3750168 -0.4534851
-0.1378427 0.3852405 -0.4584036
-0.02114632 0.2475919 -0.4485666
-0.02805269 0.2595944 -0.440697
-0.03410466 0.2685837 -0.4465992
-0.04535422 0.2736804 -0.4442705
-0.03510146 0.270482 -0.4412591
-0.05482378 0.284852 -0.4455312
-0.04815474 0.2824598 -0.4451939
-0.06752107 0.3038402 -0.4476298
-0.07859262 0.318902 -0.447255
-0.1182983 0.3627767 -0.4480045
-0.01470274 0.2471403 -0.4339517
-0.02404177 0.2540118 -0.4339517
-0.0347597 0.264585 -0.4346262
-0.02807049 0.2621555 -0.4345138
-0.04734781 0.2838351 -0.4384486
-0.1050908 0.3480709 -0.4371838
-0.008543965 0.2401423 -0.4137156
