# .PCD v.7 - Point Cloud Data file format
VERSION .7
FIELDS x y z
SIZE 4 4 4
TYPE F F F
COUNT 1 1 1
WIDTH 1499
HEIGHT 1
VIEWPOINT 0 0 0 1 0 0 0
POINTS 1499
DATA ascii
-0.9728017 0.8661217 -0.6008994
-0.9543076 0.8669512 -0.6011804
-0.9763617 0.8851445 -0.6008994
-0.965753 0.8385122 -0.5902192
-0.9702385 0.852791 -0.5916245
-0.9688501 0.8552346 -0.5919056
-0.9545034 0.8591959 -0.5919056
-0.941545 0.8585796 -0.5902192
-0.9847327 0.8666026 -0.5922268
-0.9748071 0.8664696 -0.5942945
-0.9644999 0.8659984 -0.5939292
-0.9567817 0.8611414 -0.5969646
-0.9862229 0.8705347 -0.594154
-0.9751799 0.8751782 -0.5948286
-0.9663937 0.8716962 -0.5969646
-0.9562201 0.8738071 -0.593467
-0.9903169 0.8822999 -0.599213
-0.9763617 0.8851445 -0.5997751
-0.9633559 0.8863787 -0.5957466
-0.9205411 0.7882248 -0.5806633
-0.9039872 0.7871447 -0.5817875
-0.896084 0.7944867 -0.5833334
-0.9233891 0.8068365 -0.5827244
-0.9144179 0.8092879 -0.5851602
-0.9462442 0.816869 -0.5829118
-0.9334283 0.8153838 -0.5809444
-0.9154859 0.8148152 -0.5879707
-0.908455 0.8167359 -0.5808039
-0.9559274 0.8266521 -0.5815065
-0.9455323 0.8287573 -0.5806634
-0.9223567 0.824979 -0.5826307
-0.9141569 0.8272203 -0.5810381
-0.9632753 0.8377711 -0.5841484
-0.957209 0.834987 -0.5826709
-0.9461612 0.8338466 -0.5847855
-0.9374154 0.8370876 -0.5801012
-0.9206123 0.8318931 -0.5868466
-0.9747953 0.8476436 -0.5874087
-0.965842 0.8471099 -0.5841062
-0.953916 0.8463742 -0.5874087
-0.9449804 0.8438603 -0.5826307
-0.9365222 0.8444846 -0.5843425
-0.9848345 0.8587685 -0.5865655
-0.9759564 0.8558018 -0.5841225
-0.9654918 0.8556954 -0.5827869
-0.9559451 0.8572268 -0.5874087
-0.9461604 0.8556315 -0.5843666
-0.9920968 0.8662166 -0.5806633
-0.9858392 0.8638924 -0.5832865
-0.9745041 0.8626367 -0.5855179
-0.9648274 0.8619352 -0.5836143
-0.9552795 0.8656334 -0.5848792
-0.9461731 0.8640738 -0.5844108
-0.9941616 0.8772466 -0.584036
-0.9865789 0.8730485 -0.5836144
-0.9755073 0.8749536 -0.5856286
-0.9577548 0.8738386 -0.5836613
-0.9882165 0.8817531 -0.5871276
-0.9744393 0.8860477 -0.5848792
-0.5681737 0.3977641 -0.5733558
-0.645639 0.5151079 -0.5711074
-0.6781773 0.5326619 -0.5705453
-0.7775721 0.6692191 -0.5725126
-0.8315415 0.7363253 -0.5713884
-0.8658597 0.7662603 -0.5739179
-0.891634 0.7759362 -0.5739179
-0.8849057 0.7782618 -0.5730748
-0.8767533 0.7770758 -0.5708263
-0.8648986 0.7719049 -0.5736369
-0.9205411 0.7882712 -0.5784149
-0.9170702 0.785947 -0.5727234
-0.9064742 0.783026 -0.5727937
-0.8947363 0.7841786 -0.5748013
-0.8853447 0.7853987 -0.5729811
-0.8777501 0.7823896 -0.5730748
-0.9303667 0.7994444 -0.5719506
-0.9234603 0.7980644 -0.5735164
-0.9144179 0.795078 -0.5750752
-0.9027412 0.7915442 -0.5711074
-0.896141 0.7944294 -0.5755481
-0.8836952 0.7965616 -0.5775716
-0.9311499 0.8060857 -0.5732153
-0.9227199 0.8045864 -0.5735244
-0.9142933 0.8054388 -0.5725829
-0.9047348 0.8026932 -0.5711074
-0.8972647 0.8053663 -0.5753701
-0.940477 0.813606 -0.5784149
-0.9334283 0.8140982 -0.5734121
-0.9242702 0.8138541 -0.5746205
-0.9167676 0.8156525 -0.5740116
-0.9038448 0.8138566 -0.5775155
-0.953204 0.8279088 -0.5744801
-0.9448914 0.8241544 -0.5749016
-0.9351727 0.8246941 -0.5729343
-0.9261896 0.822524 -0.5751359
-0.915989 0.8240072 -0.5759791
-0.9675329 0.8394597 -0.5756043
-0.9542057 0.8357383 -0.5742756
-0.946268 0.8349527 -0.5756043
-0.9352439 0.8361204 -0.5749297
-0.9250409 0.8346492 -0.5744801
-0.915372 0.8346499 -0.5747049
-0.9655868 0.8438603 -0.5760259
-0.9569242 0.8460225 -0.5757917
-0.9453899 0.8451138 -0.577197
-0.9345942 0.8460126 -0.5746909
-0.9229684 0.8434493 -0.576933
-0.9751614 0.853394 -0.5766482
-0.9621693 0.8540558 -0.5743864
-0.953649 0.853117 -0.5740585
-0.9444286 0.8551627 -0.5737774
-0.9339267 0.8540007 -0.5741054
-0.9920256 0.8662166 -0.5795391
-0.9804201 0.8692998 -0.5716695
-0.955429 0.8649822 -0.5761664
-0.948665 0.8684937 -0.5747612
-0.9845141 0.8717914 -0.579258
-0.9718049 0.8721699 -0.5781338
-0.9646138 0.8742027 -0.5763538
-0.9547348 0.876013 -0.5753232
-0.9676635 0.8837144 -0.5751359
-0.4569954 0.2757958 -0.5609893
-0.4745396 0.2963085 -0.5637999
-0.4653613 0.2928263 -0.5609893
-0.4856533 0.3076795 -0.562226
-0.4767126 0.3049404 -0.5638803
-0.4674103 0.3047157 -0.5624259
-0.4867687 0.3122291 -0.5660484
-0.4776611 0.3111379 -0.5622541
-0.5042161 0.32679 -0.5633984
-0.4960185 0.3235388 -0.5630012
-0.5144891 0.3374444 -0.5654862
-0.5073692 0.3316447 -0.5629568
-0.4989913 0.3314741 -0.5645494
-0.5214667 0.3476551 -0.5651349
-0.5133297 0.3437128 -0.5614712
-0.5098612 0.3432307 -0.5604272
-0.5374154 0.3640346 -0.564643
-0.5234705 0.3660711 -0.5612303
-0.519663 0.3675687 -0.5639873
-0.5446512 0.3753017 -0.5634485
-0.5364187 0.3727397 -0.5609893
-0.5225881 0.3712446 -0.5632378
-0.5528658 0.3852169 -0.5609893
-0.5449352 0.3830523 -0.5649673
-0.5363237 0.381848 -0.5615515
-0.5643219 0.3949087 -0.5639686
-0.5562834 0.3915268 -0.5624883
-0.5475021 0.3939452 -0.5617388
-0.5762549 0.4052128 -0.5623946
-0.5675246 0.4049629 -0.5627087
-0.5846683 0.4168431 -0.5630504
-0.578118 0.4108984 -0.5628631
-0.5691943 0.4118303 -0.5609894
-0.5742969 0.4213895 -0.5621135
-0.6008544 0.4318749 -0.5668915
-0.5962264 0.4357646 -0.5616639
-0.5824137 0.4349106 -0.5612704
-0.6136466 0.4466048 -0.5639873
-0.6070203 0.4443093 -0.5636875
-0.6156402 0.4533881 -0.5634252
-0.6411178 0.4764685 -0.5618325
-0.6320873 0.4781206 -0.5641747
-0.640121 0.4801217 -0.5629567
-0.6308295 0.4832753 -0.5609893
-0.6215498 0.4844788 -0.5619262
-0.6547881 0.4936304 -0.5636593
-0.6466121 0.495524 -0.5622073
-0.6361933 0.4938869 -0.564081
-0.6547704 0.5084909 -0.5622541
-0.6448202 0.5056998 -0.5629567
-0.6373798 0.5057391 -0.5618325
-0.6738198 0.5181169 -0.5620012
-0.6654503 0.5139648 -0.5621838
-0.65555 0.5134961 -0.5623384
-0.645639 0.5150614 -0.569421
-0.6821218 0.5241035 -0.5616639
-0.6752865 0.523079 -0.563013
-0.6643171 0.5257913 -0.5637063
-0.6551976 0.5238853 -0.5623947
-0.6802421 0.5368846 -0.5604272
-0.6775187 0.5329705 -0.5629567
-0.6648273 0.5327805 -0.5636594
-0.7021716 0.5453769 -0.5604272
-0.6935802 0.5567458 -0.560802
-0.6830426 0.5544062 -0.5613641
-0.6960484 0.5672144 -0.5630504
-0.684921 0.5652735 -0.5615515
-0.7169811 0.5784658 -0.5626757
-0.7084016 0.5785133 -0.5652052
-0.6953364 0.5718952 -0.5604272
-0.7410466 0.5876935 -0.5604272
-0.7424943 0.595157 -0.5632378
-0.7306515 0.5975371 -0.5635188
-0.7220719 0.5969908 -0.5650647
-0.7196155 0.5927221 -0.5623946
-0.709434 0.59329 -0.5615515
-0.7558562 0.6099426 -0.5609893
-0.7448202 0.6079017 -0.5609893
-0.7330723 0.601687 -0.5604272
-0.7569005 0.6158574 -0.560802
-0.7337843 0.6145918 -0.5604272
-0.7477679 0.6236337 -0.5624508
-0.7353507 0.6231546 -0.5618325
-0.7812745 0.6325234 -0.5609893
-0.7753471 0.634256 -0.5616919
-0.7610537 0.638027 -0.5615515
-0.7505518 0.6384776 -0.5629567
-0.7829358 0.6483375 -0.5609894
-0.7726593 0.643531 -0.5604272
-0.7612495 0.6444432 -0.5614109
-0.784692 0.6504803 -0.5663294
-0.7732289 0.6518331 -0.5642214
-0.7626914 0.6540142 -0.5637999
-0.7966002 0.6663612 -0.561692
-0.7861161 0.6637407 -0.5607083
-0.7744393 0.6638588 -0.5623946
-0.797864 0.6760283 -0.5609893
-0.788964 0.6739157 -0.5626757
-0.7776931 0.6748031 -0.5645869
-0.8111783 0.6815299 -0.5637999
-0.801685 0.6856107 -0.5639873
-0.7919545 0.6895469 -0.5668915
-0.8042364 0.6995818 -0.5612704
-0.8255607 0.7047289 -0.5604272
-0.81602 0.707812 -0.5609893
-0.8057672 0.7076707 -0.5609893
-0.8450694 0.7150719 -0.5609893
-0.8476326 0.7292092 -0.5609893
-0.8281061 0.7239426 -0.5630972
-0.8194517 0.7262857 -0.562226
-0.8607333 0.7395033 -0.5604272
-0.8583838 0.736941 -0.5609893
-0.8414382 0.7367513 -0.5604272
-0.8351134 0.7351462 -0.5652052
-0.8767533 0.7414246 -0.5609893
-0.8528302 0.7465245 -0.5604272
-0.8415522 0.7444937 -0.5618887
-0.8793165 0.7555377 -0.5615515
-0.8624184 0.7553638 -0.5636126
-0.8545746 0.7558469 -0.5607083
-0.8433962 0.7544751 -0.5632941
-0.8948381 0.7677478 -0.5635188
-0.8899965 0.767729 -0.5654863
-0.8749733 0.7678124 -0.5660484
-0.8652545 0.7638166 -0.5615515
-0.8549128 0.7634128 -0.563027
-0.9102171 0.7771471 -0.5664699
-0.9020114 0.7760325 -0.5641512
-0.8946897 0.7747866 -0.5659078
-0.8838733 0.7748341 -0.5666105
-0.8754789 0.7749547 -0.5658797
-0.8669722 0.7755638 -0.5664699
-0.9111356 0.7862792 -0.5658798
-0.9016891 0.7838649 -0.5667354
-0.8938271 0.7843532 -0.568634
-0.8854871 0.7820415 -0.5639873
-0.8767712 0.7861071 -0.5630972
-0.9246945 0.7950398 -0.5652989
-0.9173846 0.7934421 -0.564362
-0.9044833 0.7959349 -0.5656362
-0.8952652 0.7961701 -0.5682968
-0.8857956 0.794107 -0.563675
-0.9381511 0.808355 -0.5631441
-0.926957 0.805614 -0.5682967
-0.9145247 0.8029421 -0.5663294
-0.9063566 0.8058827 -0.5660484
-0.8971164 0.8070659 -0.5679221
-0.8857483 0.8026299 -0.5652989
-0.9427791 0.8169185 -0.5652052
-0.9351489 0.8156133 -0.5663294
-0.9252166 0.8181283 -0.5641747
-0.9163522 0.8139139 -0.5665168
-0.9074582 0.8151351 -0.5649241
-0.950445 0.8291423 -0.564362
-0.9445069 0.8240709 -0.5685217
-0.9340216 0.8247855 -0.5661421
-0.9262727 0.8274023 -0.5636125
-0.9139195 0.8252042 -0.5639404
-0.9088287 0.8251927 -0.5689994
-0.9501602 0.8372544 -0.5668915
-0.9434674 0.8349667 -0.566209
-0.9354219 0.8356454 -0.5667229
-0.9284918 0.8354198 -0.5687653
-0.9154503 0.8332214 -0.5699831
-0.9546245 0.8431415 -0.5662732
-0.9463866 0.8461727 -0.5674536
-0.9359915 0.8406945 -0.569421
-0.9285867 0.8433027 -0.5682968
-0.9834105 0.8570136 -0.5680158
-0.9641581 0.8519658 -0.5667229
-0.9549306 0.8535262 -0.564081
-0.9398363 0.8508449 -0.5674536
-0.9804201 0.8692998 -0.5699831
-0.9494482 0.8624688 -0.5660484
-0.9958348 0.8776263 -0.5694211
-0.9792097 0.873143 -0.564362
-0.9670345 0.8776507 -0.5615515
-0.9944464 0.8803772 -0.5632378
-0.9675329 0.8803539 -0.5635188
-0.3753886 0.1865835 -0.5518081
-0.3739765 0.19645 -0.5522766
-0.3951584 0.2056065 -0.5522766
-0.38932 0.2023336 -0.5508713
-0.4016376 0.2153079 -0.5505902
-0.4039262 0.2243728 -0.5527985
-0.4226415 0.2374469 -0.5529324
-0.4153554 0.233668 -0.554525
-0.4076539 0.236135 -0.5519955
-0.4303311 0.2453152 -0.5531197
-0.4239152 0.2440173 -0.5551808
-0.4441438 0.2598553 -0.5505902
-0.4353863 0.2588823 -0.5564924
-0.4282307 0.2568898 -0.5553682
-0.4509434 0.2663295 -0.5567735
-0.4431707 0.2647483 -0.5546187
-0.4529156 0.2741199 -0.5569422
-0.4463439 0.274813 -0.5527262
-0.4352438 0.2716206 -0.5511523
-0.4708793 0.2877973 -0.5567735
-0.4635991 0.2853129 -0.5551574
-0.4556069 0.2853592 -0.5556805
-0.473878 0.2955575 -0.55606
-0.4659513 0.2964585 -0.5550871
-0.4558499 0.2945521 -0.5538803
-0.4852901 0.3068353 -0.5548904
-0.47545 0.304914 -0.5561991
-0.466006 0.3045727 -0.5541528
-0.4944939 0.316906 -0.5549935
-0.4860853 0.3152989 -0.5550774
-0.4768403 0.3143965 -0.5547436
-0.5065148 0.3279844 -0.55638
-0.4966893 0.3262129 -0.5560036
-0.4869408 0.324726 -0.554244
-0.506366 0.3357705 -0.5553001
-0.4946762 0.3347094 -0.5537586
-0.5218465 0.3479127 -0.5555556
-0.5139053 0.3448541 -0.5545813
-0.5045398 0.3449643 -0.5539481
-0.5309647 0.356506 -0.5519393
-0.5236434 0.3548322 -0.5527986
-0.5127448 0.3545702 -0.552745
-0.5420434 0.3681859 -0.5503092
-0.5334342 0.3672011 -0.5540566
-0.5235363 0.3655257 -0.5551808
-0.5445639 0.3760922 -0.5551808
-0.5352591 0.3759159 -0.5552343
-0.5273229 0.3738247 -0.5545953
-0.5604842 0.3895341 -0.5584598
-0.5534185 0.3852642 -0.5549667
-0.5443352 0.3854123 -0.555052
-0.5355514 0.3836639 -0.5562369
-0.5647427 0.3960657 -0.5560709
-0.5546613 0.3950492 -0.5555637
-0.5458631 0.3947522 -0.5544423
-0.5771686 0.406952 -0.5553682
-0.5673831 0.4039707 -0.5571729
-0.5566552 0.4035883 -0.5537651
-0.5901033 0.4199673 -0.5559303
-0.5840117 0.4168172 -0.5543689
-0.5762429 0.4146912 -0.555847
-0.5664055 0.4129496 -0.5539161
-0.5909932 0.4299995 -0.5584598
-0.5838733 0.4234594 -0.5542439
-0.5756497 0.4241102 -0.5532134
-0.5659665 0.4243546 -0.5508713
-0.6015105 0.4349988 -0.5551674
-0.5924172 0.4343025 -0.5557547
-0.5824896 0.4353864 -0.5537567
-0.6139077 0.4484871 -0.5574293
-0.6051264 0.4441176 -0.5553682
-0.5981567 0.4439848 -0.5533071
-0.5843124 0.4434104 -0.5508713
-0.6250623 0.4592704 -0.5514334
-0.6157257 0.4562922 -0.5555181
-0.6066453 0.4550374 -0.5540566
-0.5973219 0.4544582 -0.5537251
-0.6256758 0.4647375 -0.5535954
-0.6156711 0.4650497 -0.552951
-0.6056367 0.466961 -0.5534945
-0.5979242 0.4653768 -0.5536819
-0.6408686 0.478686 -0.5560709
-0.6343396 0.4772418 -0.5555369
-0.6255143 0.4757724 -0.5542684
-0.6132737 0.4753028 -0.5554084
-0.6061766 0.4742111 -0.5525109
-0.6514774 0.4886612 -0.5528387
-0.6436573 0.4854309 -0.556024
-0.6348836 0.4843118 -0.5553351
-0.6215498 0.4843559 -0.5540097
-0.6528421 0.4954964 -0.5535882
-0.6445521 0.4952916 -0.5537943
-0.6359843 0.4944784 -0.5544314
-0.6239619 0.494302 -0.5539629
-0.6646929 0.5061924 -0.555618
-0.6554018 0.5050539 -0.5547069
-0.6460702 0.5052935 -0.5538068
-0.6369714 0.5050965 -0.554451
-0.6746529 0.5168065 -0.5544447
-0.6650528 0.5137055 -0.5544314
-0.6553876 0.5142607 -0.5536818
-0.6460729 0.5150231 -0.5539538
-0.6828364 0.5259311 -0.5548412
-0.6737474 0.5247394 -0.5554384
-0.6647249 0.5250972 -0.5538352
-0.6552891 0.5251137 -0.5550671
-0.6850684 0.5332586 -0.5567334
-0.6766679 0.5327522 -0.55638
-0.6668501 0.5344907 -0.5551639
-0.6563048 0.5324436 -0.5539629
-0.7006764 0.5441712 -0.5578415
-0.6911356 0.5417943 -0.5515739
-0.6836834 0.5428224 -0.5541503
-0.6724339 0.5445116 -0.5530573
-0.7132788 0.5587077 -0.5567734
-0.7030117 0.5537539 -0.5526701
-0.6928622 0.5555755 -0.5574058
-0.6827198 0.5550727 -0.5567173
-0.7152783 0.5652613 -0.5555087
-0.7051194 0.565173 -0.5519955
-0.6941171 0.5636762 -0.5532603
-0.6845955 0.5637963 -0.5556895
-0.7280883 0.5755477 -0.5526981
-0.7176626 0.5751346 -0.5559303
-0.706647 0.5759885 -0.5553682
-0.6971591 0.5751401 -0.5586285
-0.7410466 0.5877395 -0.5587409
-0.734781 0.5876453 -0.5552276
-0.7273763 0.5860516 -0.5529512
-0.7168862 0.5848676 -0.5558054
-0.7082236 0.5849473 -0.5548763
-0.6992049 0.5847442 -0.5543377
-0.7414415 0.5953615 -0.5548572
-0.7318144 0.5955762 -0.5524639
-0.7206835 0.5946724 -0.5550871
-0.7145034 0.5935665 -0.552108
-0.7546815 0.6059415 -0.5539629
-0.7432301 0.6064873 -0.5523703
-0.7331565 0.605975 -0.5528132
-0.7223844 0.606416 -0.5544938
-0.7554901 0.6144762 -0.5541636
-0.7447795 0.6151743 -0.5544046
-0.7344607 0.6144019 -0.5522063
-0.7242934 0.6140699 -0.5560427
-0.7789249 0.6299635 -0.5576167
-0.767718 0.6232451 -0.5554807
-0.758156 0.624967 -0.5548061
-0.7468139 0.6248864 -0.5544849
-0.7367086 0.6256796 -0.5552478
-0.7815593 0.6343741 -0.5557429
-0.7734425 0.6322716 -0.5561177
-0.7657122 0.6368074 -0.5555288
-0.7589297 0.6340502 -0.5583661
-0.7484989 0.6347857 -0.5578977
-0.7920969 0.6448826 -0.5564924
-0.7830139 0.6452521 -0.5540031
-0.7713421 0.6447281 -0.554525
-0.7620744 0.6477527 -0.5535882
-0.7541415 0.6446854 -0.5553682
-0.8049484 0.6586873 -0.5525576
-0.7947046 0.6539559 -0.5531197
-0.7855465 0.6558893 -0.5552276
-0.7744393 0.6570752 -0.5558366
-0.7648273 0.6588543 -0.5556493
-0.8069301 0.6628386 -0.552745
-0.7969028 0.6652825 -0.559584
-0.7861873 0.6659997 -0.5545953
-0.7755943 0.6657851 -0.554244
-0.8120613 0.6782382 -0.5516582
-0.8083066 0.6746729 -0.5545563
-0.7974877 0.6745427 -0.5548061
-0.7880385 0.6748885 -0.5526981
-0.7769313 0.6782106 -0.5536819
-0.8304023 0.6888126 -0.5514334
-0.8210751 0.6813167 -0.5508713
-0.8115938 0.6878719 -0.5548998
-0.8044144 0.6830202 -0.5535695
-0.797339 0.6852896 -0.5538926
-0.7873407 0.685824 -0.5551996
-0.8328112 0.6943868 -0.5534008
-0.8222975 0.6947977 -0.5537755
-0.8120683 0.6924541 -0.5512928
-0.8019402 0.6962488 -0.5528387
-0.84342 0.7048792 -0.5533071
-0.8346031 0.7045867 -0.5562676
-0.8248665 0.7043022 -0.554525
-0.813876 0.7040172 -0.5534945
-0.8038245 0.7043017 -0.555047
-0.8447134 0.7137666 -0.5550871
-0.8371841 0.7142054 -0.5555087
-0.8261659 0.7168733 -0.5537521
-0.8169099 0.7151989 -0.5561551
-0.8573869 0.7218544 -0.5528387
-0.8491753 0.7272162 -0.551246
-0.838519 0.7272869 -0.5532603
-0.8294055 0.7260064 -0.5570545
-0.8175547 0.723937 -0.5566798
-0.8654895 0.7348871 -0.5545813
-0.8547882 0.7351937 -0.5532603
-0.8430521 0.7343108 -0.5558678
-0.8359647 0.7350312 -0.5563519
-0.8863652 0.7482803 -0.5550871
-0.8759305 0.7451641 -0.5525576
-0.8613979 0.7469667 -0.5534008
-0.851691 0.747161 -0.5544046
-0.8437324 0.744389 -0.5561177
-0.8880326 0.7543676 -0.5537287
-0.8737794 0.7552898 -0.5563195
-0.8638366 0.7538376 -0.554853
-0.8539605 0.7556082 -0.5571951
-0.8440014 0.7549528 -0.557804
-0.9000356 0.7674928 -0.5581788
-0.8957003 0.7635026 -0.5575542
-0.8844642 0.7656709 -0.555874
-0.8726594 0.7641306 -0.5552277
-0.8645426 0.7659332 -0.5542439
-0.8550848 0.7667255 -0.5561177
-0.9069182 0.7759928 -0.5574293
-0.8917586 0.7728888 -0.5559303
-0.8841581 0.7721661 -0.5505902
-0.8740477 0.7743956 -0.5562114
-0.8668565 0.7782497 -0.5578977
-0.8930224 0.78469 -0.5581788
-0.8871484 0.7881299 -0.5553682
-0.8765397 0.7827921 -0.5515739
-0.9271983 0.7934437 -0.5570545
-0.885938 0.7920679 -0.559303
-0.9366679 0.804236 -0.5539629
-0.9070132 0.8051141 -0.559303
-0.890388 0.8056108 -0.5556493
-0.8853328 0.8015558 -0.5550871
-0.9385013 0.8139963 -0.5576167
-0.9238875 0.8182551 -0.559303
-0.957921 0.829119 -0.5559303
-0.9278035 0.8290241 -0.5578977
-0.9583838 0.8318455 -0.5525576
-0.9515842 0.8458181 -0.5536819
-0.9670345 0.8776972 -0.5598651
-0.9653969 0.8801641 -0.5522766
-0.3454915 0.1537137 -0.5428411
-0.3342115 0.1531373 -0.5407532
-0.3621218 0.1685554 -0.5401911
-0.356586 0.1628864 -0.5427206
-0.3491634 0.1647953 -0.5448285
-0.3639346 0.175653 -0.5433476
-0.3559274 0.1700261 -0.5401911
-0.3819865 0.1899521 -0.5489039
-0.3756802 0.18579 -0.544688
-0.3648906 0.1844798 -0.5443133
-0.3861445 0.1957952 -0.5426645
-0.3747953 0.1954543 -0.5455781
-0.3678177 0.1920259 -0.5417369
-0.3961908 0.2084767 -0.5477797
-0.3841438 0.2045393 -0.5445755
-0.4024493 0.2152649 -0.5464868
-0.3943752 0.2145016 -0.5427207
-0.4153791 0.2298482 -0.5480607
-0.404355 0.2244051 -0.5448285
-0.4237095 0.2368461 -0.5452502
-0.4155622 0.2357042 -0.5432426
-0.4065415 0.2352153 -0.5459528
-0.4256408 0.246874 -0.5458825
-0.4143824 0.2470509 -0.5448005
-0.4432894 0.2576014 -0.5458122
-0.4368815 0.2571754 -0.5407532
-0.4232264 0.254755 -0.5456115
-0.4507654 0.2689634 -0.5449691
-0.4467213 0.2678863 -0.5448005
-0.4356852 0.2638396 -0.5435076
-0.4559528 0.2761775 -0.5470168
-0.4427104 0.2764288 -0.5451378
-0.4719829 0.2893876 -0.544688
-0.4641628 0.2852515 -0.5468428
-0.4567767 0.2838768 -0.5464547
-0.4457376 0.2844567 -0.5444286
-0.4749021 0.2949224 -0.5458122
-0.4653317 0.2952574 -0.5440791
-0.4568124 0.2967469 -0.5456116
-0.4848091 0.3043169 -0.548141
-0.4765671 0.3040605 -0.545942
-0.465745 0.3071136 -0.5459059
-0.4945473 0.31659 -0.5465618
-0.4862852 0.3144111 -0.5458122
-0.4766528 0.3165252 -0.5455807
-0.5068352 0.3277893 -0.5435638
-0.4960156 0.325321 -0.545769
-0.484214 0.3262919 -0.5457721
-0.5150943 0.3387253 -0.5463744
-0.5081761 0.3338864 -0.5469365
-0.4959829 0.3351421 -0.5467567
-0.5200427 0.3493749 -0.5486228
-0.5150797 0.3461896 -0.5463414
-0.5038295 0.3441898 -0.5451965
-0.5310906 0.356697 -0.5474986
-0.5216555 0.3559648 -0.5446037
-0.5127549 0.3555797 -0.5439653
-0.504042 0.3555131 -0.5457474
-0.5422428 0.3679101 -0.5451378
-0.5341669 0.3649506 -0.5459879
-0.5257471 0.3650961 -0.5462752
-0.5136926 0.3647166 -0.5449339
-0.5439822 0.3741739 -0.5449042
-0.5358874 0.374024 -0.5450772
-0.5261612 0.3758615 -0.5445382
-0.5547289 0.3854142 -0.5454844
-0.5461425 0.3879813 -0.5471774
-0.5357245 0.3865843 -0.5428612
-0.5601994 0.3933526 -0.5427206
-0.5549246 0.3956219 -0.5466554
-0.5444744 0.3947048 -0.5462138
-0.5766346 0.4087473 -0.5464681
-0.5556453 0.4055706 -0.5460146
-0.545008 0.4047967 -0.5433594
-0.5802777 0.4184245 -0.5483418
-0.5764952 0.4164269 -0.5468662
-0.5657015 0.4154389 -0.5451252
-0.557304 0.4133608 -0.542299
-0.5918319 0.4258307 -0.5448442
-0.5834105 0.424648 -0.5448534
-0.5731221 0.4260485 -0.5436482
-0.564329 0.4253308 -0.5451297
-0.6012341 0.4366418 -0.5489039
-0.5918025 0.4364682 -0.5470115
-0.5824304 0.4343317 -0.5447542
-0.5734392 0.4343931 -0.5432316
-0.6060164 0.4459942 -0.5447231
-0.5952364 0.4447952 -0.543885
-0.5846819 0.4454747 -0.5453305
-0.6244927 0.4591774 -0.5415964
-0.6154963 0.4549849 -0.5460768
-0.6060164 0.4549097 -0.5458123
-0.5970857 0.4548404 -0.546187
-0.5862022 0.4544372 -0.5447472
-0.6251402 0.4652399 -0.5468562
-0.6154129 0.4651165 -0.5461673
-0.6066256 0.4650826 -0.5456249
-0.5968859 0.4650468 -0.5460489
-0.6335825 0.4761915 -0.5480607
-0.6239776 0.474304 -0.5450187
-0.6160847 0.4756166 -0.5448924
-0.650089 0.4884238 -0.5472175
-0.6414959 0.4858855 -0.5450361
-0.6314347 0.4859479 -0.5445092
-0.6220798 0.485962 -0.5459371
-0.6134729 0.4835435 -0.5431805
-0.6620861 0.4998795 -0.5455312
-0.6552509 0.497308 -0.544001
-0.646688 0.4945579 -0.5438261
-0.6346387 0.4948631 -0.5469365
-0.6242282 0.4947841 -0.5459194
-0.6650156 0.5060208 -0.5454108
-0.6562737 0.5036218 -0.5450457
-0.6468788 0.5043679 -0.5459114
-0.6365255 0.5043737 -0.5461068
-0.6746367 0.5155831 -0.5458633
-0.6649024 0.517644 -0.5460933
-0.6557826 0.5168169 -0.545475
-0.6457815 0.5147695 -0.5435638
-0.6825269 0.5273571 -0.5459656
-0.6743274 0.5265387 -0.5462941
-0.6638661 0.5255547 -0.5462722
-0.6551798 0.5262719 -0.5450815
-0.6904593 0.5311203 -0.5486228
-0.685639 0.5358313 -0.545475
-0.6790317 0.5387817 -0.5491849
-0.6664599 0.5327228 -0.5431623
-0.6549395 0.5330649 -0.5474283
-0.7017016 0.5473021 -0.543339
-0.6914204 0.5474876 -0.5463041
-0.6835617 0.5460221 -0.5451799
-0.6728984 0.5464876 -0.5474986
-0.6639611 0.5437235 -0.5427206
-0.7137415 0.557509 -0.5474986
-0.7030141 0.5563114 -0.5480607
-0.6929512 0.5516265 -0.5482012
-0.6826896 0.5547398 -0.5462338
-0.6745817 0.5598221 -0.5432827
-0.7152011 0.561316 -0.5469365
-0.70445 0.5627871 -0.5480607
-0.6945888 0.5646133 -0.544407
-0.6847277 0.5699032 -0.544688
-0.7287291 0.5794618 -0.5430017
-0.7164116 0.5729484 -0.5463744
-0.7062809 0.5720643 -0.5464547
-0.6962857 0.5750818 -0.5481544
-0.7306159 0.5893773 -0.5486228
-0.7279459 0.5837786 -0.5449691
-0.7186188 0.5841467 -0.5434233
-0.7047882 0.5875028 -0.5477797
-0.6971734 0.5829298 -0.5467116
-0.7317907 0.595663 -0.549466
-0.7111427 0.5943345 -0.5465618
-0.7049721 0.5933941 -0.5447817
-0.75311 0.6036261 -0.5452502
-0.7428741 0.6046928 -0.5495597
-0.7317017 0.604202 -0.5479202
-0.7222499 0.6022413 -0.5467491
-0.711926 0.603212 -0.5452502
-0.7668921 0.6185175 -0.5452501
-0.7545746 0.6148048 -0.5438448
-0.7445497 0.6133206 -0.5472738
-0.7354503 0.617201 -0.5479483
-0.7259523 0.6190277 -0.5452502
-0.7682043 0.6250089 -0.544929
-0.7559749 0.6224204 -0.5445006
-0.7466002 0.6285388 -0.5486228
-0.7820933 0.6380514 -0.5438449
-0.7738341 0.6352443 -0.5437511
-0.7683517 0.6315869 -0.5452502
-0.7588465 0.6325605 -0.5441259
-0.7482616 0.6341532 -0.5472176
-0.7375578 0.6333147 -0.5421585
-0.7935209 0.6479895 -0.5453907
-0.7830545 0.6431975 -0.5427207
-0.772066 0.6448326 -0.5462495
-0.7614098 0.6409692 -0.5449691
-0.7513706 0.643957 -0.5469365
-0.7943634 0.6544182 -0.5451565
-0.7834958 0.655846 -0.5463743
-0.7736086 0.6571617 -0.542627
-0.7631304 0.6540383 -0.5430018
-0.8072229 0.6647467 -0.5464993
-0.7969295 0.663817 -0.5465149
-0.7864721 0.6612493 -0.5469365
-0.7755073 0.6634871 -0.5458123
-0.7636881 0.6644757 -0.5453907
-0.8200783 0.6761938 -0.544688
-0.8182129 0.6763877 -0.5468241
-0.8051549 0.674253 -0.5480608
-0.7993118 0.6740109 -0.5468428
-0.7865907 0.6728486 -0.5453438
-0.7787825 0.6775687 -0.5463743
-0.8323959 0.6891925 -0.5421585
-0.8250979 0.687259 -0.5439854
-0.8177003 0.6847377 -0.5450253
-0.8064934 0.6858763 -0.5455874
-0.8328841 0.6963864 -0.5450093
-0.8220719 0.6977548 -0.5454375
-0.8126431 0.6968947 -0.5438048
-0.8016909 0.6925489 -0.5448286
-0.7919189 0.6943871 -0.5475923
-0.8447644 0.7069179 -0.5450895
-0.8339317 0.7035498 -0.546535
-0.8246886 0.7064484 -0.5465149
-0.8146672 0.7050921 -0.5470302
-0.802848 0.7045391 -0.5463743
-0.8568174 0.7192217 -0.5458122
-0.8459442 0.7147183 -0.5468562
-0.8358704 0.7144117 -0.5468241
-0.8259048 0.7113791 -0.5457186
-0.814863 0.7139089 -0.5430017
-0.8668209 0.728655 -0.5433765
-0.856319 0.7242387 -0.543353
-0.8477393 0.725484 -0.5432827
-0.8378071 0.7259979 -0.5438449
-0.8281773 0.7258167 -0.5428611
-0.8172303 0.726552 -0.5472175
-0.8755429 0.736135 -0.5413153
-0.8678249 0.736609 -0.5477234
-0.8578379 0.7317549 -0.5443133
-0.848499 0.7351067 -0.5469365
-0.8287851 0.7348605 -0.5439653
-0.8757566 0.7446416 -0.5468115
-0.869037 0.7448102 -0.5475689
-0.8509316 0.7447523 -0.5454375
-0.886111 0.7575576 -0.5436441
-0.8745105 0.7540082 -0.5439854
-0.8624422 0.7565653 -0.5488102
-0.8520826 0.7548265 -0.5474986
-0.8934852 0.7629385 -0.5456249
-0.8817515 0.7636789 -0.5442383
-0.8731458 0.7630653 -0.5452502
-0.8628693 0.7625124 -0.5480607
-0.9004628 0.7703397 -0.549466
-0.8822713 0.7726628 -0.5486228
-0.8888217 0.797641 -0.547358
-0.8900676 0.8043541 -0.5491849
-0.8895692 0.8016509 -0.549747
-0.993592 0.8671422 -0.549466
-1 0.8761554 -0.5469365
-0.9837309 0.8746371 -0.5434233
-0.9593093 0.878313 -0.5435638
-0.9892489 0.8804246 -0.544688
-0.9731814 0.8820304 -0.5439386
-0.9598433 0.8809946 -0.5483418
-0.3223211 0.1334254 -0.532462
-0.3427269 0.1485928 -0.5331085
-0.3352083 0.1436966 -0.5330242
-0.3254717 0.1464472 -0.5338674
-0.3502314 0.1545837 -0.5373806
-0.3435149 0.1569322 -0.5347105
-0.3350801 0.1514203 -0.5344576
-0.3621218 0.1685554 -0.5385048
-0.3553578 0.1671534 -0.5350072
-0.3465369 0.1617659 -0.5321342
-0.3675329 0.177174 -0.5334458
-0.3544464 0.1748369 -0.5334458
-0.3649074 0.1854771 -0.5344295
-0.3831399 0.1967918 -0.5360315
-0.3761125 0.1902593 -0.5311973
-0.3660288 0.1951398 -0.5339376
-0.3950872 0.2079544 -0.5387858
-0.3851549 0.2049307 -0.5348043
-0.4021122 0.2166282 -0.5353195
-0.3953008 0.2153077 -0.5360456
-0.3850161 0.213427 -0.5338674
-0.4157707 0.2270962 -0.5387858
-0.4067233 0.2266499 -0.5385048
-0.3937344 0.2248375 -0.53457
-0.4147383 0.2372978 -0.5390669
-0.4034603 0.233772 -0.5344014
-0.4240774 0.2460493 -0.53457
-0.4143112 0.2437765 -0.5368184
-0.4072624 0.2438914 -0.5364169
-0.4430758 0.2599734 -0.5390669
-0.4371069 0.2521137 -0.5348511
-0.4250979 0.2556446 -0.5375211
-0.4456865 0.2667258 -0.5358816
-0.4354931 0.2655473 -0.5333052
-0.4494126 0.2719992 -0.534851
-0.4439872 0.2843342 -0.5365936
-0.4711285 0.2977845 -0.5376616
-0.4634923 0.2953819 -0.5363968
-0.4563743 0.2965662 -0.5356942
-0.4660733 0.3000372 -0.5387858
-0.484965 0.3176928 -0.5390669
-0.4788893 0.3192035 -0.5351321
-0.4934378 0.3265639 -0.5343826
-0.4835885 0.3297353 -0.5385048
-0.5086793 0.3362578 -0.5368184
-0.4937273 0.337548 -0.5381675
-0.5147027 0.3465841 -0.5390669
-0.5018299 0.3448354 -0.5350197
-0.4949692 0.3446124 -0.5367296
-0.5308651 0.357748 -0.5328836
-0.5225585 0.356294 -0.5371932
-0.5126498 0.3555544 -0.5378022
-0.5057316 0.3509166 -0.5390669
-0.5338466 0.3633406 -0.5349916
-0.5225632 0.3634601 -0.5365936
-0.511837 0.3680907 -0.5351321
-0.5261205 0.3755041 -0.5359497
-0.5532218 0.380046 -0.5306352
-0.5360627 0.3850076 -0.5353569
-0.5268066 0.3845013 -0.5371932
-0.5473122 0.3974097 -0.5390669
-0.5368387 0.3964128 -0.5345138
-0.5773585 0.4082959 -0.5390669
-0.5683161 0.405237 -0.5387858
-0.5547882 0.4085159 -0.5336566
-0.5443028 0.4061099 -0.5356193
-0.5709505 0.4193498 -0.5359753
-0.5653416 0.4172701 -0.5370058
-0.554028 0.4162019 -0.53455
-0.5910882 0.4274385 -0.5349448
-0.5822001 0.4267072 -0.5364973
-0.5722392 0.4229981 -0.5378864
-0.564203 0.425377 -0.5362996
-0.5925241 0.4359777 -0.536069
-0.5825917 0.4340447 -0.5382237
-0.5733654 0.4350526 -0.5365373
-0.608093 0.4416074 -0.5347574
-0.5958971 0.4449979 -0.5351321
-0.5841358 0.4448644 -0.5359753
-0.6150944 0.456441 -0.5392543
-0.606408 0.4574448 -0.5382237
-0.5955857 0.455792 -0.5342889
-0.58801 0.4544262 -0.5371557
-0.6330367 0.4678571 -0.5303541
-0.6238163 0.4650591 -0.5378021
-0.6144393 0.4668616 -0.5369309
-0.6067996 0.463027 -0.5357879
-0.5964084 0.4642314 -0.5361314
-0.6417586 0.4787457 -0.5342889
-0.6390175 0.4763978 -0.5306352
-0.6230687 0.4761362 -0.5370995
-0.6137059 0.4759647 -0.5342187
-0.6047574 0.4753234 -0.5368185
-0.6453543 0.4863305 -0.5375913
-0.6309719 0.4849995 -0.5392543
-0.6246351 0.4864833 -0.5335582
-0.6113065 0.4856248 -0.537493
-0.6583126 0.4967503 -0.539629
-0.649021 0.4942746 -0.5355068
-0.6321111 0.4986229 -0.5335863
-0.6658882 0.5075655 -0.5360314
-0.657031 0.5060482 -0.539629
-0.6477988 0.5035328 -0.5383174
-0.6353863 0.5092971 -0.5370995
-0.6284799 0.5076142 -0.5348511
-0.6557019 0.5150771 -0.5390669
-0.6464222 0.5155828 -0.5328836
-0.6364542 0.5153465 -0.5390669
-0.6660022 0.5221533 -0.5331647
-0.6543254 0.5239333 -0.5359753
-0.6457636 0.5277636 -0.5362563
-0.6903524 0.5385213 -0.5373806
-0.689854 0.53622 -0.5306352
-0.6703453 0.5381171 -0.5311973
-0.6629406 0.5317605 -0.5385048
-0.7015308 0.5434309 -0.5390669
-0.6819153 0.5470839 -0.5390669
-0.6701317 0.5443562 -0.5373806
-0.6735849 0.5551013 -0.5342889
-0.694126 0.5666763 -0.5390669
-0.6856533 0.5758089 -0.5317594
-0.7387326 0.5861981 -0.5362563
-0.7184051 0.5875497 -0.539629
-0.7093272 0.5854396 -0.5334457
-0.6979946 0.5822999 -0.5362563
-0.739765 0.5917968 -0.5354131
-0.7299395 0.5953304 -0.5359752
-0.7102528 0.5994098 -0.5382237
-0.7535066 0.6093022 -0.5359753
-0.7434318 0.6020674 -0.5358348
-0.7229619 0.604059 -0.5309162
-0.765397 0.6160629 -0.5362563
-0.7462621 0.6173431 -0.5338674
-0.7690993 0.6262621 -0.5306352
-0.7566394 0.6263105 -0.539629
-0.7802777 0.6388818 -0.5362563
-0.7498042 0.6365805 -0.5311973
-0.7810609 0.6431626 -0.5352726
-0.7962976 0.6585692 -0.5356942
-0.7847158 0.6562282 -0.5353195
-0.7725169 0.6515636 -0.5364437
-0.7867569 0.6641681 -0.5306352
-0.8205055 0.6789217 -0.5387858
-0.7896761 0.6797277 -0.5326026
-0.8118904 0.6873417 -0.5340079
-0.7904236 0.6836886 -0.5313379
-0.8308295 0.6918725 -0.5390669
-0.8230687 0.6985626 -0.5351321
-0.8133855 0.6950994 -0.539629
-0.8025275 0.6921809 -0.5337268
-0.8432894 0.7069595 -0.5390669
-0.8338911 0.7090225 -0.5342889
-0.8231874 0.7044919 -0.5375679
-0.8050552 0.7053694 -0.5385048
-0.8553578 0.7170165 -0.53724
-0.8472054 0.7177518 -0.5337268
-0.8272695 0.7157111 -0.5370995
-0.8646494 0.72418 -0.5348511
-0.8575768 0.7276666 -0.5326962
-0.8472624 0.7223291 -0.53828
-0.8758277 0.7381272 -0.5356942
-0.8290495 0.7365615 -0.539629
-0.8643646 0.7417681 -0.536678
-0.8550516 0.7444274 -0.5356942
-0.8808829 0.7554742 -0.5347574
-0.8786045 0.7531657 -0.5370995
-0.8993948 0.7651691 -0.5390669
-0.8828338 0.766031 -0.5350196
-0.8723389 0.7663552 -0.539629
-0.8441438 0.7654763 -0.5340079
-0.9921324 0.8696797 -0.534851
-0.993948 0.8701305 -0.5328836
-0.9866145 0.877127 -0.530073
-0.9662513 0.8754201 -0.5314783
-0.9734425 0.883912 -0.539629
-0.3038804 0.1071673 -0.5216414
-0.3158419 0.1181021 -0.5251546
-0.3088644 0.1152797 -0.5222034
-0.3222499 0.1276147 -0.5205172
-0.3164471 0.1273296 -0.5213603
-0.307654 0.1286109 -0.5205172
-0.3329655 0.1379327 -0.5261383
-0.3252545 0.1358597 -0.5244519
-0.3142399 0.1354534 -0.5255762
-0.3423994 0.1465421 -0.5289488
-0.3361441 0.1457905 -0.5267004
-0.3249317 0.1429891 -0.5230936
-0.3427554 0.1574064 -0.529511
-0.33452 0.1577546 -0.5216414
-0.3634034 0.1695052 -0.5286678
-0.3555714 0.161298 -0.5255762
-0.3438299 0.1660586 -0.5263427
-0.3622108 0.1755765 -0.5252951
-0.3542044 0.1779011 -0.5290613
-0.3628052 0.1856432 -0.5288364
-0.3539219 0.1828272 -0.5267941
-0.3828409 0.1956205 -0.5289488
-0.3866144 0.2031708 -0.5285741
-0.3743539 0.2031402 -0.5267004
-0.4014952 0.2198387 -0.5207982
-0.3942328 0.2179648 -0.5241709
-0.4086864 0.2227089 -0.5275435
-0.3945176 0.2240721 -0.5252951
-0.4160199 0.2385787 -0.5236087
-0.4079744 0.2302998 -0.5230467
-0.4156639 0.2415428 -0.5261383
-0.4341284 0.2531577 -0.5252014
-0.4220719 0.2538536 -0.529511
-0.4427554 0.2646468 -0.525014
-0.4349235 0.2658086 -0.5289488
-0.4709861 0.289647 -0.5278246
-0.4561766 0.2944627 -0.5258572
-0.509078 0.3375393 -0.529511
-0.491634 0.3323203 -0.5267004
-0.4919188 0.3417852 -0.5272625
-0.5126617 0.3568003 -0.5250141
-0.5230331 0.3631335 -0.5267004
-0.5043788 0.3639871 -0.5233277
-0.5532218 0.380092 -0.529511
-0.5368316 0.3869906 -0.526588
-0.535765 0.3948039 -0.5260873
-0.5598789 0.4112852 -0.5283867
-0.5648986 0.4289089 -0.5289488
-0.5574937 0.4237848 -0.5292299
-0.5737985 0.4354329 -0.5267004
-0.593236 0.4442959 -0.5266067
-0.6163759 0.4501157 -0.5267004
-0.6059629 0.4554406 -0.5252951
-0.5961552 0.4545263 -0.5216414
-0.6329299 0.4693283 -0.5216414
-0.6179423 0.4682371 -0.524452
-0.6380919 0.4742343 -0.5267004
-0.6187493 0.4726976 -0.5233277
-0.6288359 0.4810935 -0.5289488
-0.6569954 0.5072575 -0.5286678
-0.645639 0.5193795 -0.5269815
-0.689854 0.5362684 -0.5283867
-0.6703453 0.5381655 -0.529511
-0.6444998 0.5302899 -0.5255762
-0.7261777 0.5756509 -0.5239835
-0.7156996 0.5735794 -0.5283867
-0.6855999 0.5759513 -0.5267004
-0.7272695 0.5812652 -0.5283867
-0.7293343 0.5926738 -0.5269815
-0.7233891 0.6066927 -0.5255762
-0.7690281 0.6262621 -0.529511
-0.7559986 0.6236999 -0.5283867
-0.8061944 0.667821 -0.5210792
-0.7867569 0.6641681 -0.529511
-0.7891064 0.6773324 -0.5230467
-0.821799 0.6870888 -0.5233278
-0.8231542 0.6943588 -0.5253513
-0.8539694 0.715023 -0.5255762
-0.8650765 0.7271218 -0.525014
-0.8457814 0.7214038 -0.5272625
-0.8369882 0.720989 -0.524452
-0.858811 0.7418388 -0.524733
-0.8799573 0.751149 -0.5278246
-0.9877359 0.8782542 -0.5278246
-0.9870417 0.8800228 -0.5216414
-0.9527946 0.8942549 -0.5289488
-0.03218227 -0.195125 -0.5112423
-0.2966418 0.09614577 -0.5133971
-0.3032396 0.1067517 -0.5153176
-0.2960128 0.1026135 -0.5167698
-0.3138306 0.1173321 -0.5164418
-0.30534 0.1154573 -0.5150366
-0.3223211 0.1276147 -0.5193929
-0.316198 0.1231197 -0.5137718
-0.3056658 0.1246803 -0.5140745
-0.3372731 0.1396878 -0.5177066
-0.3251264 0.1346451 -0.5180438
-0.3155215 0.1345883 -0.5155706
-0.3364187 0.1484416 -0.5193929
-0.3238092 0.1458314 -0.5177628
-0.3488786 0.1559597 -0.5179876
-0.335194 0.1552149 -0.5161327
-0.3434081 0.1675829 -0.5158329
-0.355785 0.1738095 -0.5179876
-0.3442773 0.1734355 -0.5182687
-0.3693129 0.1863698 -0.5109612
-0.3826629 0.1983472 -0.5193929
-0.3638484 0.1971853 -0.5179876
-0.3824137 0.2012183 -0.5163013
-0.3962976 0.2108013 -0.5177066
-0.3944464 0.2281408 -0.519955
-0.4140263 0.2585023 -0.5103991
-0.4477038 0.29349 -0.5179876
-0.4914916 0.3406457 -0.5109612
-0.5123389 0.3556805 -0.517032
-0.4940904 0.3540009 -0.5167229
-0.5039516 0.3623737 -0.5185497
-0.5253115 0.3756573 -0.5185497
-0.5362763 0.3845514 -0.5193929
-0.5380563 0.3941112 -0.5157392
-0.5269491 0.3916443 -0.5185497
-0.5495906 0.4185683 -0.5151771
-0.5610893 0.4238033 -0.5150365
-0.5934497 0.4462726 -0.5160202
-0.5961552 0.4545747 -0.519955
-0.6338199 0.4685464 -0.5151771
-0.6176575 0.4668613 -0.519955
-0.6330011 0.4717483 -0.5192524
-0.6184407 0.4712738 -0.519955
-0.8061944 0.667821 -0.519955
-0.8385903 0.7242265 -0.5188308
-0.9797793 0.879499 -0.5154581
-0.04642221 -0.1803461 -0.5008432
-0.05532218 -0.1706447 -0.5064643
-0.06009256 -0.1642168 -0.5014052
-0.06867212 -0.1552498 -0.5029511
-0.27616 0.07514509 -0.5010306
-0.2822357 0.08911666 -0.5033727
-0.2940975 0.09697661 -0.5068015
-0.2890708 0.09459604 -0.5012648
-0.2756141 0.0984392 -0.500281
-0.3038982 0.1049375 -0.5039348
-0.296084 0.1055009 -0.5051996
-0.2848107 0.1041623 -0.5025296
-0.3104663 0.115955 -0.5049185
-0.3041474 0.1140998 -0.5031619
-0.2954076 0.1132047 -0.505059
-0.323128 0.1256219 -0.5034664
-0.3156728 0.1256807 -0.5076588
-0.3046715 0.1248149 -0.5045906
-0.3307227 0.1330699 -0.5087128
-0.3217753 0.1345083 -0.5064644
-0.3293699 0.1475872 -0.5059022
-0.3259797 0.1567681 -0.505859
-0.3834105 0.1923241 -0.5073075
-0.4140263 0.2584563 -0.5092749
-0.5495194 0.4196105 -0.5092749
-0.6337487 0.4702291 -0.5028106
-0.9991456 0.8739978 -0.509837
-0.9438946 0.8888462 -0.500281
-0.03438946 -0.1910921 -0.4991568
-0.04466002 -0.1767282 -0.49733
-0.06117836 -0.1645127 -0.4939573
-0.05415925 -0.1647301 -0.4974705
-0.06556846 -0.1545664 -0.4950688
-0.08507575 -0.1356494 -0.4945974
-0.07960128 -0.134128 -0.4912873
-0.09398362 -0.1261692 -0.4963462
-0.10089 -0.1192905 -0.4955031
-0.2631541 0.05797097 -0.4912872
-0.2557969 0.06410725 -0.4912872
-0.2718939 0.07533445 -0.4933951
-0.2660021 0.0757145 -0.4925239
-0.2850214 0.08408766 -0.4939573
-0.2757565 0.08742236 -0.4940978
-0.2670193 0.08595447 -0.4919297
-0.2905127 0.09553264 -0.4988757
-0.2833296 0.09612643 -0.4944044
-0.2756141 0.0984392 -0.4991568
-0.305518 0.1071573 -0.4984823
-0.2932716 0.1054118 -0.495222
-0.2883375 0.1066741 -0.4964025
-0.3028955 0.1153426 -0.4966273
-0.2952385 0.1158845 -0.4964165
-0.3239587 0.1274709 -0.4985947
-0.3043788 0.1233445 -0.4961214
-0.3288715 0.1374339 -0.494941
-0.313967 0.1411504 -0.4984073
-0.9748309 0.8841252 -0.4935357
-0.9438946 0.8888922 -0.4991568
-0.05339979 -0.1724958 -0.4828556
-0.04086864 -0.1746299 -0.4813566
-0.06112495 -0.1631842 -0.4876335
-0.06134568 -0.1534995 -0.4867903
-0.08131007 -0.1413269 -0.4865093
-0.07438336 -0.1475205 -0.4821329
-0.06651635 -0.1457545 -0.4852914
-0.08551086 -0.13417 -0.484301
-0.09392034 -0.1250597 -0.4827307
-0.08542543 -0.1257089 -0.4816751
-0.10623 -0.1123635 -0.4830664
-0.09736562 -0.1160801 -0.4828556
-0.1145959 -0.1052476 -0.4846356
-0.1057494 -0.1066232 -0.4862282
-0.1200783 -0.09846364 -0.4853851
-0.1180135 -0.09667347 -0.4828555
-0.1317195 -0.08596281 -0.4831366
-0.1243147 -0.08359078 -0.4828556
-0.2162691 0.007636036 -0.480326
-0.223306 0.01701409 -0.4807944
-0.2164471 0.01603444 -0.4808881
-0.2234247 0.0220594 -0.4808881
-0.2430046 0.03562693 -0.4842608
-0.2511214 0.04717871 -0.4834176
-0.2443653 0.04374454 -0.4817937
-0.2631541 0.05797097 -0.4896009
-0.2561196 0.05426163 -0.4833615
-0.2424588 0.05540103 -0.481825
-0.2647972 0.06506209 -0.4841095
-0.2564456 0.06522458 -0.4860409
-0.244927 0.06278287 -0.4845419
-0.2742715 0.07563262 -0.4855055
-0.264956 0.07454284 -0.4856229
-0.2548594 0.07584034 -0.483324
-0.291278 0.08949547 -0.4820124
-0.2837594 0.08501267 -0.4822934
-0.2745461 0.08445947 -0.4869777
-0.2647917 0.08500632 -0.4857036
-0.2849108 0.09435797 -0.4867101
-0.2751958 0.09454238 -0.4836284
-0.2830616 0.1050182 -0.4862844
-0.2890708 0.1126714 -0.4884767
-0.992168 0.8732843 -0.4825745
-0.9811321 0.8787419 -0.4853851
-0.9349591 0.8836989 -0.4887577
-0.9546458 0.8963884 -0.4814503
-0.04101104 -0.1765748 -0.4783586
-0.04770381 -0.164632 -0.4751265
-0.0749555 -0.1445051 -0.4769533
-0.06608915 -0.1428335 -0.4752358
-0.08173727 -0.1317914 -0.4763912
-0.07414263 -0.1366774 -0.4747986
-0.09633321 -0.1225301 -0.4761102
-0.0848904 -0.1254129 -0.4767526
-0.10089 -0.1167992 -0.474986
-0.09505755 -0.1134272 -0.4751265
-0.112451 -0.1033504 -0.4753373
-0.1039516 -0.1072802 -0.4772344
-0.1253115 -0.09490559 -0.474986
-0.1164014 -0.09356382 -0.4756685
-0.1337131 -0.08506191 -0.4710512
-0.1253827 -0.08581235 -0.4750371
-0.1428266 -0.0742094 -0.4749859
-0.1383207 -0.07276782 -0.4747451
-0.1237451 -0.07541914 -0.4721754
-0.1522962 -0.0614365 -0.4716133
-0.1465112 -0.06647707 -0.4732996
-0.1358491 -0.06727208 -0.4709387
-0.1555951 -0.05506366 -0.471707
-0.158633 -0.04440533 -0.4716133
-0.1747834 -0.03325712 -0.4720817
-0.1656105 -0.03411167 -0.4710512
-0.1850303 -0.02178768 -0.4710512
-0.1746885 -0.02438493 -0.4727375
-0.1876824 -0.01926135 -0.470489
-0.20178 -0.006358461 -0.4713322
-0.2160674 0.006719958 -0.4774218
-0.2027412 0.002904905 -0.4711917
-0.222969 0.01639433 -0.4744239
-0.2163166 0.01125797 -0.4742365
-0.2091848 0.01437355 -0.470489
-0.1999288 0.01574932 -0.4716133
-0.2305447 0.02839248 -0.4732996
-0.2230632 0.02546756 -0.4741644
-0.2149341 0.02428264 -0.4732996
-0.2066643 0.022543 -0.4725127
-0.2434318 0.03872606 -0.4719881
-0.2363475 0.03418383 -0.4747517
-0.2253293 0.03522368 -0.4721754
-0.2142257 0.03440268 -0.4727375
-0.245283 0.04651169 -0.4751466
-0.2357067 0.04509109 -0.4738617
-0.2230212 0.04389029 -0.4737681
-0.2549484 0.05784074 -0.4748454
-0.2463368 0.05432298 -0.473918
-0.2357779 0.05421201 -0.4759696
-0.2712353 0.06897861 -0.4744238
-0.2646066 0.0670139 -0.4784711
-0.2554646 0.06409127 -0.4727375
-0.2442328 0.06415809 -0.4764381
-0.2628693 0.07649747 -0.4768128
-0.2552866 0.07470611 -0.4761102
-0.2841818 0.08793807 -0.4761102
-0.2773051 0.0822252 -0.4775155
-0.2755073 0.09357584 -0.4792018
-0.2747953 0.1018779 -0.4783586
-0.9935208 0.876321 -0.4745644
-0.07314585 -0.1424653 -0.4678658
-0.0745817 -0.1315527 -0.4662732
-0.08527692 -0.1221199 -0.4667149
-0.100534 -0.1112026 -0.4671164
-0.09259523 -0.1158276 -0.4648679
-0.08577785 -0.1166812 -0.4655705
-0.1114988 -0.1010964 -0.4629005
-0.1053281 -0.1018795 -0.46543
-0.1260591 -0.09208287 -0.4666948
-0.111036 -0.09553829 -0.46365
-0.104806 -0.09387258 -0.4660724
-0.1324213 -0.08255441 -0.4666346
-0.1262134 -0.08246881 -0.46543
-0.1154612 -0.08589295 -0.4646969
-0.1401566 -0.07410266 -0.4668353
-0.134315 -0.07620364 -0.4642547
-0.1253115 -0.0754552 -0.4658048
-0.1533642 -0.06225533 -0.4657111
-0.1457885 -0.06339604 -0.4674536
-0.1356937 -0.06510241 -0.4672697
-0.1613742 -0.05403529 -0.4631816
-0.1546814 -0.05446633 -0.46543
-0.1364351 -0.05639699 -0.4647382
-0.1634135 -0.04451364 -0.4631816
-0.1524445 -0.04487187 -0.4656642
-0.1820577 -0.03122836 -0.4665543
-0.1759701 -0.03880734 -0.4665542
-0.1654681 -0.031455 -0.4640247
-0.1543739 -0.0366814 -0.463897
-0.1838377 -0.02554312 -0.4650552
-0.1733286 -0.02127283 -0.4663294
-0.1659808 -0.02345586 -0.4647554
-0.1953542 -0.01329635 -0.4662029
-0.1848641 -0.0167789 -0.4637906
-0.1746395 -0.01435454 -0.4658867
-0.2019461 -0.007353922 -0.4665543
-0.1951663 -0.004233702 -0.4636188
-0.1873135 -0.005382954 -0.4647146
-0.2103596 0.001481925 -0.4676785
-0.2055714 0.006276982 -0.4653832
-0.1937226 0.004964578 -0.4634626
-0.2224279 0.01539376 -0.4682406
-0.2152367 0.01647238 -0.4646572
-0.2068826 0.0141735 -0.4656174
-0.2327994 0.02530852 -0.4649616
-0.2275899 0.02650624 -0.4669758
-0.2145841 0.02598115 -0.4638374
-0.2048039 0.02457603 -0.4667196
-0.2444998 0.03980075 -0.4699269
-0.2326095 0.03444882 -0.4659922
-0.2253649 0.03547868 -0.4658516
-0.2142004 0.03486255 -0.4655549
-0.2459594 0.04718986 -0.4644463
-0.2355714 0.04580289 -0.4631253
-0.2252901 0.04732521 -0.4644182
-0.2508366 0.05262287 -0.465149
-0.2452652 0.05478142 -0.4683811
-0.234523 0.05498262 -0.4640248
-0.264863 0.06003511 -0.4676785
-0.245728 0.06851535 -0.4648679
-0.2778213 0.07780208 -0.4679595
-0.256052 0.0757498 -0.4658516
-0.2452296 0.07427891 -0.4641652
-0.2626557 0.08455038 -0.4669758
-0.2553934 0.08292613 -0.4688027
-0.9938056 0.8738785 -0.4662732
-0.9819153 0.884505 -0.4623384
-0.9660378 0.8899127 -0.4614952
-0.9564614 0.8928778 -0.4662732
-0.945817 0.8904118 -0.4609331
-0.06101816 -0.1454538 -0.4508151
-0.10089 -0.1141425 -0.4561552
-0.09288003 -0.1186733 -0.4586847
-0.08530913 -0.1156452 -0.4573731
-0.1001543 -0.1047662 -0.4530635
-0.09525505 -0.1037879 -0.4562756
-0.1061588 -0.0980489 -0.4562957
-0.110858 -0.08349627 -0.4559865
-0.1322179 -0.07339153 -0.4560615
-0.1246351 -0.07384221 -0.4595278
-0.145105 -0.06622705 -0.4569983
-0.1331079 -0.0654865 -0.4556633
-0.1612318 -0.05133213 -0.4558741
-0.1516198 -0.0505968 -0.4519393
-0.1452474 -0.05489381 -0.4540004
-0.1364288 -0.05361599 -0.455312
-0.1660061 -0.04521667 -0.4571232
-0.156052 -0.0464926 -0.4541878
-0.1444478 -0.0446425 -0.4571713
-0.1738934 -0.03677499 -0.456811
-0.165484 -0.03867061 -0.4553744
-0.1566175 -0.03473829 -0.4565227
-0.1804201 -0.02125338 -0.4561551
-0.1738697 -0.02694692 -0.458235
-0.1654539 -0.02528668 -0.4543002
-0.1969384 -0.01456568 -0.4550309
-0.1855069 -0.0137429 -0.4533758
-0.1768423 -0.013202 -0.455593
-0.2041474 -0.00266367 -0.4551714
-0.1953008 -0.004080649 -0.4565486
-0.1859228 -0.00269876 -0.4548302
-0.2101104 0.005573319 -0.4569983
-0.2055773 0.005130067 -0.4547498
-0.1948618 0.005913548 -0.4578415
-0.1856817 0.00423967 -0.4557055
-0.2039516 0.01360947 -0.4555368
-0.1933873 0.01408333 -0.4569983
-0.2294767 0.02235906 -0.4590594
-0.2064436 0.02867736 -0.4589657
-0.2373443 0.0380694 -0.4598089
-0.2238756 0.03583298 -0.4569046
-0.2260203 0.04344979 -0.4572538
-0.255429 0.06651169 -0.4575604
-0.2480598 0.06710352 -0.455593
-0.9813457 0.8819199 -0.4572794
-0.9797081 0.8832241 -0.455312
-0.942969 0.8867589 -0.4581226
-0.959345 0.8947042 -0.4561552
-0.945817 0.8904583 -0.4598089
-0.06108936 -0.1455022 -0.4496908
-0.1110716 -0.08261896 -0.4491287
-0.1311736 -0.07441925 -0.4444445
-0.1527234 -0.04051426 -0.4491287
-0.1438946 -0.04976612 -0.4440697
-0.1754361 -0.03050524 -0.4471613
-0.1678889 -0.03439521 -0.4465055
-0.151068 -0.03162057 -0.4450534
-0.1826985 -0.02490631 -0.4423833
-0.1661445 -0.02554735 -0.4463181
-0.158188 -0.02467005 -0.4468803
-0.1872552 -0.01129276 -0.4477234
-0.1654948 -0.01479073 -0.4468803
-0.2037024 -0.006024954 -0.4491287
-0.194482 -0.005859386 -0.4477234
-0.1810609 -0.006120072 -0.4474424
-0.2013528 0.00151715 -0.4471613
-0.1859025 0.00526543 -0.4480045
-0.2020648 0.01392286 -0.4449129
-0.194304 0.01679397 -0.4491287
-0.2199359 0.0478666 -0.4429455
-0.9801353 0.8861891 -0.4449129
-0.9451762 0.8878965 -0.4494098
-0.05382698 -0.1432715 -0.430579
-0.1312923 -0.05145026 -0.4331085
-0.1677465 -0.03083638 -0.4336706
-0.1731933 -0.02597419 -0.4387296
-0.1595586 -0.02886854 -0.4328274
-0.9678177 0.8905072 -0.4373243
-0.05382698 -0.1432715 -0.4288926
-0.1873264 0.0128564 -0.4286116
-0.9606978 0.8937556 -0.4252389
-0.856319 0.8359016 -0.2906127
-0.856319 0.8359016 -0.2894885
-0.8533286 0.8341942 -0.2709387
-0.843859 0.8319175 -0.1478359
-0.8497686 0.8331984 -0.002248454
-0.8473478 0.8302101 0.1478359
-0.7821289 0.9299303 0.1961776
-0.7851192 0.9315428 0.1956155
-0.8496262 0.8334347 0.2012367
-0.7922392 0.9296456 0.207982
-0.7831256 0.935432 0.2001124
-0.7957992 0.9486679 0.2023609
-0.7854041 0.9345794 0.2192243
-0.7911 0.9243778 0.2220349
-0.7926664 0.9325851 0.2203485
-0.791456 0.9273196 0.2366498
-0.7822713 0.9332497 0.2383361
-0.7754361 0.936618 0.2372119
-0.794126 0.926751 0.2453626
-0.7636169 0.9277461 0.2417088
-0.856675 0.8359735 0.257448
-0.795728 0.9522259 0.2591344
-0.7871128 0.9608131 0.2535132
-0.7609826 0.929407 0.2602586
-0.7947312 0.9310214 0.262507
-0.7981488 0.9498539 0.2670039
-0.799644 0.9579197 0.2698145
-0.7884656 0.9540282 0.2653176
-0.790032 0.9620475 0.2619449
-0.7893912 0.9595323 0.2743114
-0.7861872 0.943734 0.2956717
-0.798932 0.9555477 0.292299
-0.7856889 0.9559277 0.2962338
-0.7711641 0.9322539 0.3041034
-0.7637594 0.9327043 0.3057898
-0.7851192 0.9533659 0.3063519
-0.7824849 0.9399397 0.3175941
-0.7737985 0.9323488 0.3108488
-0.7971876 0.9558558 0.3147836
-0.7852616 0.9548829 0.3147836
-0.7770737 0.958133 0.3173131
-0.7786402 0.9638013 0.3159078
-0.7733713 0.9462498 0.3299606
-0.7873265 0.9523208 0.3288364
-0.7703809 0.9299303 0.3305228
-0.7682449 0.958536 0.3322091
-0.858099 0.8369927 0.3423271
-0.844927 0.8309213 0.3445756
-0.7729441 0.930213 0.3445756
-0.7517978 0.9399858 0.3456998
-0.7727305 0.9438289 0.3496346
-0.7527946 0.9454433 0.3462619
-0.7779281 0.9568751 0.3440135
-0.7788537 0.9623792 0.3490725
-0.7689213 0.9626518 0.341484
-0.7696689 0.9275582 0.35638
-0.7721609 0.9412671 0.3586285
-0.7649698 0.9428326 0.3597527
-0.7788537 0.9623792 0.351321
-0.7609113 0.9364766 0.3676223
-0.7613385 0.9393235 0.3788645
-0.7747241 0.9413155 0.3704328
-0.7658241 0.9484316 0.3754919
-0.7625489 0.9386344 0.3830804
-0.7826985 0.9454427 0.3837362
-0.7750801 0.9441624 0.3833614
-0.7634034 0.9411258 0.3880457
-0.7662157 0.9513018 0.3884205
-0.7759345 0.9495227 0.391231
-0.7631423 0.9453796 0.3962901
-0.754361 0.9428326 0.3991006
-0.7634212 0.9518346 0.3953063
-0.7753649 0.9471018 0.4030354
-0.7626202 0.9479083 0.4002248
-0.7547882 0.9455363 0.4013491
-0.7665361 0.9542668 0.4080944
-0.8567462 0.8358551 0.4325464
-0.8535422 0.827553 0.5649241
-0.8511926 0.8276714 0.5719506
-0.861303 0.8324385 0.5784149
-0.8631542 0.8318222 0.589095
-0.8534354 0.8345975 0.5850197
-0.8605909 0.8300664 0.5997751
-0.8542542 0.8332933 0.5913435
-0.8444286 0.8322971 0.5980888
-0.851335 0.8310162 0.6098932
-0.8447846 0.835144 0.6098932
-0.8536134 0.8310162 0.6115795
-0.8447846 0.835144 0.6110174
-0.862371 0.8297818 0.6256324
-0.8599502 0.8276483 0.6200113
