# .PCD v.7 - Point Cloud Data file format
VERSION .7
FIELDS x y z
SIZE 4 4 4
TYPE F F F
COUNT 1 1 1
WIDTH 326
HEIGHT 1
VIEWPOINT 0 0 0 1 0 0 0
POINTS 326
DATA ascii
0.5348166 -0.8230941 -0.3667791
0.5363474 -0.8269373 -0.3482293
0.5435149 -0.8263687 -0.3479483
0.5422571 -0.8308276 -0.334036
0.5560698 -0.8364969 -0.3310849
0.5404058 -0.8285517 -0.3378302
0.5555001 -0.8406481 -0.3215289
0.546084 -0.8330815 -0.3265879
0.5543076 -0.8341134 -0.3262367
0.5514418 -0.8407429 -0.3142215
0.563261 -0.8447275 -0.3111298
0.5460306 -0.8363695 -0.3145588
0.5517266 -0.8379909 -0.317032
0.5584193 -0.8517022 -0.3032603
0.5544729 -0.8438269 -0.3050671
0.5650587 -0.846863 -0.3060708
0.5473122 -0.8386071 -0.3091624
0.5654183 -0.8531818 -0.2935357
0.5723745 -0.8522829 -0.294688
0.5591111 -0.845318 -0.2950293
0.5668209 -0.8489501 -0.2953907
0.5708793 -0.8479539 -0.2996065
0.5872553 -0.8628975 -0.2833052
0.5657529 -0.8572522 -0.2813378
0.5778391 -0.8556864 -0.285905
0.5842751 -0.8559581 -0.2844295
0.5965468 -0.8708197 -0.2715008
0.5653257 -0.8600042 -0.2703766
0.5810609 -0.8621377 -0.2709387
0.5972232 -0.8653646 -0.2734683
0.5655038 -0.8573826 -0.2751546
0.5737273 -0.8566825 -0.2779651
0.5835351 -0.8586524 -0.2761383
0.5920968 -0.8716742 -0.262507
0.60534 -0.8743469 -0.2656924
0.5677465 -0.8611423 -0.2675661
0.5740951 -0.8641474 -0.2668166
0.5835205 -0.8661666 -0.2659819
0.5940311 -0.8676657 -0.2650366
0.5799929 -0.8704398 -0.2566049
0.5836775 -0.8730502 -0.2567454
0.5969689 -0.8753201 -0.2552799
0.605041 -0.8721482 -0.2584598
0.5745105 -0.8651513 -0.2560427
0.5868459 -0.8642502 -0.2544969
0.5733001 -0.8594345 -0.2577291
0.595016 -0.8817785 -0.2400225
0.6191171 -0.8818272 -0.2436762
0.6223567 -0.8862864 -0.2411467
0.5776433 -0.8720067 -0.2431141
0.5879673 -0.8719826 -0.2432546
0.5955002 -0.8762943 -0.2457561
0.6050078 -0.8767025 -0.2464868
0.5760769 -0.8681161 -0.2490163
0.604628 -0.8688273 -0.2464868
0.595016 -0.8817785 -0.2394604
0.6067996 -0.8826797 -0.2355256
0.6121514 -0.8835825 -0.2344014
0.5873976 -0.8760871 -0.2324339
0.5937107 -0.8788692 -0.2349635
0.6153079 -0.8795968 -0.2394604
0.6255607 -0.8916467 -0.2265318
0.6343636 -0.8958904 -0.2249476
0.5866857 -0.8815423 -0.2231591
0.5945414 -0.8831384 -0.2262507
0.60267 -0.883926 -0.2240022
0.6160485 -0.8859439 -0.2263069
0.6277323 -0.8893223 -0.2251265
0.5849769 -0.8780075 -0.2234401
0.6031328 -0.879833 -0.2209106
0.6359915 -0.9016562 -0.2116358
0.6094695 -0.8938289 -0.2107926
0.6135635 -0.8920022 -0.2116358
0.6271627 -0.8934257 -0.21543
0.5921324 -0.8862866 -0.2182406
0.6061231 -0.8868077 -0.2116358
0.6132965 -0.886902 -0.2165543
0.6239943 -0.8875186 -0.2165542
0.6388038 -0.9124252 -0.2012367
0.642791 -0.9108592 -0.202923
0.6260947 -0.9016804 -0.2061552
0.6380776 -0.904797 -0.2040472
0.6424588 -0.9030952 -0.2023609
0.596179 -0.8903818 -0.2025483
0.6058463 -0.8937233 -0.2048592
0.6151834 -0.8951328 -0.2048904
0.6244215 -0.8954571 -0.2052339
0.6365967 -0.89613 -0.2071388
0.6405838 -0.898573 -0.2093873
0.6038804 -0.8887888 -0.2050309
0.6131719 -0.8847522 -0.2085441
0.6264151 -0.883298 -0.207982
0.644393 -0.9142283 -0.1928049
0.6545746 -0.9123545 -0.1970208
0.6199359 -0.9027468 -0.1905565
0.6276967 -0.9035068 -0.197864
0.6353981 -0.9072308 -0.1965524
0.6457577 -0.908915 -0.1946787
0.5937344 -0.8900346 -0.1989882
0.6033891 -0.8955555 -0.1967397
0.6150944 -0.8950866 -0.1944913
0.6221859 -0.8977283 -0.1940416
0.5980064 -0.885052 -0.1973019
0.653471 -0.9205859 -0.1812816
0.6635814 -0.9210364 -0.1839985
0.6229263 -0.9108592 -0.1846543
0.6326807 -0.9114533 -0.1843732
0.6478462 -0.9175492 -0.1869027
0.6520826 -0.9148921 -0.1887296
0.6639017 -0.9174395 -0.1853101
0.6055536 -0.9010875 -0.1834364
0.6168317 -0.9036207 -0.1879708
0.6250217 -0.9068956 -0.183249
0.6335554 -0.9064814 -0.1866217
0.6430047 -0.9080611 -0.1894323
0.5969384 -0.8933076 -0.1871838
0.6168743 -0.8968656 -0.1885891
0.6242079 -0.899759 -0.1804384
0.6333215 -0.920917 -0.1703204
0.6476468 -0.9208128 -0.1707701
0.6565326 -0.923384 -0.1770658
0.6664649 -0.9223054 -0.1752389
0.6330842 -0.9137216 -0.1727562
0.6446779 -0.9155647 -0.1750047
0.656497 -0.9141493 -0.1750047
0.6080219 -0.9038703 -0.1793142
0.6131933 -0.9056508 -0.1742552
0.6269135 -0.9090109 -0.1798763
0.6582414 -0.9095783 -0.1742552
0.608544 -0.8992841 -0.1773468
0.6164472 -0.8996636 -0.1787521
0.6242079 -0.899759 -0.1793142
0.6358846 -0.9345329 -0.163575
0.6783909 -0.9305 -0.163575
0.6214311 -0.9217719 -0.1613266
0.6333215 -0.920917 -0.1686341
0.6454661 -0.9234722 -0.1663053
0.6556924 -0.9258326 -0.1633502
0.662727 -0.9256773 -0.1651677
0.6743147 -0.926563 -0.1673693
0.6167409 -0.9121767 -0.1654019
0.6242986 -0.9150516 -0.1636261
0.6333723 -0.9161941 -0.166225
0.6458526 -0.9155337 -0.1697583
0.6172838 -0.9080608 -0.1690556
0.6881096 -0.9453973 -0.1512085
0.6370476 -0.9324614 -0.1506464
0.6400142 -0.9300252 -0.1562676
0.6668565 -0.9339864 -0.1523328
0.6736206 -0.9330534 -0.1522204
0.6827579 -0.9359804 -0.1538318
0.6265575 -0.9238308 -0.1554806
0.6328586 -0.9236225 -0.1562676
0.6433347 -0.9272099 -0.1548367
0.6556355 -0.9238497 -0.1548061
0.6677465 -0.9271078 -0.1575323
0.6179423 -0.916553 -0.1506464
0.6270322 -0.9186727 -0.1566423
0.6571022 -0.9178097 -0.158235
0.5973656 -0.8878035 -0.1540191
0.7087932 -0.9637084 -0.1447442
0.7125667 -0.9620964 -0.1405284
0.6950414 -0.9442652 -0.144945
0.7027412 -0.9499511 -0.1475548
0.6318263 -0.9318298 -0.1495222
0.6462205 -0.933094 -0.1474611
0.6569687 -0.9347169 -0.1434795
0.6637475 -0.9367152 -0.1420274
0.6746529 -0.9347148 -0.1445569
0.6849412 -0.9381978 -0.1445334
0.6292987 -0.921297 -0.1461495
0.6348879 -0.9234793 -0.1426363
0.6538982 -0.9287687 -0.1453063
0.6632609 -0.9298354 -0.1455874
0.6860092 -0.9282717 -0.1447442
0.6179423 -0.916553 -0.1489601
0.6377358 -0.9178804 -0.1461495
0.7158419 -0.9702088 -0.133783
0.7090068 -0.9609104 -0.1304103
0.7153169 -0.9649012 -0.1359612
0.6852261 -0.9505686 -0.1306914
0.6927732 -0.9515762 -0.1319562
0.7055564 -0.956553 -0.1355559
0.6427198 -0.9422653 -0.1371557
0.658099 -0.9420291 -0.1304103
0.6618013 -0.940843 -0.1318156
0.6755073 -0.9427952 -0.1356567
0.684514 -0.9425272 -0.135891
0.6943682 -0.9475223 -0.1343451
0.6378071 -0.9370157 -0.1372494
0.6450872 -0.9367152 -0.1360315
0.6539796 -0.935278 -0.1349073
0.6663344 -0.9358767 -0.1343451
0.6738737 -0.9363147 -0.1357192
0.6282663 -0.9295043 -0.1363125
0.6345319 -0.9262066 -0.1372962
0.7076539 -0.9719157 -0.1261945
0.7139077 -0.9722879 -0.1233839
0.7250386 -0.974861 -0.1245081
0.7066572 -0.9623338 -0.1245082
0.7184051 -0.9659195 -0.1244519
0.6774475 -0.9515995 -0.1245081
0.6854112 -0.9522952 -0.1268128
0.6979708 -0.9533669 -0.1243676
0.7022428 -0.9526548 -0.1273187
0.6384478 -0.9409844 -0.1281619
0.6454661 -0.9441906 -0.1248695
0.6580278 -0.9420291 -0.128724
0.666643 -0.944543 -0.1231591
0.6779637 -0.9474845 -0.1242271
0.683202 -0.9461693 -0.1215771
0.6909577 -0.9488116 -0.1225408
0.6359559 -0.93164 -0.128724
0.6444287 -0.9366834 -0.1245082
0.6546916 -0.9368573 -0.1273589
0.6364187 -0.9275352 -0.1257729
0.6748309 -0.9289345 -0.1231029
0.7275898 -0.9829698 -0.1112985
0.7330011 -0.9809481 -0.1136594
0.699466 -0.9747142 -0.1110174
0.7030616 -0.9734342 -0.1148117
0.7163285 -0.9735527 -0.1177628
0.7227008 -0.976612 -0.1161701
0.6844192 -0.9616054 -0.112048
0.7055244 -0.9662317 -0.11508
0.7117124 -0.9675981 -0.1180438
0.6546458 -0.951885 -0.1143901
0.6621218 -0.953888 -0.1159359
0.6777501 -0.9540151 -0.1131722
0.6849176 -0.9564923 -0.1147961
0.6941497 -0.9539673 -0.1144838
0.6499822 -0.9452071 -0.1197302
0.6525454 -0.9424723 -0.1114859
0.6632153 -0.9463321 -0.113306
0.673573 -0.9477684 -0.1137343
0.6875045 -0.9480056 -0.118606
0.651335 -0.9342018 -0.118606
0.7262964 -0.9834203 -0.1068953
0.7359629 -0.9818506 -0.1065767
0.6873621 -0.9762797 -0.1003373
0.6993948 -0.9746677 -0.1032884
0.705785 -0.9767311 -0.1038505
0.7183339 -0.9768035 -0.1011804
0.7302955 -0.9779406 -0.1034289
0.6755856 -0.9621904 -0.1041034
0.685518 -0.964691 -0.1042721
0.696618 -0.9629859 -0.1049747
0.7008662 -0.9627117 -0.1034289
0.649199 -0.9506162 -0.1045531
0.6557901 -0.9533327 -0.1031077
0.6658953 -0.9532134 -0.1034992
0.6735809 -0.9544005 -0.103991
0.6877892 -0.9593921 -0.1060989
0.6951229 -0.9582632 -0.1025295
0.647419 -0.9477217 -0.10638
0.6546656 -0.9459078 -0.1038661
0.6681381 -0.9492865 -0.10905
0.6840157 -0.9420291 -0.1062395
0.7050196 -0.9910821 -0.0910624
0.7165539 -0.9905608 -0.09415402
0.6986828 -0.9801717 -0.09612142
0.706408 -0.9800764 -0.09640247
0.715566 -0.9841263 -0.09310006
0.7237689 -0.9856737 -0.09518456
0.7328587 -0.9855781 -0.09218662
0.6798149 -0.9750477 -0.0910624
0.6826155 -0.9753162 -0.09349822
0.695016 -0.9753164 -0.09743302
0.7047704 -0.9760669 -0.09921304
0.7142993 -0.9778937 -0.09452876
0.6589534 -0.9613853 -0.09443508
0.6746727 -0.9644311 -0.09568422
0.684247 -0.9675927 -0.0955593
0.6940548 -0.9665268 -0.09707701
0.7003631 -0.9663944 -0.09747049
0.6550231 -0.9567543 -0.09567173
0.6654326 -0.9566642 -0.0975267
0.6763973 -0.9584202 -0.09598089
0.6935564 -0.9597244 -0.0994941
0.6650766 -0.9448518 -0.09387296
0.7029548 -0.9933206 -0.08397976
0.6843242 -0.9811677 -0.08150646
0.696262 -0.9818312 -0.08642496
0.7047793 -0.9824955 -0.08726813
0.7153969 -0.9851286 -0.08670601
0.7212531 -0.9865985 -0.08797076
0.6760176 -0.977198 -0.08244333
0.68576 -0.974443 -0.08473862
0.6919544 -0.9721056 -0.08881394
0.7100748 -0.978462 -0.08122541
0.6628693 -0.9627124 -0.08684655
0.6740193 -0.9684534 -0.0856661
0.6804557 -0.9695436 -0.08937605
0.6593806 -0.9572574 -0.08600338
0.6708437 -0.9591546 -0.08937605
0.6948202 -0.9927893 -0.07462057
0.704355 -0.993304 -0.07326214
0.7127091 -0.9921268 -0.07700956
0.6754717 -0.980834 -0.07419899
0.6862704 -0.9835705 -0.07850853
0.6940074 -0.984504 -0.07504216
0.7057163 -0.9864736 -0.0745202
0.7130651 -0.9893748 -0.07897695
0.7208259 -0.9892799 -0.07925801
0.6736443 -0.9740824 -0.07669727
0.6875401 -0.973447 -0.07715008
0.6912246 -0.9775853 -0.07883643
0.6640797 -0.9662474 -0.07518268
0.6701317 -0.9646582 -0.07925801
0.6953186 -0.9948597 -0.06464306
0.7078676 -0.9949248 -0.06829679
0.6789249 -0.9805028 -0.06520517
0.6861635 -0.9859977 -0.06707889
0.6938056 -0.9853888 -0.06604835
0.6689925 -0.972817 -0.06070826
0.6793165 -0.9777043 -0.06885891
0.6672243 -0.9652592 -0.06717257
0.6890352 -0.9940237 -0.05452501
0.693948 -0.9982572 -0.05326026
0.6785333 -0.9831595 -0.05789769
0.6848078 -0.988817 -0.05431422
0.6929868 -0.9889947 -0.05845981
0.6692773 -0.9700185 -0.05452501
0.6660022 -0.962854 -0.05143339
0.6849412 -0.9925992 -0.04806071
0.695906 -0.9992428 -0.04187746
