# .PCD v.7 - Point Cloud Data file format
VERSION .7
FIELDS x y z
SIZE 4 4 4
TYPE F F F
COUNT 1 1 1
WIDTH 1510
HEIGHT 1
VIEWPOINT 0 0 0 1 0 0 0
POINTS 1510
DATA ascii
-0.7043788 0.8234731 -0.6781338
-0.6936846 0.8235203 -0.6773469
-0.6854396 0.8249077 -0.6765037
-0.6272695 0.8213383 -0.6756605
-0.5750801 0.8205079 -0.6767848
-0.7279459 0.836423 -0.6779089
-0.7156283 0.8364123 -0.675801
-0.6981641 0.8352319 -0.6755
-0.6772161 0.8318699 -0.675801
-0.6031328 0.8396494 -0.6790332
-0.7280883 0.8450381 -0.6738136
-0.693648 0.8458646 -0.6765439
-0.6876469 0.8435158 -0.6725689
-0.6703453 0.8403145 -0.6750984
-0.6241367 0.8416419 -0.6790332
-0.7381986 0.8525777 -0.6748173
-0.7091492 0.8545467 -0.6795953
-0.6917765 0.8529342 -0.6728499
-0.6823781 0.8534067 -0.6795953
-0.741456 0.8633462 -0.6762226
-0.7325026 0.8675442 -0.678471
-0.7205055 0.8630385 -0.6753794
-0.7112139 0.8657417 -0.6795953
-0.7336704 0.8728299 -0.6744239
-0.7145603 0.8704398 -0.6745362
-0.7380207 0.8907918 -0.6717257
-0.749733 0.900991 -0.6750984
-0.7756141 0.9115229 -0.6739742
-0.298042 0.5261155 -0.6610456
-0.2703097 0.5250477 -0.6655425
-0.2699181 0.5291039 -0.6694772
-0.3635695 0.5369237 -0.6629192
-0.3399786 0.5335628 -0.6675098
-0.2972588 0.5337286 -0.6649803
-0.2744393 0.5351051 -0.6649803
-0.3847989 0.5499772 -0.663294
-0.3733001 0.544937 -0.6625913
-0.3387682 0.544902 -0.6694772
-0.3164649 0.5486018 -0.6655424
-0.3088644 0.5476769 -0.6610456
-0.2981844 0.540964 -0.6630129
-0.2896404 0.5403478 -0.6638561
-0.3998576 0.5580431 -0.6616076
-0.373664 0.5556338 -0.6657298
-0.3649164 0.5556467 -0.6662451
-0.3258811 0.5559959 -0.6655425
-0.3177999 0.5522786 -0.6686341
-0.4020292 0.567044 -0.6618887
-0.3945532 0.5674678 -0.6634814
-0.3881097 0.5693172 -0.666292
-0.3791741 0.5629527 -0.6621698
-0.3648985 0.5615847 -0.6654488
-0.358277 0.562099 -0.6621698
-0.3276611 0.5626922 -0.6689151
-0.4035541 0.5740935 -0.6648867
-0.3946066 0.5749019 -0.6635048
-0.386745 0.5745677 -0.6648867
-0.3751751 0.5756196 -0.6661983
-0.4201495 0.5880246 -0.6686341
-0.4190815 0.5825229 -0.6613266
-0.4052179 0.5843179 -0.6643379
-0.3957138 0.5861084 -0.6665542
-0.3899608 0.5829494 -0.6689151
-0.4300463 0.5952125 -0.6610456
-0.4242364 0.5966398 -0.6637437
-0.4144535 0.5911566 -0.6616076
-0.3927851 0.5963583 -0.6636688
-0.38576 0.5983785 -0.6655424
-0.3557494 0.5958169 -0.6673692
-0.349733 0.5975127 -0.6694772
-0.4458526 0.6085668 -0.6604834
-0.4346565 0.6018482 -0.6616779
-0.4238519 0.6007856 -0.6694772
-0.415925 0.6006924 -0.6655425
-0.4036312 0.604693 -0.6655425
-0.3945888 0.6019961 -0.6672288
-0.3843717 0.6070715 -0.6627319
-0.3657174 0.6019961 -0.6616076
-0.4623472 0.6147346 -0.661795
-0.4550374 0.6140938 -0.664081
-0.4486412 0.6186718 -0.6640435
-0.4338911 0.6154696 -0.6627319
-0.4098256 0.6118642 -0.6630129
-0.3970096 0.6145453 -0.6694772
-0.3853329 0.6155049 -0.6646993
-0.3756497 0.6174542 -0.6638561
-0.352047 0.6103458 -0.663294
-0.4556782 0.6222534 -0.6624508
-0.447419 0.6248543 -0.6671351
-0.3845853 0.6273651 -0.6669477
-0.3783197 0.6294169 -0.6630129
-0.4540121 0.6351145 -0.6629567
-0.437095 0.6392851 -0.6644182
-0.408188 0.6362252 -0.6658235
-0.3862584 0.6328088 -0.6652614
-0.4753293 0.6480364 -0.663294
-0.4604486 0.6477053 -0.6661046
-0.4522606 0.6424863 -0.6672288
-0.4463368 0.6441476 -0.6629567
-0.4386615 0.6409922 -0.6618887
-0.3807049 0.6423206 -0.663294
-0.4668921 0.6588176 -0.668353
-0.4465646 0.6505278 -0.6675098
-0.4317551 0.6506703 -0.6638561
-0.4960484 0.6682231 -0.6610456
-0.4875757 0.6647599 -0.6655425
-0.465124 0.6677887 -0.6664793
-0.4338911 0.661891 -0.6672288
-0.4283375 0.6646407 -0.6604834
-0.5251335 0.6760987 -0.6610456
-0.5139551 0.6788496 -0.6627319
-0.4838305 0.6726875 -0.6634626
-0.4733891 0.6746511 -0.6618887
-0.4647205 0.6703809 -0.6689152
-0.4575294 0.6709991 -0.6655425
-0.5226771 0.6818146 -0.6618887
-0.5145959 0.6864407 -0.6642777
-0.5070844 0.6886232 -0.6651208
-0.4942328 0.6833336 -0.6656548
-0.4867747 0.6850289 -0.6635751
-0.4750089 0.6829539 -0.6652614
-0.5006942 0.6945411 -0.6677909
-0.4927732 0.6962612 -0.6661046
-0.4832325 0.6905916 -0.6661046
-0.4777501 0.6975886 -0.6661046
-0.4694197 0.695857 -0.6677909
-0.5103596 0.7022862 -0.6618887
-0.495194 0.7049026 -0.6668541
-0.4792453 0.7020717 -0.663294
-0.5349234 0.7102789 -0.6621698
-0.5185475 0.7116552 -0.668353
-0.5816305 0.7244407 -0.663294
-0.5571022 0.725673 -0.6638561
-0.5477038 0.7272875 -0.6655424
-0.5331435 0.7247483 -0.6677909
-0.5241486 0.727026 -0.6676035
-0.5934497 0.7388871 -0.6630129
-0.5854183 0.734275 -0.6680157
-0.566465 0.7381735 -0.6689151
-0.5353863 0.7354704 -0.6641371
-0.5070132 0.7348053 -0.6686341
-0.595073 0.7432981 -0.6651489
-0.5857245 0.7410449 -0.6655424
-0.5791741 0.7486114 -0.6666667
-0.6165895 0.756929 -0.6644182
-0.6070387 0.7576253 -0.6646591
-0.597152 0.7585744 -0.6655425
-0.5882342 0.7547082 -0.6649803
-0.5799217 0.7526909 -0.6616076
-0.5438946 0.758146 -0.6689151
-0.6449982 0.7668998 -0.6616076
-0.6353862 0.7654293 -0.6654019
-0.6269847 0.7641653 -0.6653818
-0.6184265 0.7649029 -0.6685778
-0.6041118 0.7646878 -0.6629426
-0.5994304 0.7657021 -0.6651208
-0.5638306 0.7617041 -0.6616076
-0.552937 0.7607567 -0.6663857
-0.6662513 0.7788073 -0.6669477
-0.6554468 0.7728297 -0.6637155
-0.6473072 0.7759712 -0.6658637
-0.6369349 0.7738733 -0.6648397
-0.6297615 0.7742777 -0.6635751
-0.6183695 0.7738028 -0.663294
-0.5911 0.7752251 -0.668353
-0.5750089 0.7741107 -0.6621698
-0.5663937 0.7748935 -0.6694772
-0.6682664 0.7844532 -0.6650366
-0.6585974 0.7896006 -0.6669477
-0.6480598 0.7838607 -0.6604834
-0.6302599 0.7885329 -0.6630129
-0.6220719 0.7822947 -0.668072
-0.59466 0.7834796 -0.6677909
-0.6808295 0.7949611 -0.6644182
-0.6721253 0.7994919 -0.6680719
-0.6614454 0.7931229 -0.6673693
-0.6529014 0.7979026 -0.6604834
-0.6426842 0.7929688 -0.6672288
-0.6342471 0.7984705 -0.6616076
-0.623045 0.7951114 -0.6666667
-0.6929749 0.8054773 -0.6658235
-0.6803845 0.8044248 -0.6652614
-0.6523081 0.802488 -0.6646056
-0.6452118 0.8065131 -0.6638561
-0.6265575 0.8064654 -0.6621698
-0.5868993 0.8008909 -0.6658235
-0.6543254 0.8174003 -0.6644182
-0.7058028 0.8244931 -0.6649803
-0.6947312 0.8297353 -0.6691961
-0.6844785 0.8267935 -0.6638561
-0.6296191 0.8226657 -0.6658235
-0.6886436 0.8368979 -0.6621698
-0.6380206 0.8306827 -0.6604834
-0.7002136 0.8470971 -0.6610456
-0.6996796 0.8443935 -0.6616076
-0.6713065 0.8457939 -0.6677909
-0.6220007 0.8432319 -0.6644182
-0.7313635 0.8692293 -0.6627319
-0.7129583 0.8624223 -0.6677909
-0.6917052 0.8658855 -0.6677909
-0.7417586 0.872242 -0.6675099
-0.7344251 0.8718156 -0.6694772
-0.6952652 0.8721467 -0.6604834
-0.7470986 0.8874933 -0.6689152
-0.7552866 0.8913836 -0.668353
-0.7582769 0.9082729 -0.6616076
-0.3423994 0.507897 -0.6503654
-0.306764 0.5151009 -0.651396
-0.2918832 0.5172679 -0.6554244
-0.2694909 0.5185246 -0.6568297
-0.3652546 0.5270397 -0.6514896
-0.3551759 0.5262892 -0.6534882
-0.3482378 0.5228887 -0.6509275
-0.296675 0.5275666 -0.6549747
-0.2702029 0.5241235 -0.6503654
-0.2634034 0.5235294 -0.6554244
-0.3755073 0.5386404 -0.6509275
-0.3653186 0.5332596 -0.6535132
-0.354183 0.5338247 -0.6571107
-0.338792 0.5331838 -0.6559865
-0.3184763 0.5353662 -0.6540191
-0.2977098 0.5324872 -0.6550497
-0.2732645 0.5328516 -0.658516
-0.3829388 0.5433599 -0.6541597
-0.3742969 0.5445544 -0.6546749
-0.3694197 0.5492661 -0.6565486
-0.3404415 0.548601 -0.6528949
-0.3358135 0.5474396 -0.6548623
-0.3154147 0.5405133 -0.6517707
-0.3073336 0.547392 -0.6512085
-0.4043432 0.5573544 -0.6551433
-0.3934496 0.5567212 -0.653979
-0.3854674 0.5560187 -0.6533633
-0.3762051 0.5555711 -0.6554244
-0.3699537 0.5520181 -0.6599213
-0.3338555 0.5540818 -0.6571107
-0.3257743 0.5532501 -0.6557055
-0.3170049 0.5555996 -0.6555182
-0.4244215 0.5656096 -0.6557055
-0.4147027 0.5663918 -0.6527076
-0.4049402 0.5650784 -0.6561595
-0.3944108 0.563475 -0.6559865
-0.3828646 0.5672064 -0.6537381
-0.3767106 0.5643851 -0.6561552
-0.3591314 0.5672219 -0.6540191
-0.3271627 0.5605332 -0.6568297
-0.4266999 0.5780383 -0.6526139
-0.415569 0.5753267 -0.652895
-0.4063012 0.5735434 -0.656127
-0.3960484 0.5751625 -0.6553541
-0.3840275 0.5749078 -0.6577666
-0.3521776 0.5748278 -0.6579539
-0.442079 0.5889744 -0.6509275
-0.4252107 0.5848585 -0.6565955
-0.4195087 0.585487 -0.6554244
-0.405283 0.5820853 -0.6547498
-0.3981488 0.5833049 -0.6551433
-0.437184 0.5963144 -0.6551433
-0.4264234 0.5943402 -0.6558542
-0.4136941 0.5916469 -0.6557992
-0.3930936 0.5946193 -0.6587971
-0.3783553 0.5912515 -0.6562676
-0.357565 0.5997192 -0.6520517
-0.3477038 0.5946547 -0.6555649
-0.4611605 0.6069776 -0.6509275
-0.4544125 0.6058044 -0.65455
-0.4461781 0.6067913 -0.6550229
-0.4301175 0.6026368 -0.653738
-0.4168031 0.6036569 -0.658235
-0.4042482 0.608725 -0.6543002
-0.3841937 0.607025 -0.6528949
-0.4711285 0.6192409 -0.6526138
-0.4618726 0.6149847 -0.6559062
-0.4536846 0.6118715 -0.6580476
-0.4455945 0.6138625 -0.6546515
-0.4322535 0.6139755 -0.6571107
-0.4033108 0.611057 -0.6523328
-0.3896048 0.6198107 -0.653457
-0.3740833 0.6139271 -0.6587971
-0.475785 0.623548 -0.6543002
-0.4640797 0.6221583 -0.6523328
-0.441723 0.6252427 -0.6548623
-0.4343183 0.625384 -0.653176
-0.4201495 0.6288239 -0.6509275
-0.3910051 0.6274163 -0.655237
-0.3777857 0.6270217 -0.6554244
-0.5047348 0.638312 -0.6509275
-0.481488 0.6367345 -0.6543002
-0.4566038 0.633774 -0.6546749
-0.4433131 0.6316465 -0.6542065
-0.4364543 0.6366512 -0.6571107
-0.4147027 0.6352047 -0.6551434
-0.4044322 0.6357853 -0.6583755
-0.3922392 0.633971 -0.6571107
-0.3845496 0.6315271 -0.6514896
-0.3792097 0.6347772 -0.6545812
-0.4990072 0.6449484 -0.6542377
-0.4855583 0.6434354 -0.6514896
-0.4761362 0.6457286 -0.6541128
-0.4603774 0.6409922 -0.6545812
-0.44534 0.642022 -0.6568859
-0.4100392 0.6468504 -0.6514896
-0.4708437 0.6578097 -0.6579539
-0.4258099 0.6519513 -0.6509275
-0.4029904 0.6542284 -0.6523328
-0.3959416 0.6540858 -0.6520517
-0.5118548 0.6684129 -0.653176
-0.4948024 0.6698131 -0.6573918
-0.4865907 0.6652978 -0.6552371
-0.4723152 0.6680096 -0.6552371
-0.4646849 0.6673456 -0.6571108
-0.4283375 0.6646895 -0.6599213
-0.5229856 0.6773791 -0.6570171
-0.5150113 0.6757819 -0.6564549
-0.5043788 0.67107 -0.6528949
-0.4964044 0.6747466 -0.6520517
-0.487718 0.6740106 -0.6565486
-0.4750018 0.6710938 -0.6573356
-0.4589178 0.6753275 -0.6557055
-0.4428266 0.67069 -0.6576729
-0.5316839 0.6840917 -0.6587971
-0.5218701 0.6834833 -0.6535507
-0.514062 0.6855469 -0.6540191
-0.497063 0.6886343 -0.6530353
-0.4836241 0.6849929 -0.6590781
-0.4677109 0.6834999 -0.6579539
-0.5683873 0.6921088 -0.6509275
-0.5512994 0.6955963 -0.6559865
-0.5172659 0.696663 -0.6571108
-0.5018868 0.6998435 -0.6526138
-0.4908508 0.6911129 -0.6512085
-0.4845853 0.693514 -0.6568859
-0.4755429 0.6902605 -0.6537381
-0.4688501 0.6932487 -0.6565486
-0.5655037 0.7052391 -0.6548623
-0.5026344 0.7036377 -0.6571107
-0.4929512 0.7022155 -0.653738
-0.5644001 0.7183448 -0.6565486
-0.5280883 0.7107055 -0.6562676
-0.5190103 0.7146919 -0.6579539
-0.4735256 0.716257 -0.6524265
-0.5932716 0.7284613 -0.6535975
-0.5830545 0.7275475 -0.6548623
-0.546885 0.7233484 -0.6573918
-0.514774 0.7262669 -0.6512085
-0.612982 0.7380322 -0.6559865
-0.6032277 0.7387912 -0.6539254
-0.5936775 0.7344553 -0.6556492
-0.5845852 0.7358027 -0.6559865
-0.5406194 0.7315812 -0.6599213
-0.5395514 0.7359452 -0.6526138
-0.50089 0.7359913 -0.6548623
-0.6132432 0.7412707 -0.6548623
-0.6051185 0.7452585 -0.6562364
-0.5965112 0.7458134 -0.6503654
-0.5867925 0.7456232 -0.6588908
-0.5764329 0.7446734 -0.6593592
-0.6332503 0.7548265 -0.6520517
-0.6245995 0.7546596 -0.6543939
-0.6174439 0.7584551 -0.6528949
-0.6061944 0.7529525 -0.6547686
-0.5969486 0.7522916 -0.6541396
-0.5854931 0.7524184 -0.6569702
-0.5792572 0.7569134 -0.6541128
-0.6534948 0.7626066 -0.6550497
-0.6458289 0.7657588 -0.6528637
-0.6372731 0.7650731 -0.6530354
-0.6263439 0.762108 -0.6558459
-0.6179423 0.7610413 -0.6573918
-0.6028718 0.7662758 -0.6593592
-0.5986472 0.7672565 -0.6568297
-0.5638306 0.7617524 -0.6599213
-0.6567461 0.7743956 -0.655565
-0.6343716 0.7744426 -0.6554244
-0.6291919 0.771762 -0.6557055
-0.5930224 0.7756046 -0.6554244
-0.6603417 0.7879038 -0.6572512
-0.6574582 0.7841454 -0.6576729
-0.6434081 0.7847137 -0.6572981
-0.6132858 0.7842678 -0.6573356
-0.5920256 0.7810598 -0.6554244
-0.6621574 0.7973329 -0.6599213
-0.6529014 0.7979491 -0.6593592
-0.6335351 0.7949928 -0.6535507
-0.6234959 0.790525 -0.6579539
-0.6533998 0.8006063 -0.6599213
-0.6432894 0.8091688 -0.6520517
-0.6247419 0.8029661 -0.6578134
-0.6466358 0.8146971 -0.6559865
-0.6367391 0.8121107 -0.6540191
-0.5830545 0.8172105 -0.6587971
-0.6469206 0.8288574 -0.6506464
-0.638519 0.8254498 -0.653738
-0.6380206 0.8307315 -0.658235
-0.69911 0.8417852 -0.653738
-0.6790317 0.8490915 -0.6520517
-0.6244927 0.8447735 -0.6562675
-0.6815948 0.8510835 -0.6514896
-0.7042364 0.8688249 -0.6571107
-0.6946956 0.86949 -0.6573918
-0.7328587 0.8777214 -0.6565486
-0.6952652 0.8721467 -0.6599213
-0.6862229 0.8881811 -0.6514896
-0.6778213 0.8813037 -0.658235
-0.7471342 0.8953447 -0.6548623
-0.3455678 0.5084757 -0.6434326
-0.3334599 0.5047196 -0.6428705
-0.3289427 0.5042459 -0.6413715
-0.363439 0.5150847 -0.6464306
-0.3482141 0.5133057 -0.6449317
-0.3201851 0.5170305 -0.6450253
-0.3079032 0.5131875 -0.6495222
-0.2955856 0.5170305 -0.6408094
-0.2853685 0.5100811 -0.6419337
-0.2684229 0.5132108 -0.6464306
-0.3913136 0.5293168 -0.6444632
-0.3841367 0.5271019 -0.6427206
-0.3751228 0.5252419 -0.6415964
-0.3669544 0.5278259 -0.6435848
-0.3565867 0.524304 -0.645233
-0.3484005 0.5229774 -0.643058
-0.3129157 0.5215327 -0.6450253
-0.298754 0.5240113 -0.6439948
-0.2747419 0.5255932 -0.6465711
-0.2634389 0.5233868 -0.6469927
-0.3917408 0.5328037 -0.6408094
-0.3845004 0.5336689 -0.6448308
-0.3752492 0.534963 -0.6436902
-0.3656834 0.5334293 -0.6444195
-0.3560309 0.5329899 -0.6442332
-0.3462086 0.5358758 -0.6451658
-0.3378426 0.5381234 -0.6464306
-0.3186187 0.5338014 -0.6408094
-0.2813101 0.5325205 -0.6419337
-0.2762549 0.5370748 -0.6498033
-0.4057553 0.5470207 -0.6417463
-0.3950081 0.5479797 -0.6437449
-0.3861715 0.5452336 -0.6426831
-0.3751157 0.542221 -0.6461495
-0.3691278 0.5450056 -0.6456437
-0.3539338 0.5461341 -0.6408094
-0.3473122 0.5455178 -0.6408094
-0.3344132 0.5461192 -0.6458685
-0.3004628 0.5481285 -0.64362
-0.2995847 0.543234 -0.6464306
-0.4157351 0.5590621 -0.6461495
-0.4047846 0.5565149 -0.6441821
-0.3940034 0.5537835 -0.6463681
-0.3849294 0.5535359 -0.6479296
-0.375887 0.5536302 -0.6464306
-0.3636881 0.5523493 -0.6450253
-0.3567818 0.5551497 -0.6453063
-0.333001 0.556667 -0.6472737
-0.3245995 0.5540344 -0.6461495
-0.3180847 0.5551729 -0.6478359
-0.3077964 0.5503572 -0.6447443
-0.4378071 0.5665349 -0.6410905
-0.4239943 0.5660063 -0.6428974
-0.4156639 0.5642381 -0.6432827
-0.4057118 0.5620435 -0.6454313
-0.392702 0.5603662 -0.648679
-0.3865551 0.5640749 -0.6454937
-0.3733357 0.5654196 -0.6424958
-0.3565682 0.5601532 -0.6422147
-0.3179067 0.5615292 -0.6439011
-0.4414382 0.5794144 -0.6464306
-0.4349591 0.5762125 -0.6430579
-0.4251513 0.5748847 -0.646009
-0.415039 0.5752847 -0.6449628
-0.4501958 0.5879781 -0.6419337
-0.4425062 0.5863458 -0.6451939
-0.4348095 0.5851693 -0.6439573
-0.427896 0.5860232 -0.6462057
-0.4163404 0.5852025 -0.6476953
-0.3535066 0.5848949 -0.6475548
-0.4508224 0.594752 -0.6442946
-0.4458171 0.5962977 -0.6445334
-0.4346565 0.59472 -0.6456577
-0.4072387 0.5952518 -0.6417463
-0.3919188 0.5947851 -0.6472738
-0.3856176 0.5927454 -0.6481169
-0.3633322 0.5969671 -0.6430579
-0.4749021 0.6060534 -0.6402473
-0.4661445 0.6068514 -0.6439011
-0.4531293 0.6045724 -0.6440697
-0.4455963 0.603965 -0.645981
-0.4368103 0.6000745 -0.6402473
-0.4241723 0.6037763 -0.6472738
-0.4027768 0.6087082 -0.6444632
-0.3806337 0.6039883 -0.6469927
-0.3661089 0.6047725 -0.6492411
-0.4703631 0.615589 -0.6457279
-0.4658508 0.6169044 -0.647344
-0.4480598 0.6147099 -0.6416526
-0.4355642 0.6127767 -0.64362
-0.396084 0.6175094 -0.6461495
-0.4852735 0.6262302 -0.6415589
-0.4787825 0.6237481 -0.6466414
-0.4568886 0.623392 -0.6419337
-0.4425418 0.6239617 -0.6431984
-0.4357067 0.6260015 -0.6489601
-0.4210039 0.6290449 -0.6445569
-0.3906016 0.6255971 -0.6492411
-0.3853329 0.6293695 -0.6453063
-0.505518 0.6377902 -0.6439947
-0.493058 0.6360228 -0.6454469
-0.4837004 0.6367195 -0.6441019
-0.4736205 0.6397832 -0.6489601
-0.4653613 0.6365098 -0.6427768
-0.4582983 0.6348392 -0.6430579
-0.3847632 0.6330457 -0.6458685
-0.3795657 0.6375765 -0.6422148
-0.5063012 0.6450899 -0.6457279
-0.4970986 0.6426468 -0.6450253
-0.4842115 0.6434416 -0.64362
-0.4749021 0.6444792 -0.6481169
-0.4614987 0.6477053 -0.6431985
-0.456319 0.6426768 -0.6458684
-0.4100392 0.6468993 -0.6498033
-0.3942328 0.6456411 -0.6441821
-0.5051383 0.6527814 -0.6432453
-0.4930224 0.6571111 -0.6453063
-0.4762549 0.6507773 -0.6426363
-0.4623176 0.6554977 -0.6462901
-0.4553222 0.6529242 -0.648398
-0.4457102 0.658316 -0.64362
-0.3961125 0.6517947 -0.6437325
-0.5349234 0.66495 -0.6424958
-0.522606 0.6672511 -0.6424958
-0.519129 0.6638746 -0.6450253
-0.5053756 0.6635502 -0.6429174
-0.4944108 0.6608928 -0.6402473
-0.4802777 0.6682705 -0.6444632
-0.4705589 0.6638192 -0.6492412
-0.4568886 0.668508 -0.648679
-0.3984336 0.6684838 -0.6413716
-0.5558135 0.6788358 -0.6435076
-0.5462869 0.6752588 -0.6420461
-0.5354716 0.6755627 -0.6430579
-0.5260592 0.6731018 -0.6469927
-0.5193307 0.6731697 -0.6447443
-0.5034888 0.6744381 -0.6455874
-0.4965468 0.6759675 -0.6447443
-0.4883589 0.6704758 -0.6408094
-0.4594517 0.6751492 -0.6423552
-0.5668209 0.6890373 -0.646009
-0.5562122 0.6849697 -0.6416526
-0.546112 0.6846823 -0.6430579
-0.5366729 0.6823366 -0.6457079
-0.5231874 0.6882197 -0.6449316
-0.5142756 0.6816248 -0.6461495
-0.5067284 0.684306 -0.6419337
-0.4988252 0.6842815 -0.6408094
-0.482556 0.6881953 -0.6453063
-0.4767533 0.6897855 -0.6498033
-0.5757209 0.6938185 -0.6408094
-0.5646455 0.6960314 -0.6441197
-0.5563309 0.6948137 -0.6441821
-0.5484514 0.6904967 -0.64362
-0.5330723 0.6922041 -0.6472738
-0.5230331 0.693105 -0.6450253
-0.5157707 0.6980633 -0.6458684
-0.5097188 0.6999848 -0.6430579
-0.4857244 0.6970914 -0.6469927
-0.4760413 0.6931999 -0.648679
-0.5712353 0.7079313 -0.6444632
-0.5693485 0.7028434 -0.6420742
-0.5552509 0.7033054 -0.6450253
-0.5140263 0.7058907 -0.6441821
-0.5090958 0.7028311 -0.6420742
-0.5912068 0.7180709 -0.6420742
-0.5835292 0.7150233 -0.6441821
-0.5713583 0.7138848 -0.6442332
-0.5620506 0.7160193 -0.6447442
-0.5206835 0.7155685 -0.6481169
-0.5117124 0.7104227 -0.648679
-0.609256 0.7262669 -0.6402473
-0.5906729 0.7251518 -0.6419337
-0.5825798 0.7241474 -0.6423084
-0.5720897 0.7224484 -0.6441821
-0.5653257 0.7239414 -0.6430579
-0.5542186 0.7217591 -0.6402473
-0.5231755 0.7288291 -0.6492411
-0.6204343 0.7366915 -0.6419336
-0.6118903 0.7346155 -0.6479764
-0.6027056 0.7341219 -0.64362
-0.5937914 0.7356694 -0.6456437
-0.5825561 0.7304412 -0.648679
-0.541545 0.7371313 -0.6469927
-0.6228052 0.7449299 -0.6446318
-0.6141688 0.7469447 -0.6454469
-0.6040726 0.7432126 -0.6454188
-0.5968435 0.7476155 -0.6477422
-0.5698825 0.7477105 -0.648679
-0.6346031 0.7555674 -0.6443929
-0.6256557 0.7536166 -0.6462432
-0.6142399 0.7528812 -0.646009
-0.6052688 0.7536866 -0.6498033
-0.596084 0.7542566 -0.6438074
-0.5898896 0.7597604 -0.6424958
-0.5783553 0.7562024 -0.6450253
-0.5610538 0.7582893 -0.6439011
-0.6453685 0.763147 -0.6481169
-0.6362228 0.7654704 -0.6468522
-0.5544322 0.7646933 -0.6427768
-0.6277679 0.7761503 -0.6430579
-0.6187255 0.776886 -0.648679
-0.6084015 0.7706243 -0.648679
-0.6208259 0.7826744 -0.646009
-0.6129109 0.7837648 -0.6481169
-0.5830545 0.78163 -0.6413715
-0.640655 0.795269 -0.6472738
-0.6416874 0.8008425 -0.6458684
-0.6560163 0.8157514 -0.6431984
-0.645372 0.8148973 -0.6426363
-0.6561766 0.8288574 -0.6413715
-0.6372137 0.8271727 -0.646618
-0.6187255 0.8267228 -0.6475548
-0.6690637 0.8354267 -0.6408094
-0.7093627 0.857961 -0.6413715
-0.6815948 0.85113 -0.6498033
-0.7139018 0.8754443 -0.6472738
-0.737273 0.8884197 -0.6478359
-0.6862229 0.8881811 -0.6498033
-0.3305269 0.4870831 -0.6327993
-0.3201139 0.4816875 -0.6320967
-0.3164115 0.4899189 -0.6306914
-0.3055002 0.4874508 -0.6319562
-0.2469206 0.483165 -0.6306914
-0.2325116 0.4873854 -0.6335723
-0.3508722 0.4949941 -0.633783
-0.345639 0.4988487 -0.6306914
-0.3360729 0.4919646 -0.6332611
-0.32344 0.4956559 -0.6325651
-0.31555 0.4932247 -0.6338955
-0.3092916 0.4902016 -0.6301293
-0.3749377 0.5062253 -0.631113
-0.3671532 0.507724 -0.6333146
-0.3535778 0.5058681 -0.6338634
-0.344056 0.5046814 -0.6341391
-0.3350226 0.5060085 -0.6335509
-0.32865 0.5051306 -0.6335644
-0.2523318 0.5093216 -0.6306914
-0.3923816 0.5177777 -0.6332209
-0.3852082 0.5171431 -0.6306914
-0.3732111 0.516453 -0.6337362
-0.3641668 0.5167562 -0.6330335
-0.3564593 0.5144781 -0.6334689
-0.3456342 0.5140231 -0.6336539
-0.3352795 0.5100327 -0.6306914
-0.3279103 0.5111004 -0.638842
-0.3150943 0.5174276 -0.6357504
-0.3066251 0.5160483 -0.6347105
-0.2971378 0.518397 -0.6350759
-0.2856533 0.5103406 -0.6343452
-0.2709327 0.5182524 -0.6319562
-0.4036312 0.5269095 -0.6318156
-0.3932202 0.525997 -0.6338142
-0.3842797 0.5255754 -0.6341578
-0.3754247 0.5258077 -0.6346262
-0.3649555 0.5250605 -0.6338392
-0.3547384 0.523435 -0.6355256
-0.3464356 0.524084 -0.6342748
-0.3127626 0.5241107 -0.6384205
-0.3043432 0.5255811 -0.6316751
-0.296262 0.5254826 -0.6331272
-0.2701317 0.526162 -0.638561
-0.263795 0.5230792 -0.6353288
-0.4110597 0.5315391 -0.6308788
-0.403827 0.5361128 -0.6344857
-0.3945122 0.5335962 -0.6341649
-0.3839739 0.5346298 -0.6355305
-0.3755035 0.5335982 -0.6346854
-0.3641391 0.5342781 -0.6343639
-0.3538685 0.5335712 -0.6340172
-0.342708 0.531594 -0.636781
-0.3346671 0.5354986 -0.6375492
-0.3117124 0.5344177 -0.6312535
-0.2977572 0.5331841 -0.636172
-0.4207547 0.5477245 -0.6320967
-0.4143982 0.5476371 -0.6336893
-0.4048732 0.5450171 -0.6358754
-0.3947906 0.5461153 -0.6353288
-0.3844429 0.5442966 -0.636172
-0.3686009 0.5430509 -0.6381394
-0.3539338 0.5461341 -0.6396852
-0.3468138 0.54497 -0.6352686
-0.3349057 0.5439168 -0.6329398
-0.3238875 0.5487439 -0.6346263
-0.3152723 0.5474638 -0.6368747
-0.4238061 0.5556638 -0.6343853
-0.4141509 0.5547157 -0.6342749
-0.4069954 0.5559553 -0.6365936
-0.3972944 0.55382 -0.6388983
-0.3849769 0.5581135 -0.6354694
-0.3740833 0.5533695 -0.6367341
-0.3457221 0.552919 -0.6365
-0.333096 0.5537729 -0.6331272
-0.3103596 0.5581135 -0.6309724
-0.309434 0.5551481 -0.6350009
-0.452047 0.5658238 -0.6301293
-0.4454966 0.5634034 -0.6323777
-0.4333215 0.5672754 -0.6354694
-0.4225276 0.5618002 -0.6347386
-0.4160606 0.5652332 -0.6365535
-0.4054824 0.5672103 -0.6381394
-0.3931648 0.5634518 -0.638561
-0.3864365 0.5633199 -0.6342046
-0.3715557 0.5625136 -0.6326588
-0.3653969 0.5683064 -0.6359378
-0.3349947 0.5620041 -0.6306914
-0.3195799 0.5640437 -0.6368747
-0.4547882 0.5771136 -0.6342046
-0.4426486 0.5747889 -0.6350009
-0.4365661 0.5741653 -0.6363929
-0.4254895 0.5746229 -0.6378115
-0.4110004 0.574457 -0.6329398
-0.3757921 0.5793195 -0.6306914
-0.455785 0.5857014 -0.6315346
-0.4451895 0.5847786 -0.6350126
-0.4336419 0.583115 -0.6375773
-0.4226178 0.5852889 -0.6383736
-0.4137202 0.5847469 -0.6350759
-0.4054112 0.5895674 -0.638842
-0.3771271 0.5892825 -0.6343452
-0.4726949 0.5949993 -0.6301293
-0.4657411 0.5953311 -0.6306915
-0.4548368 0.5934117 -0.6367725
-0.4432657 0.5939392 -0.6354694
-0.4064792 0.5952355 -0.6391231
-0.3987184 0.591805 -0.6331272
-0.3638306 0.5937293 -0.6350478
-0.3551442 0.5904601 -0.6306914
-0.484692 0.6096579 -0.6357504
-0.4750801 0.6037521 -0.6346262
-0.464952 0.6055111 -0.6346731
-0.4589534 0.6026135 -0.6318157
-0.4448084 0.6019092 -0.6391231
-0.4325857 0.6039655 -0.6359378
-0.408544 0.606811 -0.6346262
-0.50089 0.6187428 -0.6320967
-0.4940548 0.6172719 -0.6357504
-0.4854634 0.6139741 -0.6308788
-0.47731 0.6154543 -0.6341152
-0.4665955 0.6119587 -0.6371557
-0.446707 0.6148048 -0.6323777
-0.4349235 0.6119988 -0.6348135
-0.3902456 0.6183628 -0.6340641
-0.4952534 0.626128 -0.6340641
-0.4838936 0.6252252 -0.6378383
-0.4791029 0.6215665 -0.6379989
-0.4415629 0.6256106 -0.6378583
-0.4347455 0.6286342 -0.6346262
-0.4967367 0.6350123 -0.6325651
-0.4864365 0.6336583 -0.6352394
-0.4736917 0.6373032 -0.6378583
-0.466821 0.6377665 -0.6363125
-0.4559914 0.6384826 -0.6355256
-0.4439302 0.6384777 -0.6353288
-0.4220007 0.63556 -0.635638
-0.4145603 0.6356915 -0.6378583
-0.3949448 0.6331255 -0.6340641
-0.3849769 0.6346126 -0.6396852
-0.5140145 0.644954 -0.6379052
-0.5060639 0.6415535 -0.6331272
-0.491104 0.6454022 -0.6352508
-0.4859143 0.6464565 -0.6350009
-0.4740477 0.6428199 -0.638842
-0.4532574 0.6428906 -0.6329399
-0.386472 0.6433643 -0.6309724
-0.5249047 0.6545437 -0.6325384
-0.5167347 0.6548432 -0.6347992
-0.5034855 0.6548946 -0.6343196
-0.4955002 0.6549543 -0.6326588
-0.4619437 0.6542399 -0.6343452
-0.4548 0.6559362 -0.6334083
-0.4482378 0.6579162 -0.6370152
-0.4252759 0.6575734 -0.6346262
-0.3969384 0.6538251 -0.6396852
-0.553293 0.6608928 -0.6301293
-0.5439124 0.6667289 -0.6325183
-0.5359814 0.663517 -0.6330202
-0.5278137 0.6651838 -0.6333414
-0.5149875 0.6647317 -0.6372682
-0.5029548 0.6649858 -0.6315346
-0.4938413 0.6634077 -0.6363125
-0.4776789 0.6628872 -0.6301293
-0.4646137 0.6647599 -0.6346262
-0.4581702 0.6688633 -0.6306914
-0.5554147 0.6734654 -0.6365374
-0.5462442 0.6747884 -0.6375617
-0.5365814 0.6770233 -0.635911
-0.5273051 0.6712353 -0.6315346
-0.5124956 0.6730737 -0.6339235
-0.5037736 0.672908 -0.6346262
-0.4972588 0.6766675 -0.6318157
-0.4883589 0.6705242 -0.6391231
-0.4739766 0.6784467 -0.6316283
-0.4655572 0.673146 -0.638561
-0.445283 0.6778305 -0.6343451
-0.4217515 0.6778061 -0.6343452
-0.5751335 0.6840448 -0.6347668
-0.5658099 0.6834283 -0.6339517
-0.5576184 0.685699 -0.6360314
-0.5473359 0.6850201 -0.6344389
-0.5390174 0.6828825 -0.6346262
-0.5124956 0.6812693 -0.6312535
-0.506052 0.6851243 -0.6325183
-0.4977572 0.6830018 -0.6354694
-0.4888572 0.6814591 -0.6357504
-0.460591 0.6818146 -0.6346262
-0.5759447 0.6955591 -0.6348671
-0.5534354 0.6947864 -0.6343853
-0.5452474 0.6924534 -0.6364531
-0.5368103 0.6940547 -0.6379989
-0.5249555 0.695264 -0.6394042
-0.4922748 0.6914697 -0.6363125
-0.5859025 0.7048594 -0.6353991
-0.5761288 0.7051257 -0.6342686
-0.5644001 0.7052982 -0.636172
-0.5551798 0.7034595 -0.6368747
-0.5269491 0.70582 -0.6391231
-0.5144535 0.7087259 -0.6377178
-0.5089356 0.7043247 -0.6371557
-0.5903881 0.714217 -0.6363125
-0.5892998 0.715308 -0.636152
-0.5760057 0.7148575 -0.6344857
-0.5624778 0.719056 -0.6354693
-0.5555714 0.7196257 -0.6323777
-0.5260947 0.7102559 -0.6343451
-0.6040851 0.725774 -0.6349775
-0.5949448 0.7248439 -0.632715
-0.5816305 0.7210957 -0.6351883
-0.5647562 0.7213331 -0.6391231
-0.5225347 0.7265276 -0.6306914
-0.5198647 0.7207633 -0.6357504
-0.6020411 0.7335886 -0.6359378
-0.591634 0.7310575 -0.6312535
-0.6123887 0.7432511 -0.6382799
-0.5878248 0.7493225 -0.6306914
-0.6242791 0.758146 -0.6301293
-0.6156995 0.7538223 -0.6384673
-0.5984336 0.7566528 -0.638842
-0.5893912 0.7571498 -0.6382799
-0.5707369 0.753309 -0.6318157
-0.6135635 0.7692131 -0.6316751
-0.6269135 0.7720954 -0.6351883
-0.6175151 0.7715717 -0.6312535
-0.6087576 0.7737075 -0.6329399
-0.6136228 0.7832112 -0.6351883
-0.6433963 0.7989454 -0.6329398
-0.6315415 0.7975692 -0.6301293
-0.6238519 0.7936335 -0.6351883
-0.6161624 0.801982 -0.6306914
-0.6658598 0.8192509 -0.6306914
-0.6362407 0.8227141 -0.6346262
-0.6783909 0.8352137 -0.6318157
-0.6690637 0.8354267 -0.6396852
-0.6837546 0.8467178 -0.6336893
-0.6581702 0.8403605 -0.6346262
-0.6735493 0.8598117 -0.6374367
-0.7129228 0.8777214 -0.6382799
-0.705518 0.8774121 -0.6301293
-0.6232111 0.8889871 -0.6306914
-0.293948 0.4692101 -0.6219786
-0.2616115 0.4685066 -0.6213229
-0.332403 0.4756765 -0.6210231
-0.3271627 0.478888 -0.6239461
-0.3138009 0.4776385 -0.6224471
-0.3025988 0.4759698 -0.6223721
-0.2964756 0.4712254 -0.6200113
-0.2746767 0.4723885 -0.6223534
-0.2621514 0.4746617 -0.6222597
-0.253827 0.4787699 -0.6205733
-0.2468494 0.4797173 -0.6228218
-0.2337487 0.4774882 -0.6216976
-0.34555 0.4835371 -0.6226813
-0.3319331 0.4874367 -0.6236088
-0.3235043 0.4859172 -0.6242138
-0.315711 0.4843427 -0.6248453
-0.3081025 0.4856527 -0.6250703
-0.2604343 0.4835041 -0.6232153
-0.2560627 0.4867581 -0.6249954
-0.2467284 0.4825552 -0.6233839
-0.2386614 0.4847548 -0.6265693
-0.3948736 0.4948992 -0.6200113
-0.3722321 0.4974126 -0.6250703
-0.3667355 0.4963225 -0.6225969
-0.3539787 0.4962353 -0.623591
-0.3443302 0.4955604 -0.6229872
-0.3341004 0.4940472 -0.6248679
-0.3261178 0.4944634 -0.6242954
-0.316103 0.4933971 -0.6261945
-0.3093628 0.4902016 -0.6290051
-0.2888573 0.4921011 -0.6211355
-0.4009765 0.5087861 -0.62234
-0.3906586 0.5073375 -0.6230466
-0.3852775 0.5061428 -0.6245082
-0.3734446 0.5060588 -0.6239626
-0.3638867 0.5051163 -0.6238278
-0.3542279 0.5048987 -0.6239216
-0.3457886 0.5057214 -0.6250702
-0.3373087 0.5038143 -0.6272385
-0.3290614 0.5030748 -0.6261945
-0.2865077 0.5070904 -0.6211355
-0.4223804 0.5171649 -0.6203861
-0.4150231 0.5180497 -0.6200113
-0.4024398 0.5145397 -0.6236837
-0.3941705 0.5157064 -0.6242096
-0.3849645 0.5146736 -0.6243615
-0.3738787 0.5159983 -0.6255798
-0.3643673 0.5142948 -0.6243352
-0.3562762 0.5157944 -0.6253232
-0.3457992 0.5148271 -0.6255094
-0.3352083 0.5111722 -0.6253513
-0.3253827 0.5130624 -0.6246688
-0.3107868 0.5172679 -0.6211355
-0.3080456 0.5160344 -0.6254919
-0.2921324 0.5178134 -0.6264756
-0.2860804 0.511112 -0.6252108
-0.2614453 0.5158215 -0.6205733
-0.4360271 0.5296018 -0.6214165
-0.4226297 0.5275778 -0.6218849
-0.4152545 0.5265095 -0.6232434
-0.4059571 0.5254785 -0.6235245
-0.3952644 0.5250587 -0.6246315
-0.3847507 0.5253139 -0.6253679
-0.3763587 0.5243005 -0.6259837
-0.3657273 0.5229915 -0.6245756
-0.3535351 0.5268454 -0.6250703
-0.3437309 0.525741 -0.6266441
-0.3169384 0.5237246 -0.6251827
-0.3053044 0.5253719 -0.6261945
-0.2988964 0.5205885 -0.6273187
-0.4407974 0.5392566 -0.6228218
-0.4333927 0.5383068 -0.6211355
-0.4219707 0.5331665 -0.6229105
-0.4150632 0.5345595 -0.6246486
-0.4050516 0.5335039 -0.6237212
-0.3944063 0.5345921 -0.6254567
-0.3842826 0.5350223 -0.6271079
-0.3754788 0.5337436 -0.6275436
-0.3641509 0.5376786 -0.6247892
-0.3560164 0.5343464 -0.6247892
-0.3439516 0.533051 -0.6251265
-0.3328587 0.5356985 -0.6270376
-0.3189035 0.5351288 -0.6273187
-0.297387 0.5378613 -0.62552
-0.4549306 0.5412951 -0.6205734
-0.4415806 0.5493842 -0.6214165
-0.4342082 0.5450096 -0.6251214
-0.4249357 0.5445643 -0.625445
-0.4148713 0.5430415 -0.6261945
-0.4043195 0.5431145 -0.6278809
-0.392168 0.5420866 -0.625445
-0.3764685 0.548116 -0.6233839
-0.3681381 0.5443562 -0.6261945
-0.354361 0.5491712 -0.6275998
-0.346707 0.5435964 -0.6205734
-0.3389106 0.5418649 -0.6278808
-0.3246707 0.548981 -0.6295671
-0.4672125 0.5592751 -0.6222597
-0.4562596 0.5577179 -0.6240398
-0.4345319 0.5500256 -0.6216976
-0.4264863 0.55392 -0.6232153
-0.4140263 0.5546505 -0.6238055
-0.4062656 0.5543992 -0.6283306
-0.3991456 0.5510926 -0.6275998
-0.3333367 0.5563011 -0.6243476
-0.309078 0.5536618 -0.6276935
-0.4663581 0.5611504 -0.6222597
-0.4527234 0.5661834 -0.6237212
-0.4456212 0.566143 -0.6264756
-0.4369462 0.5659171 -0.6258368
-0.4264863 0.5649337 -0.6280214
-0.3738697 0.5695465 -0.6225407
-0.3661564 0.5688429 -0.6275061
-0.3338555 0.5629527 -0.6205734
-0.3107511 0.5608181 -0.6205734
-0.4636241 0.5770661 -0.6228217
-0.4550136 0.578047 -0.6248829
-0.4470986 0.5749669 -0.6270376
-0.4343182 0.5733069 -0.6267566
-0.4798149 0.5849414 -0.6200113
-0.4635102 0.5844814 -0.6247892
-0.4570025 0.5888122 -0.6267566
-0.4455963 0.582418 -0.6240584
-0.4118904 0.5830796 -0.6226813
-0.3836241 0.5893055 -0.6253513
-0.3771449 0.5870283 -0.6200113
-0.354005 0.5829005 -0.6200113
-0.4902812 0.5982879 -0.6207608
-0.4834816 0.5985507 -0.6249297
-0.4731221 0.5947714 -0.6251827
-0.4659547 0.594445 -0.6290051
-0.4567699 0.5965591 -0.6260696
-0.4359559 0.5901836 -0.6231029
-0.4203631 0.5917264 -0.6261945
-0.3993592 0.5913929 -0.6295671
-0.354361 0.5909663 -0.6290051
-0.3327875 0.5933142 -0.6225408
-0.4830367 0.6050643 -0.6250703
-0.4755587 0.6064634 -0.6273187
-0.4655275 0.6047077 -0.626944
-0.4533143 0.600493 -0.6220348
-0.4313754 0.6071128 -0.6211355
-0.4098256 0.6083062 -0.6228218
-0.5102171 0.6180549 -0.6205733
-0.504749 0.6151228 -0.6238337
-0.4930818 0.6151055 -0.6262882
-0.4846158 0.6137718 -0.626837
-0.4770381 0.6136428 -0.6286303
-0.4614454 0.6100375 -0.6261945
-0.4402278 0.6130028 -0.6214165
-0.4398006 0.6104175 -0.6247892
-0.3888216 0.6175094 -0.6278808
-0.5109469 0.6218619 -0.6232435
-0.5029548 0.6249204 -0.6261946
-0.4946957 0.6254353 -0.6254718
-0.4855109 0.6222292 -0.6228218
-0.4661445 0.6215307 -0.6252108
-0.4351608 0.6248868 -0.6214166
-0.4279815 0.6292161 -0.6252108
-0.4188679 0.6236999 -0.6261945
-0.3913136 0.6249936 -0.6225407
-0.5130562 0.6348729 -0.6247892
-0.5046636 0.6357263 -0.6256324
-0.49733 0.6352754 -0.6295671
-0.4880562 0.6319308 -0.6250703
-0.4796013 0.6319315 -0.628724
-0.4512638 0.6329275 -0.6222597
-0.4497686 0.631979 -0.6250703
-0.4257743 0.6334499 -0.6247892
-0.4132431 0.6324285 -0.6284429
-0.4066928 0.6376958 -0.6200113
-0.3955246 0.635622 -0.6262749
-0.5319093 0.6471516 -0.6220723
-0.5235553 0.6458632 -0.6260072
-0.5155334 0.6461794 -0.6229155
-0.5069658 0.6467407 -0.6265693
-0.4811321 0.6404234 -0.6267566
-0.4752759 0.6428663 -0.6274593
-0.460591 0.6442654 -0.6208544
-0.3876112 0.6425812 -0.6264756
-0.542079 0.6529589 -0.6222597
-0.5337724 0.6554699 -0.6237587
-0.524864 0.6548418 -0.6258733
-0.515842 0.655486 -0.6284429
-0.5089593 0.6547904 -0.6235713
-0.4701317 0.6558172 -0.6284429
-0.4642934 0.6531222 -0.6255387
-0.409968 0.6545851 -0.6290051
-0.5449804 0.6661298 -0.6243676
-0.5355927 0.6657892 -0.6278808
-0.5263321 0.6666814 -0.6239461
-0.5054325 0.666141 -0.6269814
-0.4943752 0.6657091 -0.6256323
-0.4735968 0.6633767 -0.6260071
-0.455607 0.6633598 -0.6200113
-0.5562122 0.6771194 -0.6202923
-0.5369645 0.6707616 -0.6291925
-0.5258693 0.6762809 -0.6265693
-0.5104545 0.6709832 -0.6235713
-0.4961374 0.675221 -0.6225408
-0.4897116 0.6786598 -0.6208544
-0.4726237 0.6765008 -0.6284429
-0.4665005 0.6752915 -0.6270376
-0.4286579 0.6725639 -0.6242271
-0.5650979 0.6840066 -0.624733
-0.555607 0.6824076 -0.6284429
-0.5450338 0.687271 -0.6292861
-0.5393142 0.6865751 -0.6275061
-0.5296191 0.6840685 -0.6271782
-0.5054111 0.6861557 -0.6239461
-0.4969741 0.6837119 -0.6241333
-0.4825205 0.6818635 -0.6205733
-0.5679423 0.696297 -0.6254919
-0.5585008 0.6926245 -0.6279611
-0.5452118 0.697933 -0.623665
-0.5333927 0.6951942 -0.6267566
-0.5223211 0.6906381 -0.6239461
-0.5174439 0.6999142 -0.6233839
-0.4768245 0.699415 -0.6211355
-0.5706657 0.7055838 -0.6284429
-0.5677465 0.7002699 -0.6216975
-0.5251454 0.7056941 -0.6261945
-0.5175507 0.7046224 -0.6271782
-0.5812744 0.715 -0.6239461
-0.5792453 0.7138019 -0.6271782
-0.5610063 0.7118287 -0.6220724
-0.5199715 0.7133161 -0.6259134
-0.5952564 0.7234498 -0.6269674
-0.5844429 0.7221386 -0.6275998
-0.5735849 0.7215937 -0.6239461
-0.562905 0.7221879 -0.6211355
-0.5303667 0.7244651 -0.6278808
-0.5208259 0.7266701 -0.6228218
-0.6019224 0.7371313 -0.6290051
-0.5650409 0.7332881 -0.6295671
-0.5878248 0.7493225 -0.6295671
-0.6242791 0.758146 -0.6290051
-0.5451406 0.7573872 -0.6278808
-0.6086152 0.7676706 -0.6283025
-0.5902457 0.7731377 -0.6261945
-0.5741545 0.7720954 -0.6259134
-0.6409398 0.7984705 -0.6214165
-0.6328231 0.7968111 -0.6265692
-0.6150231 0.7967166 -0.6222597
-0.6442862 0.8045439 -0.6219786
-0.634959 0.8044955 -0.6239461
-0.6658598 0.8192974 -0.6290051
-0.6493414 0.8313962 -0.6233839
-0.6308295 0.8315143 -0.6261945
-0.689854 0.8581997 -0.6270376
-0.6216447 0.8938033 -0.623665
-0.6145959 0.8922606 -0.6245081
-0.6335351 0.9081071 -0.6233839
-0.6237807 0.9050239 -0.6250703
-0.2724457 0.4598291 -0.6125632
-0.3322535 0.4691624 -0.6110175
-0.3251691 0.468309 -0.6115795
-0.3168031 0.4666901 -0.6136172
-0.3050196 0.4658302 -0.6132659
-0.295105 0.4682492 -0.6110175
-0.2832182 0.4650015 -0.6132659
-0.2765074 0.4663615 -0.6139302
-0.2647205 0.465563 -0.6143199
-0.2540406 0.4631142 -0.6107364
-0.2480598 0.464217 -0.6127038
-0.2332503 0.4677157 -0.6104553
-0.3632894 0.4777735 -0.6132659
-0.352937 0.4758048 -0.6163575
-0.3416162 0.4781885 -0.6134064
-0.333884 0.4760723 -0.6160764
-0.3251691 0.4758754 -0.6144214
-0.3145873 0.4754354 -0.6148942
-0.3039556 0.4738143 -0.6157954
-0.2953947 0.474405 -0.6140835
-0.2870773 0.4734638 -0.6145775
-0.2718524 0.4745081 -0.6137343
-0.2648708 0.4749234 -0.6157017
-0.2536846 0.4781214 -0.6140153
-0.2462324 0.4774099 -0.6150459
-0.2362584 0.4766878 -0.6144603
-0.3651905 0.4863601 -0.6139404
-0.3550071 0.486149 -0.6136406
-0.3447897 0.4850368 -0.6137075
-0.3341953 0.4848291 -0.6152588
-0.3253087 0.4846123 -0.615919
-0.3144504 0.483587 -0.6136747
-0.3057237 0.4848889 -0.6173256
-0.296262 0.4807851 -0.6132659
-0.2624243 0.4841481 -0.6141793
-0.2558918 0.4864417 -0.6179234
-0.246584 0.4839139 -0.6149012
-0.236531 0.4858602 -0.6161197
-0.3948736 0.4949457 -0.6183249
-0.3829002 0.4985999 -0.6157017
-0.37326 0.4963608 -0.6153738
-0.3653428 0.4946675 -0.6136931
-0.3551589 0.4960017 -0.6157277
-0.3443277 0.4943103 -0.6143901
-0.3362725 0.4958981 -0.6159285
-0.3283612 0.4932307 -0.617388
-0.3158419 0.4967503 -0.6180438
-0.2501246 0.4980542 -0.6183249
-0.2418654 0.4958242 -0.6120011
-0.4230687 0.5097965 -0.6110174
-0.4140263 0.5053359 -0.6107364
-0.402492 0.5036334 -0.6125352
-0.3951109 0.5055692 -0.6146712
-0.3851328 0.5056927 -0.6144704
-0.3767462 0.5048239 -0.6145026
-0.3652762 0.5044017 -0.614439
-0.3555672 0.5035194 -0.6159441
-0.3467833 0.5032825 -0.6165583
-0.3355998 0.502988 -0.6186762
-0.326054 0.5042452 -0.6153538
-0.432301 0.5174336 -0.6108301
-0.4238519 0.5178993 -0.6141255
-0.4149653 0.5141397 -0.6132659
-0.4037024 0.515812 -0.6149723
-0.3945821 0.5153009 -0.6153805
-0.3850222 0.5148676 -0.617865
-0.376337 0.5131722 -0.6151233
-0.3648511 0.5115672 -0.6158891
-0.3558206 0.5141955 -0.6184654
-0.3475258 0.5181624 -0.6159359
-0.3356355 0.5123094 -0.6110174
-0.3237386 0.5146172 -0.6142368
-0.313706 0.5181138 -0.6121416
-0.2968316 0.5155642 -0.6145025
-0.2857957 0.5111234 -0.6124227
-0.2782752 0.5132767 -0.6168494
-0.2576718 0.5148008 -0.6183249
-0.437629 0.5263228 -0.6140388
-0.424463 0.5239505 -0.6145307
-0.4146343 0.5253251 -0.6147793
-0.40622 0.5252838 -0.6157167
-0.3973279 0.5251077 -0.6154152
-0.3849626 0.5208208 -0.6141652
-0.3768957 0.5273249 -0.619168
-0.3548238 0.5295069 -0.6157954
-0.3422163 0.5279584 -0.6131053
-0.3272695 0.5203985 -0.6166385
-0.3126807 0.5242169 -0.6148398
-0.3049626 0.5224621 -0.6152894
-0.2989676 0.5246444 -0.6155143
-0.2630118 0.5237273 -0.6112048
-0.4447312 0.5326976 -0.613547
-0.4334334 0.5343971 -0.615153
-0.424312 0.5324759 -0.6141739
-0.4143043 0.5337393 -0.6155946
-0.4054824 0.5319663 -0.6172007
-0.3983319 0.532777 -0.6138281
-0.3877536 0.530408 -0.6183249
-0.3763617 0.5329223 -0.6129848
-0.3560935 0.5363303 -0.6157017
-0.346707 0.534453 -0.6146711
-0.3369882 0.5325205 -0.6172007
-0.3189035 0.5339428 -0.6110174
-0.2979708 0.5366229 -0.6169196
-0.4564258 0.5499066 -0.6115795
-0.4487639 0.545292 -0.6152645
-0.4338199 0.5439532 -0.6134064
-0.4275136 0.5465819 -0.617281
-0.4198647 0.5496921 -0.6183249
-0.3969384 0.5418024 -0.6172007
-0.345461 0.5432653 -0.6163575
-0.3392667 0.5444988 -0.6177628
-0.4535422 0.5556908 -0.6151129
-0.4456034 0.5563582 -0.6137344
-0.4360033 0.5537941 -0.6153894
-0.4270559 0.5545677 -0.6166385
-0.3622642 0.5528725 -0.6110174
-0.340655 0.5559547 -0.6110175
-0.3393379 0.5518037 -0.6121416
-0.463872 0.5658466 -0.6149991
-0.4540193 0.5626159 -0.6173131
-0.4444642 0.5650154 -0.6173412
-0.4337843 0.5613868 -0.6164981
-0.4292631 0.5610313 -0.6129848
-0.3662157 0.5677209 -0.6163575
-0.3578498 0.5693334 -0.6110174
-0.3181915 0.5649205 -0.6174817
-0.4740299 0.5753461 -0.6121417
-0.4647315 0.5755117 -0.6154711
-0.4539694 0.5733387 -0.618084
-0.4323959 0.5780383 -0.6121416
-0.3820577 0.5762363 -0.6110175
-0.3658953 0.5725357 -0.6146712
-0.4807761 0.5899706 -0.618606
-0.4751794 0.5852982 -0.6144789
-0.4641984 0.5869806 -0.6158891
-0.4558443 0.5840635 -0.6142027
-0.4484396 0.5845459 -0.6142027
-0.3770737 0.5870283 -0.618887
-0.3610538 0.5863172 -0.6143901
-0.3546221 0.5863329 -0.6170133
-0.4829762 0.5948564 -0.6149523
-0.4751632 0.5950465 -0.6157642
-0.4435742 0.5925556 -0.6177628
-0.4215023 0.592011 -0.6112985
-0.3997152 0.5941214 -0.618887
-0.4945861 0.6052208 -0.6138713
-0.4899964 0.6038712 -0.613828
-0.4746351 0.6025417 -0.6181844
-0.4659309 0.600881 -0.6110174
-0.4583126 0.6000989 -0.6180438
-0.4309007 0.6090417 -0.6194491
-0.5011392 0.6138562 -0.6136875
-0.4921324 0.6151848 -0.6183249
-0.4847099 0.61809 -0.6181844
-0.4339623 0.6190507 -0.613547
-0.4252047 0.6137856 -0.6145775
-0.5141242 0.6271398 -0.613828
-0.5022855 0.6245741 -0.6134907
-0.4944108 0.6232261 -0.6184373
-0.4865077 0.6240677 -0.6179033
-0.4701317 0.6234394 -0.6118606
-0.4563902 0.6288472 -0.618887
-0.4454076 0.6250405 -0.6153738
-0.4279815 0.6261079 -0.6143901
-0.5205767 0.6360229 -0.6170602
-0.5130968 0.6348224 -0.6130785
-0.503643 0.6323194 -0.6144838
-0.4736917 0.6354187 -0.613828
-0.4551442 0.6348369 -0.6160765
-0.4240655 0.6321716 -0.6145508
-0.414062 0.6315041 -0.6121416
-0.4066928 0.6377423 -0.618887
-0.3999288 0.6335447 -0.6163575
-0.5250742 0.642139 -0.6137344
-0.5145603 0.641159 -0.618606
-0.5070844 0.6456179 -0.6115795
-0.458989 0.6429855 -0.6177628
-0.4462442 0.648773 -0.6153738
-0.4013528 0.6412296 -0.6155143
-0.3929512 0.6406376 -0.6110174
-0.5325739 0.6540614 -0.6132659
-0.5263795 0.6588773 -0.614109
-0.5084372 0.6566009 -0.6145306
-0.4922748 0.6510026 -0.6174817
-0.461659 0.6572176 -0.6169196
-0.4560342 0.6588299 -0.6132659
-0.4407263 0.654893 -0.6115795
-0.4139077 0.6567502 -0.6155143
-0.3889285 0.6579046 -0.6118606
-0.5259523 0.6648312 -0.6192617
-0.5100747 0.6610119 -0.618606
-0.500534 0.6608464 -0.6124227
-0.4869348 0.6644877 -0.6148117
-0.4745105 0.6636688 -0.6136875
-0.4565088 0.663772 -0.6151396
-0.4272695 0.6693382 -0.6152333
-0.3894624 0.660705 -0.6143901
-0.5107868 0.6729428 -0.6194491
-0.4512875 0.6746985 -0.6121416
-0.4441438 0.6730865 -0.6124227
-0.5317907 0.6875549 -0.6149522
-0.4813101 0.6808504 -0.6145775
-0.5514418 0.699035 -0.6121417
-0.5411534 0.6954898 -0.6157954
-0.5318263 0.6922281 -0.6146712
-0.5233179 0.6964267 -0.6183249
-0.5144179 0.6930101 -0.6124227
-0.5071378 0.6962843 -0.611439
-0.5618014 0.7069944 -0.6157954
-0.5264792 0.7065691 -0.614615
-0.5169811 0.7020964 -0.6153738
-0.5030972 0.7083334 -0.6172007
-0.563261 0.7145181 -0.6175754
-0.5292275 0.7194824 -0.6132659
-0.5194019 0.7108719 -0.6146712
-0.5740121 0.724393 -0.6152333
-0.5648274 0.7264408 -0.6145775
-0.5260235 0.7226774 -0.6168259
-0.5579922 0.7331467 -0.6194491
-0.5075116 0.7322435 -0.6115795
-0.4954966 0.7370005 -0.614109
-0.5676041 0.7476617 -0.6194491
-0.5602705 0.7559882 -0.6166385
-0.6191171 0.7697699 -0.6166385
-0.6206479 0.7777869 -0.618887
-0.6112139 0.7767444 -0.6157954
-0.592168 0.773754 -0.6104553
-0.6543966 0.8209816 -0.6166385
-0.6205055 0.888276 -0.6115795
-0.6137415 0.8883004 -0.6166385
-0.6308295 0.8943498 -0.6115795
-0.6210751 0.891028 -0.6183249
-0.3478106 0.4575165 -0.6023047
-0.3334283 0.4584179 -0.6003373
-0.3267559 0.4576176 -0.6033888
-0.3153842 0.4565233 -0.6046335
-0.3066334 0.45682 -0.6020236
-0.294126 0.4565258 -0.6018128
-0.2822357 0.4565912 -0.6024452
-0.2764482 0.4556555 -0.604513
-0.2658598 0.4573323 -0.6029371
-0.2496262 0.4565675 -0.6020237
-0.2202919 0.4540998 -0.6008994
-0.3819865 0.4656995 -0.6023047
-0.3676753 0.4670278 -0.6010399
-0.3539745 0.4650723 -0.6012205
-0.3465527 0.4671779 -0.6008994
-0.3369259 0.4644721 -0.6053261
-0.3249181 0.4663825 -0.6053371
-0.3150667 0.4648393 -0.6043553
-0.3054468 0.4668072 -0.6036212
-0.2932283 0.4641905 -0.6052986
-0.2843823 0.4656807 -0.6036257
-0.2762644 0.4646195 -0.6061458
-0.2658986 0.4624992 -0.6056774
-0.2542039 0.462333 -0.6045696
-0.245777 0.4638937 -0.6063448
-0.2332503 0.4676673 -0.6093311
-0.3846387 0.4778445 -0.6025857
-0.376026 0.477495 -0.6019433
-0.3640072 0.474556 -0.6036475
-0.3543832 0.4755671 -0.6027262
-0.3456456 0.4747402 -0.6041472
-0.3350359 0.4752463 -0.6055147
-0.3251098 0.4731591 -0.6075041
-0.3149469 0.4744269 -0.6054164
-0.3042638 0.4750323 -0.6050937
-0.2963807 0.4757225 -0.6038973
-0.2879049 0.4728393 -0.6058881
-0.2745224 0.4728392 -0.6062396
-0.2628516 0.4772945 -0.6060521
-0.2540665 0.4780837 -0.605243
-0.2436217 0.4769273 -0.6050215
-0.235488 0.4778821 -0.6072433
-0.3930936 0.4851141 -0.6028668
-0.3833596 0.4858176 -0.6049145
-0.3743602 0.4856061 -0.6030854
-0.36431 0.4848037 -0.6053588
-0.3545969 0.4856563 -0.6060708
-0.3446998 0.4852538 -0.6053531
-0.3363902 0.4835291 -0.6047967
-0.3245995 0.4803591 -0.6068016
-0.3103595 0.4806782 -0.60371
-0.303148 0.4819954 -0.6068418
-0.295645 0.4837032 -0.6078321
-0.2626736 0.4855357 -0.605045
-0.2543539 0.4867726 -0.6060146
-0.2463065 0.4862827 -0.6058179
-0.2366514 0.4832067 -0.6064773
-0.4037074 0.4981557 -0.6053963
-0.3952907 0.4972713 -0.605316
-0.384828 0.4947166 -0.6036417
-0.3759899 0.4952476 -0.6054587
-0.3659112 0.4948354 -0.6087065
-0.3564123 0.4934532 -0.6070558
-0.3442506 0.4931819 -0.6083192
-0.3331672 0.4987104 -0.6089563
-0.2528302 0.4924682 -0.6042721
-0.2464833 0.4971017 -0.6057175
-0.2385903 0.494638 -0.6058179
-0.4161717 0.5044926 -0.6056895
-0.4062608 0.5047573 -0.6037849
-0.3945681 0.504854 -0.6066112
-0.3864008 0.502811 -0.6060207
-0.3782892 0.5027408 -0.6058781
-0.3632373 0.5050094 -0.6074573
-0.3568708 0.5023119 -0.6056774
-0.3363653 0.5052173 -0.6065205
-0.322511 0.500956 -0.6087689
-0.3089356 0.5081356 -0.6076447
-0.2447134 0.5020976 -0.6021641
-0.4237636 0.5161865 -0.6055087
-0.4150855 0.5147968 -0.6060287
-0.405688 0.5148852 -0.6069577
-0.3951673 0.5130926 -0.6072232
-0.3847099 0.5152747 -0.603429
-0.3774297 0.5153841 -0.6068578
-0.3550018 0.5139219 -0.6053963
-0.3419188 0.5195445 -0.6055368
-0.3373443 0.5119302 -0.6070827
-0.3259345 0.517671 -0.6072232
-0.314418 0.5156546 -0.6037099
-0.3001068 0.5146585 -0.6023047
-0.2927732 0.5179083 -0.6031479
-0.2789012 0.513322 -0.6038037
-0.2577786 0.5114085 -0.6025857
-0.4258755 0.5241575 -0.6055738
-0.4145603 0.5224029 -0.6058881
-0.4063063 0.5217372 -0.6074842
-0.3997627 0.5228733 -0.6085817
-0.3859025 0.5210864 -0.608769
-0.3732645 0.5248183 -0.6061458
-0.3552866 0.5290332 -0.6014615
-0.3425927 0.5262976 -0.6047539
-0.3248606 0.5227788 -0.6040847
-0.3119971 0.5246677 -0.6082069
-0.30534 0.5236127 -0.6065205
-0.2988964 0.5224138 -0.6070826
-0.2636525 0.5247398 -0.6093311
-0.4359433 0.5323857 -0.6061568
-0.4271436 0.5329175 -0.6063476
-0.4126201 0.5354844 -0.6053963
-0.4092987 0.5336394 -0.6061833
-0.38665 0.5305029 -0.6065205
-0.3766465 0.5311196 -0.6065205
-0.3530527 0.5335929 -0.6058882
-0.3444246 0.5334477 -0.6051464
-0.3364899 0.5303141 -0.6087689
-0.2961908 0.5339428 -0.6028668
-0.4449106 0.5443179 -0.607861
-0.4265219 0.5415803 -0.6017426
-0.41068 0.5415338 -0.6011804
-0.3755785 0.5473201 -0.6070826
-0.3606088 0.5414857 -0.6027263
-0.4447609 0.5543661 -0.603991
-0.4361458 0.5577736 -0.6065205
-0.3622642 0.552919 -0.6093311
-0.3428694 0.5578437 -0.6070827
-0.3085084 0.556857 -0.6073637
-0.4595942 0.5646369 -0.6085442
-0.4435742 0.5609848 -0.6079258
-0.434361 0.5635174 -0.6038224
-0.3533879 0.5687009 -0.60727
-0.3423282 0.5688828 -0.6034289
-0.4648719 0.5718061 -0.6054666
-0.3510502 0.5745405 -0.6034289
-0.4698469 0.5813601 -0.6037099
-0.4555833 0.5819517 -0.6083943
-0.353649 0.588665 -0.6045531
-0.4720541 0.5925789 -0.6098932
-0.4653613 0.5980582 -0.6070826
-0.406408 0.5910845 -0.6062394
-0.3856889 0.5962318 -0.6020236
-0.3622642 0.5935272 -0.6052557
-0.4658597 0.6009294 -0.6093311
-0.4319687 0.6090647 -0.6034289
-0.4032277 0.6157462 -0.6031479
-0.3744393 0.6129309 -0.6008994
-0.4877892 0.628064 -0.6062394
-0.4575649 0.6291551 -0.6070826
-0.4235493 0.6267959 -0.6051152
-0.5042364 0.6305555 -0.6093311
-0.4660733 0.6358219 -0.6059584
-0.4349591 0.6321458 -0.6014615
-0.4285511 0.637601 -0.6025857
-0.4154503 0.63919 -0.6096121
-0.3933429 0.6368898 -0.6053963
-0.3864008 0.6378616 -0.6034289
-0.4684941 0.6487499 -0.6045531
-0.453115 0.6462027 -0.6065206
-0.3976267 0.6409056 -0.6085817
