# .PCD v.7 - Point Cloud Data file format
VERSION .7
FIELDS x y z
SIZE 4 4 4
TYPE F F F
COUNT 1 1 1
WIDTH 392
HEIGHT 1
VIEWPOINT 0 0 0 1 0 0 0
POINTS 392
DATA ascii
-0.4124557 0.7164954 -0.470292
-0.3848282 0.720031 -0.4733132
-0.375407 0.7244503 -0.4733132
-0.3576152 0.7301956 -0.4763343
-0.3559407 0.7054469 -0.4632427
-0.4687593 0.7242294 -0.4682779
-0.4130836 0.7290907 -0.4652568
-0.4036645 0.7335101 -0.4652568
-0.4974396 0.7425699 -0.4642498
-0.07001682 0.6515302 -0.4501511
-0.09953019 0.6669981 -0.4592145
-0.4116184 0.7041211 -0.4561934
-0.3565687 0.7182631 -0.4541793
-0.3473588 0.7184842 -0.4551863
-0.4028272 0.7211358 -0.4572004
-0.3854541 0.7328472 -0.4561934
-0.089481 0.6718594 -0.4410876
-0.40199 0.7089824 -0.4420947
-0.3839889 0.7083195 -0.4420947
-0.3276832 0.7039001 -0.4420947
-0.2050248 0.7067727 -0.4451158
-0.4402945 0.7187051 -0.4461229
-0.4306661 0.719147 -0.4471299
-0.2908418 0.7213567 -0.4441088
-0.04218005 0.6632416 -0.4320242
-0.2427015 0.7023534 -0.4300101
-0.2339102 0.7160535 -0.4330312
-0.06059556 0.6669981 -0.4229607
-0.04301522 0.6760579 -0.4239678
-0.3737325 0.7003646 -0.429003
-0.3463123 0.7065518 -0.4229607
-0.3743625 0.7129599 -0.4269889
-0.2433294 0.7149487 -0.4269889
0.1403445 0.6283284 -0.4169184
-0.01182733 0.6334107 -0.4189325
-0.001780222 0.6338526 -0.4169184
-0.09848362 0.6555077 -0.4189325
-0.08864583 0.6599271 -0.4169184
-0.0597604 0.6546238 -0.4169184
-0.0710613 0.6773837 -0.4118832
-0.03254949 0.6707546 -0.4169184
-0.03317743 0.6833499 -0.4108761
-0.3289391 0.7297536 -0.4169184
-0.3756163 0.7383714 -0.4199396
-0.3477775 0.7317423 -0.4199396
0.1411817 0.6157331 -0.4058409
0.1397165 0.6411446 -0.4028198
-0.2328637 0.7041211 -0.4048338
0.2016737 0.5724229 -0.3917422
0.2313964 0.5702133 -0.3917422
-0.01245527 0.6466689 -0.3957704
-0.1459981 0.6727433 -0.3957704
-0.1468374 0.6851177 -0.3977845
-0.3000537 0.720031 -0.3917422
0.2207213 0.5788311 -0.3897281
-0.01078285 0.6214783 -0.3856999
0.2307684 0.5832505 -0.3766364
0.1039237 0.6018119 -0.3726082
0.01810258 0.6113136 -0.3796576
0.1032958 0.6144072 -0.3705942
-0.5943481 0.5406032 -0.3615307
0.1591849 0.6376091 -0.367573
0.1690206 0.6371672 -0.3695871
-0.04092207 0.6526351 -0.3615307
0.1585549 0.6504254 -0.367573
0.0009408696 0.5980555 -0.3534743
0.07420102 0.6283284 -0.3252769
0.8078491 0.8534968 -0.3111782
0.8097329 0.8285272 -0.30715
0.8088956 0.8411225 -0.3021148
0.7170065 0.8645453 -0.306143
0.6669782 0.8711745 -0.3041289
0.6975402 0.8700696 -0.3031219
0.6550493 0.8877472 -0.3031219
0.6653058 0.8961441 -0.3091641
0.7783357 0.8409016 -0.2900302
0.7890108 0.8477516 -0.2990937
0.7477779 0.85195 -0.2980866
0.6558866 0.8755938 -0.2950655
0.748613 0.8400177 -0.286002
0.6985868 0.8579162 -0.2839879
0.7180531 0.852613 -0.2829809
0.7285188 0.8546017 -0.2870091
0.7586601 0.8510662 -0.2809668
0.7774985 0.8534968 -0.284995
0.6663523 0.8839907 -0.2870091
0.7188903 0.8400177 -0.2789527
0.6577705 0.8510662 -0.2739174
0.6682362 0.859463 -0.2708963
0.6569332 0.8634405 -0.2799597
0.636839 0.8716164 -0.2719033
0.696075 0.8957021 -0.2708963
0.6843534 0.9018893 -0.2708963
0.7795916 0.8289692 -0.2628399
0.6385135 0.8470887 -0.2638469
0.627627 0.8504032 -0.2608258
0.6862372 0.8771406 -0.2618328
0.6360017 0.8844327 -0.2638469
0.6351644 0.897028 -0.2688822
0.02145371 0.5768424 -0.2588117
0.7498689 0.8283063 -0.2537764
0.6251153 0.8879682 -0.2588117
0.6854 0.8899569 -0.2507553
0.6971216 0.8837698 -0.2598187
0.6906329 0.8146061 -0.2487412
0.67012 0.8349354 -0.2497482
0.6692848 0.8475307 -0.244713
0.6378877 0.859905 -0.2497482
0.6872838 0.8652083 -0.2416918
0.6590242 0.8393548 -0.2396777
0.6881211 0.852392 -0.2346425
-0.02103718 0.513203 -0.1923464
0.06624706 0.4844769 -0.1309164
0.223861 0.5730858 -0.1369587
0.1683926 0.5315435 -0.1238671
0.1763466 0.5556292 -0.1289023
0.2642588 0.5613744 -0.12286
-0.02961908 0.5090045 -0.1107754
0.1700672 0.5065739 -0.1188318
0.2548396 0.5567341 -0.1158107
0.1537406 0.460833 -0.1007049
0.114806 0.4716606 -0.1007049
0.03819889 0.4853607 -0.1037261
0.03736163 0.4977351 -0.102719
0.1709044 0.4946415 -0.102719
0.009104144 0.5048061 -0.1057402
0.1796956 0.5061319 -0.1037261
-0.05808379 0.5101094 -0.1057402
0.2347454 0.5653519 -0.1057402
0.1947663 0.571981 -0.1097684
0.1248552 0.4652525 -0.09566969
0.1441121 0.4707767 -0.09768379
0.05724443 0.483593 -0.09365559
0.08550402 0.4842559 -0.09365559
0.09513249 0.4827091 -0.09164149
0.0001036108 0.4919898 -0.09365559
-0.04761805 0.5001657 -0.09063444
-0.01936266 0.5032593 -0.09466264
-0.0007336481 0.5045851 -0.09768379
0.1694392 0.5198321 -0.09365559
0.1782304 0.5315435 -0.09466264
0.2661426 0.5372887 -0.09063444
0.2066972 0.5428129 -0.09264854
0.2364199 0.5403823 -0.09667674
0.2558883 0.5448017 -0.09164149
0.205232 0.5677826 -0.09264854
0.2251169 0.5618164 -0.09365559
0.1164826 0.4471329 -0.08761329
0.01203455 0.4553088 -0.081571
0.1156453 0.4597282 -0.08660624
0.1449494 0.4588443 -0.081571
0.0681309 0.461054 -0.08257805
0.05787447 0.4712186 -0.08962739
0.08634127 0.4723235 -0.08761329
0.09596975 0.4703348 -0.08459215
0.171951 0.4827091 -0.08660624
0.009943496 0.4928737 -0.0835851
0.1805329 0.4941995 -0.08056395
0.1972781 0.5353 -0.08459215
0.1966501 0.5478953 -0.08056395
0.2259542 0.5492211 -0.08660624
0.2653053 0.549663 -0.08862034
0.2853996 0.5450227 -0.08660624
0.2355827 0.5534195 -0.08862034
0.2845623 0.5573969 -0.08459215
0.195815 0.5600486 -0.0835851
0.1474612 0.4215004 -0.07653575
0.08717853 0.4597282 -0.07854985
0.09680701 0.4581814 -0.0735146
0.1734162 0.4579605 -0.07854985
-0.01789746 0.4789526 -0.0775428
0.06729364 0.4736493 -0.07653575
0.1727882 0.4705558 -0.0735146
-0.04657357 0.4882334 -0.0715005
-0.02794456 0.4851398 -0.0775428
0.0009408696 0.4800574 -0.07452165
-0.05703931 0.4986189 -0.07250755
-0.04824809 0.512982 -0.0795569
0.1981153 0.5231466 -0.0775428
0.2060693 0.5558502 -0.0715005
0.05892105 0.4595072 -0.06344411
0.1259018 0.453762 -0.06847936
0.1830447 0.4572975 -0.06042296
0.01161592 0.468346 -0.06646526
0.1822074 0.4694509 -0.06344411
-0.05620205 0.4862446 -0.06847936
-0.01852749 0.4915479 -0.06545821
0.02836319 0.4948624 -0.06344411
0.2975398 0.5211579 -0.06747231
0.1776004 0.5445807 -0.06847936
0.08885305 0.4354215 -0.05035247
0.1753 0.4338747 -0.05135952
0.09764427 0.4460281 -0.05840886
0.1549965 0.4495636 -0.05236657
0.1838819 0.4444813 -0.05941591
0.03003561 0.4698928 -0.05639476
0.01098798 0.4811623 -0.05438067
-0.02836319 0.498177 -0.05438067
0.2276287 0.5246934 -0.05740181
0.2270008 0.5372887 -0.05538771
0.2569328 0.5333112 -0.05538771
0.1861844 0.4073583 -0.04229607
0.1853492 0.4199536 -0.04431017
0.06980541 0.4369683 -0.04330312
0.1558338 0.4371893 -0.04128902
0.1847192 0.4323279 -0.04431017
-0.02543278 0.4486797 -0.04229607
0.03171013 0.4455861 -0.04330312
0.1269483 0.4418296 -0.04833837
0.1459981 0.4473539 -0.04531722
0.1744628 0.44647 -0.04531722
0.03087497 0.4577395 -0.04833837
-0.04573631 0.47608 -0.04934542
-0.02689799 0.4738703 -0.04330312
0.2085811 0.5191692 -0.04229607
0.2383038 0.5169594 -0.04733132
0.2079531 0.5315435 -0.04531722
0.2969119 0.534637 -0.04431017
0.2071159 0.3865871 -0.03726083
0.1778118 0.3969727 -0.03021148
0.1485077 0.41001 -0.03423968
0.1761373 0.4219423 -0.03726083
0.1177385 0.4363054 -0.03021148
0.003661961 0.4433764 -0.03323263
0.06917746 0.4497845 -0.03423968
0.0882251 0.4482378 -0.03625378
-0.01664157 0.4672412 -0.03323263
0.04029204 0.4619379 -0.03826788
0.03945478 0.4747542 -0.03121853
0.02940767 0.4829301 -0.03726083
0.2673985 0.5260192 -0.03222558
0.2874906 0.5213789 -0.03423968
0.2866555 0.5337532 -0.03927492
0.1870217 0.3954259 -0.02517623
0.09931879 0.4219423 -0.02719033
0.1185757 0.4237101 -0.02719033
0.1277877 0.4296763 -0.02719033
0.1566689 0.4248149 -0.02517623
0.0141277 0.4323279 -0.02215509
0.06080488 0.4356425 -0.02517623
0.09869084 0.4347586 -0.02416918
0.1470425 0.4354215 -0.02416918
-0.01517636 0.4424925 -0.02114804
-0.01580431 0.4548669 -0.02215509
0.003034017 0.4564137 -0.02114804
-0.02585141 0.4619379 -0.02114804
0.002198851 0.468788 -0.02819738
0.2399783 0.4924318 -0.02920443
0.239141 0.5045851 -0.02920443
0.2588145 0.5094464 -0.02416918
0.2682358 0.5136449 -0.02819738
0.2376779 0.5299967 -0.02517623
0.1200389 0.3989615 -0.01711984
0.1495543 0.3980775 -0.01309164
0.2064858 0.3996243 -0.01711984
0.1294601 0.4051486 -0.01611279
0.01496496 0.4199536 -0.01309164
0.07168924 0.4124406 -0.01309164
0.1575083 0.4126616 -0.01409869
0.1771839 0.41001 -0.01510574
0.06164214 0.4232681 -0.01812689
0.07085198 0.4250359 -0.01913394
0.03254739 0.4340957 -0.01208459
0.04175724 0.4376312 -0.01812689
0.04112929 0.4504475 -0.01208459
0.2096276 0.5074577 -0.01208459
0.2581887 0.5222628 -0.01510574
0.2089976 0.3627223 -2.88658e-15
0.1547882 0.3866976 -0.006042296
0.1583455 0.4002873 -0.006042296
0.1003654 0.41001 -0.004028197
0.119413 0.4117777 -0.006042296
0.1286228 0.4177439 -0.009063444
0.0425945 0.4254779 -0.007049345
-0.0143391 0.4301182 -0.007049345
0.01349975 0.4451442 -0.009063444
0.06038625 0.4486797 -2.88658e-15
0.2598632 0.4972931 -0.003021148
0.2297239 0.5010496 -0.003021148
0.2692803 0.5017125 -0.005035247
0.2290939 0.5136449 -0.003021148
0.2081624 0.3753176 0.003021148
0.1210875 0.3870291 0.009063444
0.1788584 0.3854823 0.005035247
0.1880661 0.3834935 0.001007049
0.03443122 0.409568 0.008056395
0.0725265 0.4007292 0.009063444
0.03359606 0.4219423 0.002014099
0.09010894 0.424373 0.004028197
0.004710628 0.4321069 0.001007049
0.2322336 0.4634847 0.004028197
0.1805329 0.3607336 0.01711984
0.2182095 0.3700144 0.01208459
0.07336376 0.3883549 0.01208459
0.1311346 0.3806209 0.01007049
0.007010996 0.3954259 0.01812689
0.1302994 0.3934372 0.01409869
0.01580221 0.4084632 0.01510574
0.06268871 0.4117777 0.01208459
0.2121394 0.4701138 0.01007049
0.2313964 0.476301 0.01007049
0.2307684 0.4891172 0.01510574
0.1319719 0.3686886 0.02517623
0.1608573 0.3636062 0.02517623
0.1600201 0.3759806 0.02517623
0.1891148 0.3715611 0.02416918
0.006383052 0.4080212 0.02719033
0.09115761 0.4128826 0.02920443
0.2330709 0.4513313 0.02114804
0.2412342 0.4813833 0.02819738
0.1905821 0.3465915 0.03222558
0.07420102 0.3762015 0.03121853
0.1221341 0.3755386 0.03826788
0.179905 0.3737709 0.03625378
0.01684879 0.3965308 0.03323263
0.005545794 0.4208375 0.03323263
0.1514361 0.3746547 0.04128902
0.04531559 0.3894597 0.04531722
0.09283003 0.3881339 0.04632427
0.0354778 0.3980775 0.04028197
0.1336464 0.3441609 0.05337362
0.1815795 0.3494641 0.05941591
0.1330206 0.3567562 0.05035247
0.1619018 0.3516738 0.05236657
0.1899521 0.3598498 0.05135952
0.1522754 0.3627223 0.05438067
0.09366938 0.3759806 0.05337362
0.1030864 0.3739918 0.05840886
0.04468764 0.402055 0.05840886
0.153952 0.3381947 0.06747231
0.09450455 0.3638272 0.06344411
0.1039237 0.3616175 0.06445116
0.04615285 0.3773064 0.06545821
0.03631296 0.3861452 0.06747231
0.06457254 0.3883549 0.06747231
0.06373528 0.4007292 0.06042296
0.09220208 0.4011711 0.0694864
0.04406179 0.4148713 0.06143001
0.2422807 0.4698928 0.06646526
0.134693 0.3322285 0.07653575
0.1627411 0.3399624 0.0755287
0.104761 0.3492432 0.0755287
0.09534181 0.3514529 0.07250755
0.153322 0.3510109 0.0795569
0.03798958 0.3618385 0.0775428
0.04699011 0.365153 0.07854985
0.12339 0.3642691 0.0795569
0.8428047 0.4261408 0.0755287
0.1242272 0.3521158 0.08962739
0.075459 0.365374 0.08660624
0.09639047 0.3395205 0.09566969
0.1058075 0.3370898 0.09667674
0.04803668 0.3534416 0.09869084
0.06645638 0.3640482 0.09063444
0.7538459 0.4000663 0.09063444
0.09701633 0.3275881 0.101712
0.1357374 0.3205171 0.1077543
0.07629417 0.3534416 0.1057402
0.03736163 0.3748757 0.1057402
0.06561912 0.3768644 0.101712
0.07797078 0.328693 0.1137966
0.0681309 0.3397415 0.1148036
0.07713143 0.3412883 0.1107754
0.06729364 0.3523368 0.1168177
0.0980629 0.3156557 0.1278953
0.1066448 0.3255994 0.12286
0.1261111 0.32803 0.1278953
0.03987341 0.3379737 0.1208459
0.04887394 0.3415092 0.1278953
0.1252717 0.3406253 0.1278953
0.03903405 0.35079 0.1238671
0.07880595 0.3165396 0.1329305
0.06896815 0.32803 0.1389728
0.06980541 0.3156557 0.141994
0.04992051 0.3293559 0.1450151
0.09994673 0.29157 0.1550856
0.09910738 0.3039443 0.1530715
0.1083193 0.3015136 0.1530715
0.05075777 0.3172025 0.1570997
0.100784 0.2794167 0.164149
0.07985251 0.3050492 0.1661631
0.07085198 0.3041653 0.1742195
0.0725265 0.2794167 0.1863041
0.07168924 0.2920119 0.1852971
0.08069187 0.2931168 0.1822759
0.1079007 0.3149928 0.1852971
0.07336376 0.2672633 0.1903323
0.08236429 0.2681472 0.1943605
0.08152703 0.2809634 0.1943605
0.7188903 0.4922108 0.2970796
0.6418625 0.4628218 0.509567
0.6975402 0.3982985 0.5156093
