# .PCD v.7 - Point Cloud Data file format
VERSION .7
FIELDS x y z
SIZE 4 4 4
TYPE F F F
COUNT 1 1 1
WIDTH 1459
HEIGHT 1
VIEWPOINT 0 0 0 1 0 0 0
POINTS 1459
DATA ascii
-0.5759305 -0.8263175 -0.8026183
-0.6278405 -0.8090819 -0.8076535
-0.6550515 -0.793614 -0.8086606
-0.6077463 -0.7993592 -0.8076535
-0.6885397 -0.7805767 -0.8026183
-0.689379 -0.7682024 -0.8066465
-0.7431729 -0.7531765 -0.8066465
-0.8497141 -0.7463264 -0.8016113
-0.7109385 -0.7408021 -0.8046324
-0.7375215 -0.7377086 -0.8066465
-0.817689 -0.7206938 -0.8056395
-0.7712211 -0.7226826 -0.8006042
-0.7720605 -0.7100873 -0.8046324
-0.8714849 -0.7032372 -0.8006042
-0.8264802 -0.6840128 -0.8026183
-0.8806927 -0.6579384 -0.8096676
-0.854319 -0.6592641 -0.8046324
-0.934068 -0.6475527 -0.8036254
-0.9009962 -0.6464479 -0.8056395
-0.9824197 -0.6106508 -0.8016113
-0.9556274 -0.6115347 -0.8016113
-0.9633699 -0.5945199 -0.8026183
-0.9562553 -0.5984974 -0.8026183
-0.4599701 -0.9942548 -0.7945619
-0.431924 -0.9984532 -0.7985901
-0.3766629 -0.9916031 -0.796576
-0.4266912 -0.9772401 -0.7905337
-0.4836227 -0.94078 -0.7985901
-0.4842527 -0.9279637 -0.796576
-0.4639471 -0.9200088 -0.7935549
-0.4922067 -0.9060877 -0.7945619
-0.6305616 -0.8702906 -0.7995972
-0.731242 -0.8537178 -0.7995972
-0.7318699 -0.8406806 -0.7945619
-0.5439053 -0.8495194 -0.7985901
-0.5164851 -0.8435532 -0.7915408
-0.4955536 -0.8439952 -0.7925478
-0.5445353 -0.8367031 -0.7985901
-0.6270033 -0.8216771 -0.7995972
-0.6604936 -0.8097448 -0.7995972
-0.6879138 -0.7925091 -0.7945619
-0.6345386 -0.7949398 -0.7915408
-0.6284664 -0.7956027 -0.7915408
-0.6016762 -0.7896365 -0.7975831
-0.6865523 -0.7571539 -0.7970796
-0.71722 -0.7403602 -0.7985901
-0.690635 -0.7425699 -0.7935549
-0.7908967 -0.7237874 -0.796576
-0.7379401 -0.7242294 -0.7935549
-0.7645209 -0.7162744 -0.7935549
-0.7982248 -0.7080985 -0.7975831
-0.765151 -0.7032372 -0.7915408
-0.7923619 -0.6985968 -0.7925478
-0.7726863 -0.697492 -0.7975831
-0.7929919 -0.6855596 -0.7905337
-0.8536911 -0.6714175 -0.7995972
-0.8461558 -0.6787095 -0.7995972
-0.8268988 -0.6709756 -0.7905337
-0.8733667 -0.6643465 -0.7925478
-0.8467837 -0.6654513 -0.7925478
-0.907485 -0.6466689 -0.796576
-0.9016242 -0.6331897 -0.7935549
-0.8819507 -0.6325268 -0.7985901
-0.3699648 -0.9909402 -0.7875126
-0.4325499 -0.9856369 -0.7895267
-0.4813202 -0.9790078 -0.7834844
-0.4331779 -0.9730417 -0.7865055
-0.4827854 -0.9531543 -0.7824773
-0.3444284 -0.948072 -0.7804632
-0.5732115 -0.9361396 -0.7885196
-0.5738373 -0.9235443 -0.7865055
-0.4329685 -0.8610098 -0.7834844
-0.5981178 -0.8534968 -0.7824773
-0.5711163 -0.8530549 -0.7895267
-0.4681334 -0.8453209 -0.7895267
-0.4400831 -0.8488565 -0.7804632
-0.5717442 -0.8397967 -0.7814703
-0.517113 -0.8307369 -0.7895267
-0.4687593 -0.8327256 -0.7875126
-0.6596584 -0.8216771 -0.7875126
-0.5236039 -0.8272014 -0.7824773
-0.5764538 -0.8128383 -0.7854985
-0.517741 -0.8176997 -0.7854985
-0.600839 -0.8020108 -0.7804632
-0.5524852 -0.8099657 -0.7844914
-0.6609123 -0.7964866 -0.7844914
-0.6290964 -0.7823445 -0.7854985
-0.608165 -0.78588 -0.7865055
-0.5811654 -0.7867639 -0.7824773
-0.6357945 -0.7693073 -0.7814703
-0.6297244 -0.7693073 -0.7814703
-0.7101012 -0.7529555 -0.7875126
-0.7636858 -0.7288697 -0.7844914
-0.7444288 -0.726881 -0.7844914
-0.8208287 -0.6557286 -0.7834844
-0.8811113 -0.6444592 -0.7865055
-0.854947 -0.645785 -0.7804632
-0.9279978 -0.6307591 -0.7834844
-0.908115 -0.6340736 -0.7895267
-0.9286258 -0.6179428 -0.7865055
-0.9359518 -0.6093249 -0.7854985
-0.9365798 -0.5967296 -0.7834844
-0.9843014 -0.571539 -0.7814703
-0.9916295 -0.5600486 -0.7875126
-0.9922575 -0.5472323 -0.7844914
-0.4040831 -0.9971274 -0.776435
-0.348824 -0.9845321 -0.7794562
-0.3739407 -0.9780135 -0.7774421
-0.4103625 -0.8850956 -0.7734139
-0.43862 -0.8736051 -0.776435
-0.4036645 -0.8771406 -0.7713998
-0.382733 -0.8789084 -0.7734139
-0.5974899 -0.8663131 -0.7774421
-0.4599701 -0.866976 -0.776435
-0.439248 -0.8612308 -0.776435
-0.4640528 -0.8557066 -0.7759315
-0.4882276 -0.8497404 -0.7794562
-0.6588191 -0.8336095 -0.7774421
-0.4961816 -0.8309579 -0.7774421
-0.55165 -0.8218982 -0.775428
-0.573628 -0.800685 -0.7744209
-0.5805354 -0.7991382 -0.7794562
-0.6824717 -0.771075 -0.776435
-0.6554701 -0.778809 -0.7744209
-0.6055474 -0.7742791 -0.7724068
-0.6563073 -0.7653298 -0.7794562
-0.7689186 -0.7589217 -0.7713998
-0.6630054 -0.7589217 -0.7774421
-0.6569374 -0.7516297 -0.7774421
-0.6364225 -0.756491 -0.775428
-0.7902688 -0.7352779 -0.7774421
-0.6642613 -0.7337311 -0.7703928
-0.8181076 -0.7069937 -0.7784491
-0.8193614 -0.6811402 -0.7784491
-0.773105 -0.6842338 -0.7734139
-0.8275267 -0.6579384 -0.776435
-0.8281547 -0.6453431 -0.7703928
-0.9346959 -0.6340736 -0.7794562
-0.9351145 -0.6214783 -0.7703928
-0.9087409 -0.6205944 -0.7734139
-0.9020428 -0.6194896 -0.7724069
-0.8823673 -0.6190476 -0.7724069
-0.9292516 -0.6044636 -0.7734139
-0.9828383 -0.5967296 -0.7734139
-0.9637907 -0.5808198 -0.7774421
-0.9566739 -0.5847973 -0.7713998
-0.9855594 -0.5456856 -0.776435
-0.3448481 -0.9979008 -0.7663646
-0.2914718 -0.9975693 -0.7623364
-0.4603887 -0.9805546 -0.7633434
-0.342126 -0.9862999 -0.7633434
-0.3201479 -0.9882886 -0.7653575
-0.3138685 -0.9840901 -0.7643505
-0.4610146 -0.9681803 -0.7603223
-0.3712207 -0.9639819 -0.7663646
-0.3726859 -0.9383494 -0.7673716
-0.3800119 -0.9284057 -0.7693857
-0.3733138 -0.9253121 -0.7623364
-0.4030365 -0.8897359 -0.7673716
-0.375407 -0.8862004 -0.7623364
-0.4109926 -0.8722793 -0.7673716
-0.4116184 -0.859905 -0.7673716
-0.6046087 -0.8475307 -0.7693857
-0.461226 -0.8406806 -0.7603223
-0.4333872 -0.8473097 -0.7653575
-0.5229738 -0.8389128 -0.7673716
-0.4888556 -0.8364822 -0.7693857
-0.5449519 -0.822561 -0.7673716
-0.5242298 -0.8139432 -0.7663646
-0.630143 -0.756049 -0.7693857
-0.6837276 -0.7450005 -0.7643505
-0.7174251 -0.7264391 -0.7613293
-0.6648913 -0.7209148 -0.7623364
-0.7448475 -0.7136228 -0.7673716
-0.7454754 -0.7010275 -0.7633434
-0.7655696 -0.6890951 -0.7623364
-0.8199914 -0.667882 -0.7653575
-0.8472024 -0.6517512 -0.7693857
-0.8553656 -0.6325268 -0.7603223
-0.9644186 -0.5675616 -0.7633434
-0.9926761 -0.5339742 -0.7633434
-0.2851923 -0.992708 -0.7583082
-0.2920997 -0.9847531 -0.7562941
-0.3427539 -0.9725997 -0.7532729
-0.3144943 -0.9708319 -0.75428
-0.4819461 -0.9650868 -0.7593152
-0.3433818 -0.9600044 -0.7573011
-0.3718507 -0.9507236 -0.7512588
-0.3791746 -0.9398962 -0.7502518
-0.3521731 -0.9213347 -0.7512588
-0.3739418 -0.9122749 -0.7583082
-0.3812678 -0.9029942 -0.75428
-0.3745676 -0.8990167 -0.7593152
-0.431924 -0.8725003 -0.75428
-0.4042924 -0.8636615 -0.7562941
-0.383361 -0.8656502 -0.755287
-0.4049204 -0.8506243 -0.7562941
-0.5501848 -0.8457629 -0.75428
-0.6052346 -0.8344934 -0.7532729
-0.6058625 -0.8221191 -0.7532729
-0.4966002 -0.8176997 -0.7573011
-0.46918 -0.8188046 -0.7522659
-0.6066998 -0.8097448 -0.7532729
-0.5455799 -0.8090819 -0.7583082
-0.5248577 -0.800906 -0.7573011
-0.5529059 -0.7962656 -0.755287
-0.5462078 -0.7958237 -0.7522659
-0.6349573 -0.7807977 -0.7512588
-0.5740467 -0.7869849 -0.7502518
-0.5817913 -0.7730638 -0.75428
-0.6060718 -0.7611314 -0.7583082
-0.663424 -0.7456635 -0.7573011
-0.630773 -0.7423489 -0.7512588
-0.6843555 -0.7317423 -0.7532729
-0.7111478 -0.7259971 -0.7502518
-0.6908442 -0.7286488 -0.7593152
-0.7180552 -0.7136228 -0.7562941
-0.6916815 -0.7160535 -0.7593152
-0.6849834 -0.7189261 -0.755287
-0.7383566 -0.7098663 -0.7502518
-0.8185262 -0.6932936 -0.7593152
-0.7986413 -0.6939565 -0.755287
-0.7735236 -0.6709756 -0.75428
-0.7940364 -0.6581593 -0.7532729
-0.9091595 -0.6073362 -0.7573011
-0.9834662 -0.5834714 -0.7593152
-0.9372056 -0.5830295 -0.7562941
-0.9573019 -0.571539 -0.7583082
-0.9303003 -0.5783891 -0.7532729
-0.9650465 -0.5549663 -0.7583082
-0.2345382 -0.9975693 -0.7462236
-0.3492427 -0.97039 -0.7421954
-0.3205665 -0.9748094 -0.7432024
-0.3818958 -0.8901779 -0.7442095
-0.3247549 -0.8996796 -0.7472306
-0.3837796 -0.8528339 -0.7411883
-0.4122464 -0.8464258 -0.7462236
-0.5508127 -0.8329467 -0.7421954
-0.4402945 -0.8347144 -0.7401813
-0.4340151 -0.8333886 -0.7432024
-0.5181596 -0.8033366 -0.7462236
-0.4972281 -0.8046625 -0.7442095
-0.5746746 -0.7735057 -0.7401813
-0.6368411 -0.7425699 -0.7432024
-0.6098416 -0.7469893 -0.7442095
-0.6579819 -0.7253342 -0.7482377
-0.7186831 -0.7008066 -0.7482377
-0.6921002 -0.7032372 -0.7482377
-0.6862394 -0.6924097 -0.7442095
-0.7461013 -0.6882113 -0.7482377
-0.7193111 -0.6882113 -0.7421954
-0.793197 -0.6707546 -0.7442095
-0.7467313 -0.675616 -0.7482377
-0.821038 -0.6411446 -0.7421954
-0.847621 -0.6378301 -0.7462236
-0.9024614 -0.6055685 -0.7482377
-0.9845128 -0.5573969 -0.7442095
-0.993304 -0.520495 -0.7401813
-0.986608 -0.5189482 -0.7432024
-0.3128219 -0.9955806 -0.7301108
-0.3446377 -0.933046 -0.7321249
-0.3525917 -0.9085184 -0.7381672
-0.409316 -0.8959231 -0.7391742
-0.353431 -0.8961441 -0.735146
-0.3253808 -0.8866423 -0.7311178
-0.3758256 -0.8722793 -0.7361531
-0.3846168 -0.8400177 -0.735146
-0.4128743 -0.8336095 -0.7361531
-0.4892742 -0.8221191 -0.7381672
-0.4622726 -0.8137223 -0.7301108
-0.4899021 -0.8090819 -0.7301108
-0.4978561 -0.7918462 -0.7361531
-0.5535338 -0.7830074 -0.7361531
-0.5466264 -0.7821235 -0.7321249
-0.5254856 -0.7878687 -0.7391742
-0.5541617 -0.7704121 -0.7311178
-0.5259042 -0.7752734 -0.7331319
-0.637469 -0.7299746 -0.7381672
-0.6854021 -0.704784 -0.7311178
-0.6653079 -0.7069937 -0.7301108
-0.79906 -0.6809192 -0.735146
-0.7130316 -0.6864435 -0.7301108
-0.7659882 -0.674953 -0.735146
-0.7199369 -0.675395 -0.7361531
-0.7741515 -0.6579384 -0.7371601
-0.873576 -0.6490995 -0.7371601
-0.801151 -0.6435753 -0.7391742
-0.8748319 -0.6230251 -0.7331319
-0.8827859 -0.6053475 -0.7381672
-0.9296724 -0.5903215 -0.7381672
-0.9097875 -0.594299 -0.735146
-0.8834138 -0.5923102 -0.7311178
-0.8762971 -0.5973926 -0.7301108
-0.9104154 -0.5817037 -0.7361531
-0.9376263 -0.5695503 -0.7331319
-0.9577205 -0.557618 -0.7381672
-0.9654652 -0.5414872 -0.7321249
-0.985978 -0.5313225 -0.7381672
-0.263005 -0.9949177 -0.7270896
-0.3504985 -0.9447575 -0.7220544
-0.3452657 -0.9197879 -0.7210473
-0.2649945 -0.9042095 -0.724572
-0.3266367 -0.8610098 -0.7210473
-0.3197272 -0.8656502 -0.7240685
-0.3764535 -0.8590211 -0.7250755
-0.3553128 -0.8581372 -0.7270896
-0.3770836 -0.8462048 -0.7291037
-0.405339 -0.8364822 -0.7260826
-0.4616446 -0.8263175 -0.7250755
-0.4344337 -0.8199094 -0.7291037
-0.4695986 -0.8053254 -0.7280967
-0.4415504 -0.8090819 -0.7250755
-0.5753025 -0.7602475 -0.7230614
-0.5472523 -0.7688653 -0.7240685
-0.5822099 -0.7595846 -0.7291037
-0.6571425 -0.7361618 -0.7200403
-0.6380969 -0.7167164 -0.7200403
-0.7394053 -0.6829079 -0.7220544
-0.7400332 -0.6703126 -0.7220544
-0.7136596 -0.6731853 -0.7200403
-0.7996879 -0.668103 -0.7280967
-0.7666162 -0.6619158 -0.7240685
-0.7944551 -0.6444592 -0.7260826
-0.7672442 -0.6490995 -0.7200403
-0.8742061 -0.6358414 -0.7291037
-0.828364 -0.631201 -0.7280967
-0.8482468 -0.6243509 -0.7291037
-0.8216659 -0.6276655 -0.7220544
-0.8557863 -0.6183847 -0.7230614
-0.8289919 -0.6183847 -0.7200403
-0.8754598 -0.6097669 -0.7260826
-0.8564122 -0.6057894 -0.7210473
-0.9309282 -0.564468 -0.7230614
-0.9110413 -0.5688874 -0.7230614
-0.9583485 -0.5441388 -0.7210473
-0.1141822 -0.9714949 -0.715005
-0.3496613 -0.9569108 -0.7160121
-0.3511244 -0.9321622 -0.7129909
-0.2106763 -0.9067506 -0.7109768
-0.2939836 -0.8855375 -0.7165156
-0.3544755 -0.8702906 -0.715005
-0.3191013 -0.8786874 -0.7180262
-0.2981699 -0.8709535 -0.7180262
-0.3479868 -0.867418 -0.7109768
-0.3486147 -0.8543807 -0.713998
-0.3274718 -0.8484145 -0.7160121
-0.4409225 -0.8214562 -0.7190332
-0.4059649 -0.8232239 -0.7160121
-0.3850334 -0.8265385 -0.7160121
-0.4629005 -0.8002431 -0.7160121
-0.4905301 -0.7956027 -0.7170191
-0.5192062 -0.7761573 -0.7119839
-0.498484 -0.778367 -0.7129909
-0.5545804 -0.7571539 -0.7119839
-0.5478823 -0.7558281 -0.713998
-0.5826285 -0.7465473 -0.713998
-0.7115664 -0.7114131 -0.7109768
-0.7121923 -0.6985968 -0.7160121
-0.7471499 -0.6619158 -0.7190332
-0.7745702 -0.6446801 -0.715005
-0.8486676 -0.6110927 -0.713998
-0.9028822 -0.5916473 -0.7170191
-0.9658817 -0.528008 -0.7109768
-0.9667211 -0.5156336 -0.7109768
-0.1125077 -0.9971274 -0.7039275
-0.09157623 -0.9843111 -0.7059416
-0.1146009 -0.9580157 -0.7019134
-0.150603 -0.9489559 -0.7069486
-0.1154402 -0.9451994 -0.7049345
-0.1746742 -0.9164733 -0.7009063
-0.2365256 -0.8978013 -0.7059416
-0.2115136 -0.8941553 -0.7059416
-0.1826281 -0.8961441 -0.7009063
-0.2690751 -0.882223 -0.7039275
-0.2910531 -0.8738261 -0.7069486
-0.2987957 -0.8581372 -0.7079557
-0.3777094 -0.8327256 -0.7079557
-0.4132929 -0.8199094 -0.7039275
-0.4700172 -0.7918462 -0.7019134
-0.5185761 -0.7889736 -0.7099698
-0.6102581 -0.7330682 -0.7079557
-0.6309782 -0.7275439 -0.7039275
-0.6584005 -0.712076 -0.7099698
-0.6385156 -0.7034582 -0.7049345
-0.738568 -0.6950613 -0.7029204
-0.6925188 -0.6893161 -0.7079557
-0.6931467 -0.6764998 -0.7039275
-0.686658 -0.6780466 -0.7069486
-0.7203577 -0.6616948 -0.7059416
-0.7406632 -0.6568335 -0.7069486
-0.8220825 -0.6139653 -0.7039275
-0.7955016 -0.6170589 -0.7029204
-0.8495048 -0.5976135 -0.7079557
-0.8767178 -0.5832505 -0.7019134
-0.9587671 -0.5306596 -0.7059416
-0.9596044 -0.5178433 -0.7099698
-0.964 -0.07921777 -0.7019134
-0.1444282 -0.9987847 -0.6943605
-0.09073897 -0.9960225 -0.6908358
-0.06185354 -0.9949177 -0.6928499
-0.09220418 -0.9714949 -0.694864
-0.08529679 -0.9661916 -0.6968781
-0.09283213 -0.9591205 -0.694864
-0.2029317 -0.9253121 -0.6998993
-0.1520703 -0.9235443 -0.6978852
-0.232445 -0.911612 -0.6998993
-0.209837 -0.918462 -0.6928499
-0.2389338 -0.9082974 -0.693857
-0.2895879 -0.8994586 -0.6908358
-0.2684472 -0.8941553 -0.6988922
-0.3536362 -0.882002 -0.6988922
-0.2623771 -0.8866423 -0.693857
-0.3471495 -0.8793504 -0.6908358
-0.3257994 -0.8727213 -0.694864
-0.2632143 -0.8738261 -0.693857
-0.3203572 -0.85195 -0.6978852
-0.3557314 -0.8444371 -0.6978852
-0.3563572 -0.8318418 -0.6918429
-0.3856634 -0.8135013 -0.694864
-0.4348503 -0.8057673 -0.6998993
-0.4139188 -0.8073141 -0.6978852
-0.4421784 -0.7956027 -0.6978852
-0.4909487 -0.7816816 -0.6908358
-0.4706452 -0.778809 -0.6908358
-0.4915766 -0.7688653 -0.6908358
-0.6029321 -0.7469893 -0.6968781
-0.5757211 -0.7461054 -0.693857
-0.5552062 -0.7438957 -0.6978852
-0.60356 -0.7337311 -0.6958711
-0.5763491 -0.7332891 -0.6998993
-0.604188 -0.7209148 -0.6958711
-0.5838823 -0.7211358 -0.6998993
-0.6588191 -0.6992598 -0.6978852
-0.6391435 -0.6906419 -0.6958711
-0.6663544 -0.6806983 -0.6958711
-0.6870766 -0.6650094 -0.693857
-0.8001065 -0.6546238 -0.6998993
-0.7477779 -0.6486576 -0.6988922
-0.7948737 -0.6303171 -0.6958711
-0.7749867 -0.6314219 -0.6958711
-0.7676628 -0.6349575 -0.694864
-0.8013625 -0.6296542 -0.6998993
-0.8019904 -0.6170589 -0.6968781
-0.8568308 -0.5925312 -0.6958711
-0.903508 -0.5781682 -0.6978852
-0.9114619 -0.5549663 -0.693857
-0.9541622 -0.1163407 -0.6918429
-0.9809545 -0.1092697 -0.6978852
-0.9290465 -0.09247597 -0.6968781
-0.1194151 -0.9907193 -0.6858006
-0.05599273 -0.9801127 -0.6868076
-0.08592474 -0.9529334 -0.6888217
-0.09346007 -0.9463043 -0.6898288
-0.1512309 -0.9356977 -0.6898288
-0.08655477 -0.9398962 -0.6898288
-0.1811629 -0.9200088 -0.6807653
-0.1736276 -0.9286267 -0.6837865
-0.1455794 -0.9219975 -0.6837865
-0.1231849 -0.9288477 -0.6898288
-0.2035596 -0.9120539 -0.6878147
-0.1238107 -0.9160314 -0.6807653
-0.1817909 -0.9078555 -0.6898288
-0.2339102 -0.8853166 -0.6898288
-0.2119322 -0.8808972 -0.6868076
-0.1759301 -0.8899569 -0.6858006
-0.2916811 -0.8605679 -0.6888217
-0.2667737 -0.8648768 -0.6858006
-0.3278925 -0.8344934 -0.6858006
-0.3498706 -0.8274224 -0.6837865
-0.3781281 -0.8188046 -0.6847935
-0.3571966 -0.8192465 -0.6878147
-0.4063856 -0.8090819 -0.6868076
-0.5263208 -0.7613524 -0.6898288
-0.5196248 -0.7617943 -0.6817724
-0.5202528 -0.7485361 -0.6837865
-0.5830472 -0.7328472 -0.6837865
-0.5558363 -0.7310795 -0.6858006
-0.610886 -0.7198099 -0.6888217
-0.611514 -0.7074357 -0.6878147
-0.6657265 -0.6928516 -0.6868076
-0.6937726 -0.6630207 -0.6807653
-0.7140782 -0.6586013 -0.6858006
-0.7410798 -0.6433543 -0.6888217
-0.8260616 -0.6024749 -0.6847936
-0.8026183 -0.6040217 -0.6878147
-0.8836231 -0.5779472 -0.6817724
-0.8574588 -0.579494 -0.6847935
-0.9311376 -0.550105 -0.6898288
-0.960023 -0.5043641 -0.6847935
-0.9625348 -0.1037454 -0.6878147
-0.1131357 -0.9829853 -0.6797583
-0.08424813 -0.9783449 -0.6767372
-0.05662068 -0.9664125 -0.6717019
-0.1439049 -0.9474092 -0.6747231
-0.1447422 -0.9345928 -0.6777442
-0.116694 -0.9180201 -0.672709
-0.2401897 -0.8828859 -0.6747231
-0.241029 -0.8705115 -0.6787512
-0.270331 -0.8561485 -0.673716
-0.3490333 -0.8400177 -0.6757301
-0.2992164 -0.8442161 -0.6767372
-0.3207758 -0.838029 -0.673716
-0.3504985 -0.8143852 -0.6767372
-0.4354803 -0.7918462 -0.6747231
-0.4986933 -0.7642249 -0.673716
-0.5483009 -0.741465 -0.6717019
-0.5769771 -0.719589 -0.673716
-0.6322361 -0.7005855 -0.6706949
-0.6048138 -0.7072147 -0.6747231
-0.6121419 -0.6943984 -0.6797583
-0.6594471 -0.6857806 -0.6767372
-0.6328641 -0.6877693 -0.6767372
-0.6127678 -0.6815822 -0.672709
-0.660075 -0.6729643 -0.6717019
-0.6669824 -0.667661 -0.6787512
-0.7207763 -0.6477737 -0.6706949
-0.7481965 -0.6353994 -0.6757301
-0.7682907 -0.6214783 -0.6787512
-0.8497141 -0.5834714 -0.672709
-0.9039266 -0.5640261 -0.6717019
-0.8771344 -0.5691084 -0.6747231
-0.9378356 -0.5549663 -0.6787512
-0.9390915 -0.5295547 -0.672709
-0.9363704 -0.09070821 -0.6757301
-0.08362228 -0.9909402 -0.6686808
-0.05494616 -0.9922661 -0.6646526
-0.03254949 -0.9986742 -0.6686808
-0.06227217 -0.9814385 -0.6696878
-0.120043 -0.9770191 -0.6616314
-0.06311153 -0.9690642 -0.6696878
-0.05808379 -0.940559 -0.6686808
-0.09408801 -0.9326041 -0.6616314
-0.1459981 -0.9082974 -0.6666667
-0.1468374 -0.8954812 -0.6656596
-0.1836726 -0.8694067 -0.6626385
-0.2416549 -0.8576953 -0.6676737
-0.2349568 -0.8585792 -0.6646526
-0.2920997 -0.8466468 -0.6616314
-0.4143395 -0.793393 -0.6616314
-0.4637378 -0.7721798 -0.6606244
-0.4993213 -0.7516297 -0.6676737
-0.6313989 -0.7131808 -0.6656596
-0.5562549 -0.7178212 -0.6626385
-0.5843031 -0.7072147 -0.6666667
-0.577605 -0.7065518 -0.6696878
-0.6395621 -0.6769418 -0.6696878
-0.6874952 -0.6508673 -0.6636455
-0.6607029 -0.6597061 -0.6626385
-0.6941933 -0.6497625 -0.6666667
-0.7451603 -0.6260082 -0.664149
-0.7220321 -0.6228041 -0.6636455
-0.8300385 -0.5912054 -0.6636455
-0.7965482 -0.5896586 -0.6606244
-0.8842511 -0.5649099 -0.6666667
-0.9384636 -0.5419291 -0.6676737
-0.9118806 -0.5412661 -0.6676737
-0.9317676 -0.5366258 -0.6686808
-0.9397174 -0.5167385 -0.6686808
-0.9403474 -0.5043641 -0.6636455
-0.9552109 -0.08960336 -0.6646526
0.6885397 -0.9944757 -0.653575
-0.03296812 -0.985416 -0.6515609
-0.1206731 -0.9646448 -0.6586103
-0.03464263 -0.9608883 -0.6555891
-0.05724862 -0.9529334 -0.6555891
-0.08718062 -0.9253121 -0.6555891
-0.05850451 -0.9270799 -0.652568
-0.1524868 -0.9094023 -0.6576032
-0.1242293 -0.9027732 -0.6596173
-0.1171126 -0.904541 -0.6576032
-0.0953439 -0.9074135 -0.6565962
-0.2039782 -0.8974699 -0.653575
-0.1830468 -0.88156 -0.6555891
-0.2343289 -0.8713954 -0.6586103
-0.1763487 -0.8758149 -0.6586103
-0.2123487 -0.867418 -0.6586103
-0.2707496 -0.8426693 -0.6505539
-0.2422828 -0.8446581 -0.653575
-0.3785467 -0.8046625 -0.6586103
-0.3858727 -0.7995802 -0.6596173
-0.4423898 -0.7814606 -0.653575
-0.4149675 -0.7807977 -0.6565962
-0.4358989 -0.778367 -0.6565962
-0.4716918 -0.7525135 -0.6555891
-0.4645751 -0.7591426 -0.6596173
-0.5267415 -0.7472103 -0.6505539
-0.5208828 -0.734173 -0.6555891
-0.5495569 -0.7147276 -0.6596173
-0.584931 -0.6941774 -0.653575
-0.6332827 -0.6738482 -0.6505539
-0.6674031 -0.6544029 -0.6555891
-0.7214042 -0.6349575 -0.6586103
-0.7959182 -0.6026958 -0.6565962
-0.7760354 -0.6049055 -0.6565962
-0.7687094 -0.6075572 -0.6515609
-0.8030369 -0.5903215 -0.6565962
-0.7693373 -0.5947409 -0.653575
-0.8231311 -0.586565 -0.6565962
-0.8503421 -0.5704342 -0.6586103
-0.8306665 -0.5786101 -0.6596173
-0.8237591 -0.5733068 -0.6515609
-0.8578774 -0.5655729 -0.652568
-0.8312944 -0.5657938 -0.6515609
-0.9045546 -0.5507679 -0.6565962
-0.8848769 -0.5518727 -0.653575
-0.9051825 -0.5379516 -0.6545821
-0.9330214 -0.5105513 -0.6596173
-0.9637907 0.07568225 -0.6555891
0.003034017 -0.9913822 -0.6404834
0.02543069 -0.9984532 -0.6435046
0.06122351 -0.9993371 -0.6475327
0.6958657 -0.9988952 -0.6485398
-0.02627004 -0.9876257 -0.6495468
-0.004501313 -0.9818804 -0.6404834
0.02459343 -0.9860789 -0.6435046
-0.02689799 -0.9745885 -0.6465257
-0.1212989 -0.9516076 -0.6414905
-0.03527058 -0.948072 -0.6495468
0.6307688 -0.9449785 -0.6475327
-0.1221362 -0.9394542 -0.6475327
-0.06499326 -0.9308364 -0.6465257
0.6299316 -0.9321622 -0.6455186
-0.09471386 -0.9197879 -0.6495468
-0.08780857 -0.9120539 -0.6455186
-0.1748835 -0.9012264 -0.6465257
-0.1177406 -0.8912827 -0.6455186
-0.1248573 -0.889515 -0.6404834
-0.1769766 -0.8623357 -0.6445116
-0.2129788 -0.8546017 -0.6495468
-0.2642609 -0.8462048 -0.6475327
-0.2927277 -0.8327256 -0.6414905
-0.4068042 -0.7947188 -0.6485398
-0.4631099 -0.7845542 -0.6495468
-0.4710638 -0.7646669 -0.6485398
-0.4430156 -0.7686443 -0.6465257
-0.4365269 -0.7651088 -0.6475327
-0.4999513 -0.7385924 -0.6495468
-0.5487196 -0.7275439 -0.6495468
-0.5005772 -0.7257761 -0.6424975
-0.6052346 -0.6928516 -0.6404834
-0.5780236 -0.6924097 -0.6404834
-0.6401901 -0.6634626 -0.6435046
-0.7151248 -0.6316429 -0.6475327
-0.6881232 -0.6369462 -0.6445116
-0.877553 -0.5551873 -0.6435046
-0.8585075 -0.5527566 -0.6414905
-0.02543278 -1 -0.6374623
-0.003873369 -0.9940338 -0.6354482
0.03212876 -0.9966854 -0.6374623
0.002403979 -0.9783449 -0.6364552
-0.02752593 -0.9611093 -0.6364552
-0.005966516 -0.9566899 -0.6304129
-0.064156 -0.9427688 -0.6334341
-0.1156453 -0.9292896 -0.6384693
-0.05913245 -0.9136007 -0.6384693
-0.08843651 -0.8987957 -0.6374623
-0.204399 -0.8835488 -0.632427
-0.1472539 -0.8808972 -0.6334341
-0.1843027 -0.8559275 -0.6384693
-0.2355848 -0.8446581 -0.6374623
-0.2996351 -0.830074 -0.6364552
-0.2648888 -0.8331676 -0.6384693
-0.3211945 -0.8232239 -0.6364552
-0.3281019 -0.8196884 -0.63142
-0.3574059 -0.8048834 -0.6384693
-0.3289391 -0.8075351 -0.6374623
-0.3791746 -0.7907414 -0.632427
-0.3580339 -0.7922881 -0.6394764
-0.4074321 -0.7812396 -0.6374623
-0.3865007 -0.78588 -0.632427
-0.3871286 -0.7735057 -0.63142
-0.4649937 -0.7452215 -0.6364552
-0.5853496 -0.6811402 -0.6344411
-0.6058625 -0.6798144 -0.6364552
-0.6339107 -0.660148 -0.6304129
-0.6408181 -0.6506463 -0.6364552
-0.7142875 -0.6440172 -0.6374623
-0.6345386 -0.6473318 -0.632427
-0.6946119 -0.6360623 -0.632427
-0.7751981 -0.616617 -0.6344411
-0.7421263 -0.6157331 -0.6384693
-0.7766633 -0.5914264 -0.6334341
-0.749871 -0.5960667 -0.632427
-0.8036628 -0.5770633 -0.63142
-0.9129272 -0.5151917 -0.6374623
0.1187851 -0.9960225 -0.6233636
0.1443204 -0.9973484 -0.6243706
0.6579798 -0.9913822 -0.6233636
0.03150082 -0.9829853 -0.6253777
0.06059556 -0.985416 -0.6223565
0.1401352 -0.9845321 -0.6294059
0.6642571 -0.9843111 -0.6263847
-0.03359606 -0.9717158 -0.6233636
0.08215498 -0.9756933 -0.6223565
0.6563073 -0.9664125 -0.6243706
-0.02836319 -0.9478511 -0.6294059
-0.0356892 -0.9343719 -0.6223565
-0.02899323 -0.9345928 -0.6203424
-0.03652646 -0.9222186 -0.6283988
-0.06562331 -0.9177991 -0.6283988
-0.06624915 -0.9052038 -0.6213495
-0.03045634 -0.9094023 -0.6253777
-0.1529054 -0.8954812 -0.6203424
-0.09576253 -0.8937134 -0.6213495
-0.2050248 -0.8702906 -0.6223565
-0.1183685 -0.8775826 -0.6273918
-0.1776046 -0.8486355 -0.6283988
-0.2713776 -0.8289692 -0.6243706
-0.3218224 -0.8101867 -0.6273918
-0.300263 -0.8172578 -0.6283988
-0.3507079 -0.7993592 -0.6263847
-0.4153861 -0.7668766 -0.6223565
-0.491786 -0.7529555 -0.6243706
-0.4442715 -0.7425699 -0.6223565
-0.5277881 -0.7213567 -0.6273918
-0.5212994 -0.719368 -0.6273918
-0.5286254 -0.7089824 -0.6283988
-0.6136071 -0.6546238 -0.6213495
-0.6609123 -0.645564 -0.6294059
-0.6952398 -0.6232461 -0.6213495
-0.7155434 -0.6179428 -0.6243706
-0.7490337 -0.6082201 -0.6253777
-0.7224529 -0.608883 -0.6294059
-0.750499 -0.5832505 -0.6233636
-0.7975948 -0.5624793 -0.6233636
-0.8317131 -0.5518727 -0.6203424
-0.8779716 -0.5417081 -0.6253777
-0.7982248 -0.549884 -0.6253777
-0.8852977 -0.5383936 -0.6253777
-0.9319727 -0.5222628 -0.6263847
-0.9120899 -0.5273451 -0.6263847
-0.93344 -0.4966302 -0.6283988
-0.9455802 0.08717269 -0.6243706
0.09052756 -0.9964645 -0.6163142
0.05368818 -0.9829853 -0.6183283
0.08299224 -0.9880676 -0.6183283
0.111459 -0.985195 -0.6132931
0.08906236 -0.970611 -0.611279
0.08152703 -0.963098 -0.6153072
0.03024493 -0.9566899 -0.611279
0.02187234 -0.9350348 -0.611279
-0.02961908 -0.9215556 -0.612286
-0.0003171118 -0.9257541 -0.6143001
-0.03715232 -0.9091813 -0.6193354
-0.0668771 -0.8923876 -0.6132931
-0.03778235 -0.896586 -0.6102719
-0.09659979 -0.8808972 -0.6183283
-0.0896924 -0.8718374 -0.6132931
-0.1478819 -0.867418 -0.6163142
-0.1261111 -0.8636615 -0.6143001
-0.1485098 -0.8541598 -0.612286
-0.2133974 -0.8406806 -0.611279
-0.1847213 -0.8426693 -0.6163142
-0.1556265 -0.8453209 -0.6102719
-0.2360013 -0.8309579 -0.6163142
-0.2931463 -0.8188046 -0.6143001
-0.2653075 -0.8196884 -0.6193354
-0.300891 -0.8042206 -0.6132931
-0.322239 -0.7969285 -0.6132931
-0.3795954 -0.7774832 -0.6163142
-0.3586639 -0.778809 -0.6183283
-0.4434343 -0.7549442 -0.6173213
-0.5269508 -0.7330682 -0.6102719
-0.4924118 -0.7399182 -0.6193354
-0.4656216 -0.7315214 -0.6163142
-0.4727383 -0.7259971 -0.612286
-0.5009958 -0.712076 -0.6163142
-0.4936698 -0.7136228 -0.611279
-0.5564642 -0.7034582 -0.6173213
-0.5497682 -0.7005855 -0.6193354
-0.5219273 -0.7054469 -0.6173213
-0.6129792 -0.6669981 -0.6183283
-0.6062811 -0.6658933 -0.6143001
-0.6678196 -0.6404817 -0.6183283
-0.6142351 -0.6415865 -0.6102719
-0.6885397 -0.6230251 -0.6153072
-0.742545 -0.6018119 -0.611279
-0.7230787 -0.5960667 -0.6132931
-0.7697538 -0.5803779 -0.6102719
-0.7969668 -0.5748536 -0.6173213
-0.7770819 -0.5779472 -0.612286
-0.8040835 -0.5640261 -0.6193354
-0.8505535 -0.5556292 -0.6143001
-0.8241777 -0.5591648 -0.6153072
-0.9053919 -0.5233676 -0.611279
-0.8859256 -0.5255773 -0.6173213
-0.8865535 -0.512761 -0.612286
-0.913553 -0.5017125 -0.6193354
0.1122942 -0.9973484 -0.6072508
0.08989962 -0.9834272 -0.6062437
0.05996552 -0.9721578 -0.6082578
0.1108311 -0.9723787 -0.6012084
0.05243229 -0.9577947 -0.6012084
0.1388793 -0.9586786 -0.6022155
-0.007222404 -0.9301735 -0.6012084
-0.008061756 -0.9177991 -0.6062437
-0.0597604 -0.8994586 -0.6082578
-0.1533241 -0.8824439 -0.6062437
-0.03841029 -0.8839907 -0.6042296
-0.1252759 -0.8755938 -0.6042296
-0.1541613 -0.8698486 -0.6032225
-0.1189965 -0.8634405 -0.6032225
-0.09722564 -0.8680809 -0.6072508
-0.2056528 -0.8565904 -0.6002014
-0.1547872 -0.8576953 -0.6072508
-0.1491378 -0.8406806 -0.6002014
-0.1780232 -0.8349354 -0.6032225
-0.2366313 -0.8174787 -0.6042296
-0.2937742 -0.8055463 -0.6022155
-0.3293577 -0.7938349 -0.6092649
-0.3511244 -0.785659 -0.6032225
-0.3838853 -0.7620152 -0.6037261
-0.4369455 -0.7503038 -0.6012084
-0.4719011 -0.7377086 -0.6002014
-0.4930418 -0.7264391 -0.6082578
-0.4733663 -0.7131808 -0.6032225
-0.5503941 -0.6875483 -0.6082578
-0.5782329 -0.6782676 -0.6012084
-0.5510221 -0.6747321 -0.6082578
-0.6418646 -0.6245719 -0.6072508
-0.6956585 -0.6099879 -0.6002014
-0.7431729 -0.5889957 -0.6092649
-0.7509176 -0.5699922 -0.6012084
-0.7783378 -0.5525357 -0.6042296
-0.8245943 -0.5456856 -0.6022155
-0.858924 -0.5388355 -0.6092649
-0.8785996 -0.528008 -0.6042296
-0.8792275 -0.5154127 -0.6032225
-0.9066477 -0.4977351 -0.6062437
-0.9139737 -0.4888963 -0.6002014
-0.907485 -0.4849188 -0.6052366
0.1181571 -0.9816595 -0.593152
0.1472519 -0.9834272 -0.592145
0.0005222402 -0.9376864 -0.5941591
-0.0009429628 -0.9122749 -0.5971802
-0.08885514 -0.8842117 -0.5971802
-0.1267411 -0.8506243 -0.5991943
-0.2424921 -0.8298531 -0.5961732
-0.2140253 -0.8276433 -0.5951661
-0.2717962 -0.81549 -0.5981873
-0.2146533 -0.815048 -0.593152
-0.2724262 -0.8028947 -0.593152
-0.2659354 -0.8057673 -0.5951661
-0.3299878 -0.7810187 -0.5991943
-0.4078508 -0.7666556 -0.5961732
-0.3590804 -0.7653298 -0.5941591
-0.4084808 -0.7538394 -0.5971802
-0.3881752 -0.7467683 -0.5911379
-0.5570921 -0.6902 -0.5991943
-0.5857683 -0.6669981 -0.5961732
-0.5788609 -0.6652303 -0.5951661
-0.6410273 -0.6365042 -0.5941591
-0.71659 -0.5914264 -0.5961732
-0.6897977 -0.5967296 -0.5961732
-0.71722 -0.5783891 -0.593152
-0.7701746 -0.5668987 -0.5911379
-0.7444288 -0.5624793 -0.5941591
-0.8047115 -0.5509889 -0.5981873
-0.7710118 -0.5543034 -0.5971802
-0.8593426 -0.5260192 -0.5961732
-0.9060198 -0.5101094 -0.5981873
-0.8869721 -0.4995028 -0.5911379
-0.9152296 -0.4637057 -0.593152
-0.001570907 -0.8985748 -0.5830815
-0.06017903 -0.8855375 -0.5850956
-0.002408166 -0.8857585 -0.5820745
-0.06729573 -0.8786874 -0.5800604
-0.09764636 -0.8546017 -0.5850956
-0.1194151 -0.8497404 -0.5840886
-0.1560452 -0.8316208 -0.5881168
-0.1271597 -0.837587 -0.5820745
-0.1497657 -0.8272014 -0.5830815
-0.2431201 -0.8170368 -0.5881168
-0.322869 -0.7827864 -0.5850956
-0.3517544 -0.7721798 -0.5871097
-0.437362 -0.7368246 -0.5861027
-0.4446902 -0.7284278 -0.5840886
-0.445316 -0.7160535 -0.5820745
-0.5255914 -0.6930726 -0.5861027
-0.4940884 -0.6999227 -0.5871097
-0.5548943 -0.6627997 -0.5825781
-0.5863983 -0.6541818 -0.5881168
-0.5794888 -0.6519722 -0.5810674
-0.6613309 -0.63098 -0.5850956
-0.6347479 -0.6327478 -0.5861027
-0.5801167 -0.6389349 -0.5810674
-0.6682383 -0.6267816 -0.5891238
-0.6619588 -0.6181638 -0.5840886
-0.6353759 -0.6197105 -0.5840886
-0.7159621 -0.6035797 -0.5861027
-0.6889604 -0.609104 -0.5840886
-0.7774985 -0.564468 -0.5881168
-0.7515455 -0.556955 -0.5850956
-0.8051301 -0.5377306 -0.5861027
-0.8518073 -0.5288919 -0.5850956
-0.8327596 -0.5257983 -0.5891238
-0.8599706 -0.513203 -0.5861027
-0.8333876 -0.512982 -0.5800604
-0.9146017 -0.4756381 -0.5800604
-0.9085315 -0.4584024 -0.5861027
-0.03087497 -0.8941553 -0.5750252
-0.009106237 -0.8915037 -0.5750252
-0.03150291 -0.8813391 -0.5750252
-0.06080697 -0.8725003 -0.5790534
-0.06813299 -0.8658712 -0.5770393
-0.09011103 -0.8574743 -0.5780463
-0.2060714 -0.8422274 -0.570997
-0.1851399 -0.8280853 -0.570997
-0.1784398 -0.8207933 -0.5740181
-0.1277877 -0.8247707 -0.5730111
-0.1566731 -0.8185836 -0.572004
-0.2437459 -0.8042206 -0.5770393
-0.3304043 -0.7675395 -0.5780463
-0.3234969 -0.7697492 -0.5760322
-0.3597084 -0.7518506 -0.5750252
-0.4379921 -0.7235665 -0.5740181
-0.465831 -0.7169374 -0.572004
-0.5294626 -0.6820241 -0.5790534
-0.5575129 -0.6769418 -0.5790534
-0.5300906 -0.6694288 -0.5760322
-0.6066998 -0.6515302 -0.570997
-0.558976 -0.6517512 -0.5740181
-0.5870242 -0.6415865 -0.5790534
-0.6146537 -0.6276655 -0.5740181
-0.6686569 -0.6137443 -0.5750252
-0.6694942 -0.601149 -0.5740181
-0.6360059 -0.6066733 -0.570997
-0.7232881 -0.5819247 -0.5730111
-0.85097 -0.5414872 -0.5780463
-0.7521735 -0.5439178 -0.5760322
-0.8319224 -0.5379516 -0.5790534
-0.825015 -0.5315435 -0.5730111
-0.7986413 -0.535079 -0.5770393
-0.8876001 -0.4866866 -0.5780463
-0.9079036 -0.4709977 -0.5750252
-0.8846697 -0.4751961 -0.5765358
-0.8823673 -0.4502265 -0.570997
-0.008478292 -0.903878 -0.5699899
-0.009734181 -0.8786874 -0.5619335
-0.06876093 -0.8532759 -0.5689829
-0.09450664 -0.8425589 -0.5639477
-0.06938887 -0.8404596 -0.5619335
-0.120043 -0.8360402 -0.5629406
-0.09911156 -0.8287482 -0.5649547
-0.1866051 -0.8031157 -0.5669688
-0.2441667 -0.7911833 -0.5619335
-0.3011024 -0.7896365 -0.5649547
-0.2728428 -0.7891946 -0.5609265
-0.3017282 -0.7772622 -0.5639476
-0.4155954 -0.7520716 -0.5649547
-0.4088973 -0.7396973 -0.5619335
-0.4664589 -0.7036791 -0.5619335
-0.473787 -0.6992598 -0.5679758
-0.5233925 -0.6667771 -0.5669688
-0.5307185 -0.6566125 -0.5669688
-0.6079556 -0.6258977 -0.5699899
-0.6420739 -0.6106508 -0.5669688
-0.6623754 -0.6044636 -0.5649547
-0.6960771 -0.5962877 -0.5699899
-0.6429112 -0.5980555 -0.5669688
-0.690007 -0.5828086 -0.5649547
-0.7433844 -0.5744117 -0.5669688
-0.697333 -0.5710971 -0.5609265
-0.7176365 -0.564468 -0.5679758
-0.7787564 -0.5383936 -0.5649547
-0.8057581 -0.5246934 -0.5669688
-0.79906 -0.5218208 -0.5659617
-0.8522259 -0.5154127 -0.5679758
-0.8063839 -0.5120981 -0.5659617
-0.8528538 -0.5028174 -0.5689829
-0.8802741 -0.4882334 -0.5619335
-0.8612244 -0.4877914 -0.5679758
-0.03882892 -0.8696277 -0.5568983
-0.06143491 -0.8585792 -0.5548842
-0.01119938 -0.8532759 -0.5538771
-0.003664054 -0.8585792 -0.5558912
-0.2066993 -0.8283063 -0.551863
-0.2368407 -0.8024527 -0.551863
-0.2150698 -0.800906 -0.5548842
-0.2939835 -0.7905204 -0.5568983
-0.2661447 -0.7914042 -0.5558912
-0.2376779 -0.7898574 -0.5538771
-0.2948208 -0.7774832 -0.550856
-0.266982 -0.77903 -0.5599194
-0.3308229 -0.7538394 -0.551863
-0.3804305 -0.748978 -0.5579053
-0.3812678 -0.7357198 -0.5528701
-0.4095253 -0.7264391 -0.5558912
-0.3892218 -0.7202519 -0.5528701
-0.4384107 -0.7098663 -0.550856
-0.5012051 -0.697492 -0.5599194
-0.5227646 -0.6778256 -0.551863
-0.5520686 -0.6471108 -0.5568983
-0.6071184 -0.638272 -0.5548842
-0.5807447 -0.6252348 -0.5579053
-0.6150745 -0.6144072 -0.5558912
-0.6092115 -0.5998232 -0.5528701
-0.696705 -0.5832505 -0.5589124
-0.6699128 -0.5878909 -0.5538771
-0.723916 -0.5688874 -0.5589124
-0.690635 -0.5697713 -0.5599194
-0.7245439 -0.5562921 -0.5568983
-0.7182645 -0.5509889 -0.5538771
-0.7446381 -0.5481162 -0.551863
-0.7454754 -0.535079 -0.5528701
-0.771849 -0.527124 -0.5568983
-0.7996879 -0.5087836 -0.5589124
-0.8603892 -0.4999447 -0.5589124
-0.8070139 -0.4990609 -0.5568983
-0.01036213 -0.8656502 -0.5468278
-0.04008481 -0.8439952 -0.5417926
-0.004291998 -0.8453209 -0.5448137
-0.0626908 -0.8325047 -0.5417926
-0.09115761 -0.8298531 -0.5417926
-0.1284177 -0.8110706 -0.5427996
-0.09953019 -0.815711 -0.5478349
-0.1573032 -0.8051044 -0.5458208
-0.2734707 -0.7759364 -0.5478349
-0.2447946 -0.7777041 -0.5417926
-0.3023562 -0.764004 -0.5458208
-0.2954488 -0.7644459 -0.5427996
-0.3239156 -0.7556071 -0.5427996
-0.416014 -0.7385924 -0.5417926
-0.3885938 -0.7326262 -0.5498489
-0.360127 -0.7381505 -0.5448137
-0.4174792 -0.7138438 -0.5458208
-0.5018331 -0.6844547 -0.5468278
-0.4670868 -0.689979 -0.5458208
-0.4463647 -0.6893161 -0.5407855
-0.5240204 -0.653519 -0.5478349
-0.5313485 -0.6433543 -0.5468278
-0.5600226 -0.6254557 -0.5407855
-0.6083742 -0.6121975 -0.5438067
-0.5606505 -0.6128604 -0.5407855
-0.6630054 -0.5907634 -0.5488419
-0.6364225 -0.5929732 -0.5478349
-0.6433298 -0.5847973 -0.5488419
-0.6705408 -0.5750746 -0.5488419
-0.7251698 -0.5434759 -0.5468278
-0.7525921 -0.5302176 -0.5488419
-0.8256429 -0.5182853 -0.5498489
-0.75322 -0.5176224 -0.5438067
-0.8260615 -0.5050271 -0.5417926
-0.8294106 -0.4413877 -0.5438067
-0.836946 -0.4365264 -0.5407855
-0.8568308 -0.4250359 -0.5468278
-0.00261748 -0.8707325 -0.5317221
-0.03191945 -0.8667551 -0.5367573
-0.06206286 -0.8451 -0.5397785
-0.01182733 -0.8400177 -0.5377644
0.1328091 -0.8444371 -0.5347432
0.1392979 -0.8389128 -0.5317221
-0.1204617 -0.8221191 -0.5337362
0.1097845 -0.8241078 -0.5317221
-0.1855585 -0.8141642 -0.5377644
-0.149975 -0.8123964 -0.5377644
0.05180644 -0.8159319 -0.5317221
-0.1788605 -0.8059883 -0.5367573
-0.2085832 -0.7889736 -0.5357503
-0.352801 -0.7438957 -0.5317221
-0.4742035 -0.6855596 -0.5337362
-0.495135 -0.6714175 -0.530715
-0.5037169 -0.6464479 -0.530715
-0.5593946 -0.6376091 -0.5387714
-0.5317651 -0.6303171 -0.5327291
-0.5880708 -0.6148492 -0.5347432
-0.6157003 -0.601149 -0.5377644
-0.5886987 -0.6024749 -0.530715
-0.5612785 -0.6000442 -0.5317221
-0.5619064 -0.5876698 -0.5347432
-0.6370504 -0.579494 -0.5327291
-0.6169562 -0.5761794 -0.5327291
-0.7710118 -0.5390565 -0.5317221
-0.7188925 -0.5377306 -0.5357503
-0.779175 -0.5251353 -0.5377644
-0.7195204 -0.5244724 -0.530715
-0.772477 -0.5136449 -0.5387714
-0.8792275 -0.5001657 -0.5377644
-0.773105 -0.5006077 -0.5347432
-0.7538501 -0.5048061 -0.5347432
-0.7465219 -0.5087836 -0.5317221
-0.754476 -0.4924318 -0.5397785
-0.8074325 -0.4860236 -0.5347432
-0.8287827 -0.453762 -0.5357503
-0.837576 -0.4239311 -0.5357503
-0.03924755 -0.8554856 -0.5206445
0.02501206 -0.8497404 -0.5216516
0.04636216 -0.8424484 -0.5266868
-0.004710628 -0.8313999 -0.5266868
0.0241748 -0.8369241 -0.5266868
-0.06980751 -0.8267595 -0.529708
-0.01245527 -0.8269805 -0.5276939
0.0526416 -0.8285272 -0.5287009
0.08152703 -0.8256546 -0.5266868
0.1024585 -0.8207933 -0.529708
-0.2071159 -0.8148271 -0.5276939
-0.07043545 -0.8141642 -0.5276939
-0.1001581 -0.8024527 -0.5276939
-0.1577197 -0.7918462 -0.5246727
-0.2156999 -0.7874268 -0.5287009
-0.2738894 -0.7626781 -0.5256798
-0.2673985 -0.7646669 -0.5236657
-0.3519637 -0.7569329 -0.5287009
-0.3314509 -0.7403602 -0.5246727
-0.3243342 -0.741686 -0.5216516
-0.3816864 -0.7215777 -0.5236657
-0.4675055 -0.6762789 -0.5206445
-0.4681334 -0.6634626 -0.5226586
-0.524439 -0.6398188 -0.5287009
-0.525067 -0.6270025 -0.5266868
-0.580954 -0.6113136 -0.5256798
-0.5543711 -0.5945199 -0.5236657
-0.6096302 -0.5859021 -0.5287009
-0.5824192 -0.5859021 -0.5266868
-0.663424 -0.5770633 -0.5256798
-0.6439599 -0.571539 -0.5287009
-0.6709594 -0.5615954 -0.5216516
-0.6376783 -0.5664567 -0.5276939
-0.6977516 -0.556955 -0.5206445
-0.6983796 -0.5445807 -0.5236657
-0.7255905 -0.5302176 -0.529708
-0.7458961 -0.5215998 -0.529708
-0.779803 -0.5120981 -0.5246727
-0.6931467 -0.5174014 -0.529708
-0.8007345 -0.4820462 -0.5246727
-0.7737329 -0.4873495 -0.529708
-0.7743608 -0.4745332 -0.5216516
-0.8279454 -0.4663573 -0.529708
-0.7749867 -0.4617169 -0.5226586
-0.7557318 -0.4670202 -0.5256798
-0.8021997 -0.4564137 -0.529708
0.1608573 -0.830516 -0.5196375
0.04573422 -0.8296321 -0.5166163
-0.06331666 -0.8181416 -0.510574
0.07336376 -0.8101867 -0.5176234
-0.0710613 -0.800906 -0.510574
-0.150603 -0.7986963 -0.5146022
0.1012026 -0.7951608 -0.510574
-0.1868144 -0.7885317 -0.5176234
0.1003654 -0.7830074 -0.5135952
-0.2163278 -0.7743896 -0.5176234
-0.1583476 -0.77903 -0.5146022
-0.2452132 -0.7642249 -0.5115811
-0.3027748 -0.7503038 -0.5186304
-0.2958695 -0.7503038 -0.5156093
-0.3532196 -0.7304165 -0.5176234
-0.4164306 -0.7248923 -0.5135952
-0.3605456 -0.7246713 -0.5176234
-0.4942977 -0.6837919 -0.5125881
-0.5022517 -0.6707546 -0.5176234
-0.4746222 -0.6723014 -0.5196375
-0.4754594 -0.6599271 -0.5176234
-0.55228 -0.6327478 -0.5186304
-0.4767132 -0.6347365 -0.510574
-0.5049728 -0.6205944 -0.5115811
-0.5529059 -0.6197105 -0.510574
-0.5537431 -0.6066733 -0.5156093
-0.533021 -0.6046846 -0.5115811
-0.5263208 -0.6009281 -0.510574
-0.581582 -0.5982764 -0.5146022
-0.6161189 -0.5881118 -0.5186304
-0.6102581 -0.5724229 -0.5135952
-0.6640519 -0.5638051 -0.5135952
-0.5631623 -0.5618164 -0.5125881
-0.6910557 -0.5554082 -0.5196375
-0.6990054 -0.5319854 -0.5176234
-0.6923094 -0.5297757 -0.5176234
-0.7268464 -0.5045851 -0.5156093
-0.7471499 -0.4953044 -0.5196375
-0.7274743 -0.4919898 -0.5115811
-0.8013625 -0.468788 -0.5186304
-0.03234017 -0.852613 -0.5075529
-0.04071276 -0.830074 -0.5065458
0.07420102 -0.8223401 -0.509567
0.1091566 -0.8101867 -0.5065458
0.138042 -0.8121755 -0.5075529
-0.2077459 -0.800906 -0.5065458
0.02291892 -0.8099657 -0.5015106
-0.006803775 -0.7918462 -0.5045317
-0.1005768 -0.7891946 -0.5045317
-0.07169133 -0.7883107 -0.5035247
-0.2090018 -0.7748315 -0.5005035
0.02082577 -0.771296 -0.5025176
-0.2385131 -0.7624572 -0.5045317
-0.1880703 -0.7633411 -0.5055388
-0.2678192 -0.7511877 -0.5025176
-0.3249601 -0.7282068 -0.5065458
-0.4097346 -0.7114131 -0.5075529
-0.445316 -0.7005855 -0.5085599
-0.3857681 -0.7066623 -0.5025176
-0.4388293 -0.6952823 -0.5075529
-0.3829423 -0.6937355 -0.5035247
-0.3624295 -0.6868854 -0.5005035
-0.446574 -0.675616 -0.5055388
-0.4191517 -0.674953 -0.5035247
-0.4474112 -0.6632416 -0.5075529
-0.5028775 -0.6577174 -0.5055388
-0.4961816 -0.6451221 -0.509567
-0.4758781 -0.6471108 -0.5075529
-0.4685541 -0.6497625 -0.5005035
-0.5870242 -0.6263396 -0.5085599
-0.5321837 -0.616396 -0.5015106
-0.525695 -0.6135234 -0.509567
-0.5336489 -0.5918683 -0.509567
-0.5891152 -0.5889957 -0.5045317
-0.5269508 -0.5881118 -0.5065458
-0.5862916 -0.5743012 -0.5065458
-0.6175841 -0.5629212 -0.509567
-0.6380969 -0.5527566 -0.5035247
-0.610886 -0.5591648 -0.5075529
-0.6916815 -0.5419291 -0.5035247
-0.6715873 -0.5485582 -0.5065458
-0.6722152 -0.5359629 -0.5065458
-0.6653079 -0.5370677 -0.5035247
-0.6458416 -0.5328693 -0.5065458
-0.6728411 -0.5233676 -0.5015106
-0.6659358 -0.5242515 -0.5025176
-0.6996355 -0.5189482 -0.509567
-0.6935675 -0.5034803 -0.5015106
-0.7998973 -0.4941995 -0.5025176
-0.7802196 -0.4988399 -0.5045317
-0.7205669 -0.497956 -0.5085599
-0.7475685 -0.4822671 -0.5075529
-0.7211949 -0.4851398 -0.5055388
-0.7249626 -0.475638 -0.5030211
-0.8298271 -0.4272456 -0.5085599
-0.03296812 -0.8393548 -0.4984894
-0.0413407 -0.8174787 -0.4994965
0.08110841 -0.8112916 -0.4954683
0.1604387 -0.8170368 -0.490433
0.0155929 -0.8053254 -0.490433
0.1309253 -0.8053254 -0.4914401
-0.1792791 -0.7916253 -0.4944612
-0.1286228 -0.7967076 -0.4954683
0.02229097 -0.7969285 -0.4974824
0.08027115 -0.7986963 -0.4944612
0.1374141 -0.7986963 -0.4994965
-0.1223455 -0.7814606 -0.4954683
0.0141277 -0.7807977 -0.4974824
-0.1874424 -0.7752734 -0.4964753
-0.2167464 -0.7613524 -0.4994965
-0.274308 -0.748978 -0.490433
-0.3034027 -0.7370456 -0.4974824
-0.296286 -0.7366037 -0.4924471
-0.3040286 -0.7242294 -0.4924471
-0.3609643 -0.7111921 -0.4934542
-0.3538476 -0.7167164 -0.4964753
-0.3544755 -0.7039001 -0.4974824
-0.326218 -0.7021323 -0.4944612
-0.4176885 -0.6992598 -0.4994965
-0.3618015 -0.6988178 -0.4924471
-0.4183165 -0.6866645 -0.490433
-0.4400831 -0.6689869 -0.4974824
-0.4197817 -0.6621368 -0.4944612
-0.3915242 -0.668103 -0.4924471
-0.4955536 -0.6574964 -0.4994965
-0.4204096 -0.6495415 -0.4934542
-0.5041355 -0.6325268 -0.4984894
-0.4968095 -0.6316429 -0.4964753
-0.46918 -0.6369462 -0.4934542
-0.5342748 -0.5788311 -0.4954683
-0.5903732 -0.5633631 -0.4944612
-0.6443764 -0.557618 -0.4934542
-0.5910012 -0.5507679 -0.4954683
-0.5834658 -0.5589437 -0.4984894
-0.6646799 -0.549884 -0.4984894
-0.6121419 -0.5333112 -0.4954683
-0.7002634 -0.5059109 -0.4944612
-0.7008914 -0.4933157 -0.490433
-0.6941933 -0.4900011 -0.4954683
-0.7808496 -0.4860236 -0.4964753
-0.7017266 -0.4811623 -0.4994965
-0.8099443 -0.4345376 -0.4994965
-0.03380537 -0.8258756 -0.4864048
-0.03443122 -0.8126174 -0.4803625
-0.1208782 -0.8073141 -0.4874119
-0.1215082 -0.7942769 -0.4874119
0.07294304 -0.7962656 -0.4833837
0.05075777 -0.7878687 -0.4813696
0.1079007 -0.7834494 -0.4823766
-0.2376779 -0.7743896 -0.4864048
-0.179907 -0.778367 -0.4823766
-0.1887003 -0.7503038 -0.4843907
-0.2391431 -0.7487571 -0.4864048
-0.274938 -0.7361618 -0.4833837
-0.2684472 -0.7377086 -0.4833837
-0.1893262 -0.7379295 -0.4884189
-0.296914 -0.7231245 -0.4813696
-0.3324996 -0.7134019 -0.4813696
-0.3253808 -0.7145067 -0.4874119
-0.3331254 -0.7008066 -0.4813696
-0.4103625 -0.697492 -0.4823766
-0.3551035 -0.6906419 -0.4813696
-0.439248 -0.6813612 -0.4823766
-0.4116184 -0.6720805 -0.4833837
-0.3835703 -0.6798144 -0.4874119
-0.4407132 -0.6555077 -0.4803625
-0.4478278 -0.6499834 -0.4884189
-0.4771339 -0.6212573 -0.4833837
-0.4974396 -0.6183847 -0.4813696
-0.5053893 -0.6068943 -0.4803625
-0.5547897 -0.5803779 -0.4853978
-0.6146526 -0.5474533 -0.4843907
-0.674727 -0.4851398 -0.4803625
-0.7821055 -0.4606121 -0.4823766
-0.7754074 -0.4473539 -0.4843907
-0.09136692 -0.8143852 -0.4743202
0.04531559 -0.815711 -0.4783484
0.1087379 -0.7960446 -0.4763343
-0.1292529 -0.7834494 -0.4763343
0.0796432 -0.7849962 -0.4753273
-0.180535 -0.7653298 -0.4793555
-0.2456319 -0.7505248 -0.4793555
-0.2397711 -0.7354988 -0.4793555
-0.2110949 -0.7354988 -0.4773414
-0.3316602 -0.7257761 -0.4773414
-0.2690751 -0.7244503 -0.4753273
-0.3900611 -0.6921887 -0.4743202
-0.390687 -0.6800354 -0.4773414
-0.3630574 -0.6734062 -0.4793555
-0.3557314 -0.6776047 -0.4763343
-0.3841982 -0.6667771 -0.4783484
-0.3919429 -0.6548448 -0.4733132
-0.4210376 -0.6362833 -0.4763343
-0.4419691 -0.6296542 -0.470292
-0.4222935 -0.6115347 -0.4743202
-0.5273694 -0.5739697 -0.470292
-0.5554177 -0.5668987 -0.4743202
-0.644795 -0.5441388 -0.4712991
-0.6732618 -0.5101094 -0.4753273
-0.7812682 -0.4727654 -0.4763343
-0.6948212 -0.4767429 -0.4753273
-0.6954492 -0.4639266 -0.4733132
-0.09199277 -0.801127 -0.4632427
-0.1508123 -0.7838913 -0.4682779
-0.01559499 -0.7620152 -0.469285
-0.1811629 -0.7518506 -0.4642498
-0.008687607 -0.7516297 -0.4602216
-0.2171651 -0.7472103 -0.4642498
-0.2462619 -0.7372666 -0.4602216
-0.3044493 -0.7105292 -0.4622357
-0.2975419 -0.7098663 -0.4672709
-0.3337533 -0.6875483 -0.4652568
-0.3266367 -0.6882113 -0.4622357
-0.363476 -0.660148 -0.4602216
-0.4122464 -0.6583803 -0.469285
-0.4411318 -0.6422495 -0.4682779
-0.4128743 -0.645785 -0.469285
-0.4490858 -0.62413 -0.4662639
-0.4978561 -0.6049055 -0.4652568
-0.7021472 -0.4674622 -0.4672709
-0.7559412 -0.4524362 -0.4632427
-0.7486172 -0.4550878 -0.4682779
-0.775826 -0.4340957 -0.4652568
0.07231719 -0.7830074 -0.4592145
-0.2094204 -0.7600265 -0.4501511
-0.217793 -0.734615 -0.4572004
-0.2755639 -0.7226826 -0.4551863
-0.3343813 -0.6745111 -0.4541793
-0.3561521 -0.6636836 -0.4572004
-0.4214583 -0.623467 -0.4592145
-0.5558363 -0.5534195 -0.4521652
-0.8021997 -0.4409457 -0.4561934
-0.2100484 -0.7467683 -0.4471299
-0.218421 -0.7215777 -0.448137
-0.3844075 -0.653077 -0.4461229
-0.3923615 -0.6409237 -0.4410876
-0.7025659 -0.453983 -0.4400806
-0.1606501 -0.7262181 -0.4380665
-0.4105718 -0.6829079 -0.4380665
-0.4145488 -0.6060104 -0.4300101
-0.1903728 -0.7103083 -0.4259819
-0.3785467 -0.2403049 -0.4068479
-0.1631619 -0.1804221 -0.3867069
-0.1637898 -0.1676058 -0.3806646
-0.1049745 -0.1967738 -0.3796576
-0.09743705 -0.1863882 -0.3766364
-0.1556265 -0.1634074 -0.3746223
-0.1248573 -0.1958899 -0.3554884
0.1282042 -0.2624019 -0.3484391
-0.09492527 -0.2232902 -0.3484391
-0.12402 -0.2082643 -0.3444109
-0.1853492 -0.1402055 -0.3444109
0.003871276 -0.4442603 -0.3363545
-0.5830472 -0.01579936 -0.3363545
0.1292508 -0.2422937 -0.1379658
-0.04469183 -0.2076014 -0.1349446
0.1269483 -0.2047288 -0.1399799
0.1309253 -0.2670423 -0.1289023
0.04887394 -0.1861673 -0.1208459
-0.00659446 -0.2195338 -0.1117825
0.04091998 -0.1965529 -0.1178248
0.09785358 -0.1919125 -0.1127895
-0.1342764 -0.1377748 -0.1127895
-0.1840933 -0.1198763 -0.1188318
-0.01517636 -0.2157773 -0.1057402
-0.04531768 -0.1939012 -0.1037261
0.1265297 -0.1908076 -0.1037261
-0.04761805 -0.1561154 -0.1087613
-0.03610783 -0.2014142 -0.09164149
-0.007222404 -0.2064965 -0.09969789
0.1062262 -0.195669 -0.09667674
0.04050135 -0.1835156 -0.09566969
0.07713143 -0.1815269 -0.09063444
0.1055982 -0.1830737 -0.09566969
-0.03820098 -0.1636283 -0.09466264
-0.1254852 -0.1355651 -0.09365559
-0.09722564 -0.1384377 -0.09768379
-0.1545821 -0.1280521 -0.09869084
-0.1261111 -0.1229698 -0.09566969
0.01349975 -0.2146724 -0.08962739
-0.01559499 -0.2025191 -0.08257805
-0.007850348 -0.1934593 -0.08862034
0.1353209 -0.1983206 -0.08559919
0.06875884 -0.180643 -0.0835851
0.134693 -0.1857253 -0.08257805
0.01977919 -0.1760027 -0.081571
0.03966409 -0.1704784 -0.08862034
0.09722564 -0.1786543 -0.08559919
-0.04657357 -0.1678268 -0.08257805
0.0965956 -0.166059 -0.0835851
-0.1051796 -0.1360071 -0.081571
0.01768605 -0.1379958 -0.08056395
-0.1346951 -0.1242957 -0.08257805
-0.1920473 -0.1136891 -0.08559919
0.02208166 -0.2137885 -0.07854985
0.01308112 -0.2018562 -0.0715005
-0.03673578 -0.188156 -0.0775428
-0.01643225 -0.1899238 -0.0795569
0.1259018 -0.1773285 -0.0755287
0.0681309 -0.1678268 -0.07452165
-0.03882892 -0.1503701 -0.0755287
-0.1633712 -0.1196553 -0.07452165
-0.1552079 -0.114573 -0.0775428
-0.1639991 -0.10706 -0.07049345
-0.1558359 -0.1019777 -0.0755287
-0.04573631 -0.1799801 -0.06646526
-0.03736372 -0.1751188 -0.06747231
0.07650348 -0.1680477 -0.06646526
-0.07629417 -0.1397636 -0.06545821
-0.03945896 -0.1373329 -0.06646526
0.03778026 -0.1318086 -0.06042296
-0.09764636 -0.1247376 -0.06747231
-0.04866672 -0.129157 -0.06042296
-0.1646271 -0.09402276 -0.06143001
-0.1654643 -0.08186941 -0.06545821
0.01245318 -0.1885979 -0.05135952
0.134065 -0.1720252 -0.05840886
0.1549965 -0.1771075 -0.05438067
0.01936056 -0.1625235 -0.05840886
0.1051796 -0.1689316 -0.05438067
0.09596975 -0.1521379 -0.05135952
0.1045517 -0.1563363 -0.05135952
-0.06771436 -0.1452878 -0.05941591
-0.04782946 -0.1415313 -0.05035247
0.01852331 -0.1497072 -0.05035247
0.03861752 -0.144183 -0.05135952
0.09534181 -0.1399845 -0.05236657
-0.1056003 -0.1225279 -0.05035247
