# .PCD v.7 - Point Cloud Data file format
VERSION .7
FIELDS x y z
SIZE 4 4 4
TYPE F F F
COUNT 1 1 1
WIDTH 1528
HEIGHT 1
VIEWPOINT 0 0 0 1 0 0 0
POINTS 1528
DATA ascii
0.7760333 -0.3130041 -0.5438067
0.7657768 -0.2973152 -0.5448137
0.7649395 -0.2849409 -0.5417926
0.7641023 -0.2723456 -0.5427996
0.793825 -0.2590874 -0.5468278
0.7716355 -0.2498067 -0.5427996
0.7929878 -0.2462711 -0.5427996
0.7708004 -0.2374323 -0.5478349
0.7975948 -0.188156 -0.5438067
0.7957088 -0.1629654 -0.5488419
0.785871 -0.1455088 -0.5417926
0.7948737 -0.1499282 -0.5468278
0.7850338 -0.1331345 -0.5448137
0.7923619 -0.1121423 -0.5498489
0.8168496 -0.02662689 -0.5448137
0.7913132 -0.2208596 -0.5397785
0.7944529 -0.2045078 -0.5367573
0.7967554 -0.1751188 -0.530715
0.7940343 -0.1371119 -0.5387714
0.8145472 -0.1205392 -0.5327291
0.8128726 -0.09534858 -0.5337362
0.8101516 -0.0575627 -0.5317221
0.809105 -0.04518838 -0.5347432
0.8176869 -0.03900122 -0.5397785
0.8358973 0.006076677 -0.5327291
0.7693352 -0.3472545 -0.529708
0.7726842 -0.262181 -0.529708
0.8172683 -0.1576621 -0.5206445
0.8155937 -0.1329135 -0.5266868
0.7934064 -0.1240747 -0.529708
0.8137099 -0.1075019 -0.5226586
0.8120354 -0.08253232 -0.5266868
0.8206173 -0.07634515 -0.5256798
0.8109888 -0.06971605 -0.5236657
0.8187314 -0.05115457 -0.5236657
0.808477 -0.03215114 -0.5236657
0.8369417 -0.006297647 -0.5276939
0.8446906 0.02198652 -0.5236657
0.861643 0.08231135 -0.5226586
0.1665088 -0.8031157 -0.5135952
0.1292508 -0.7812396 -0.5115811
0.7743587 -0.2867087 -0.5125881
0.8183149 -0.1700365 -0.5135952
0.816431 -0.1450668 -0.5186304
0.8241757 -0.1271683 -0.5166163
0.8233384 -0.114352 -0.5156093
0.8222918 -0.1017567 -0.5196375
0.8482468 -0.02839465 -0.5125881
0.8455257 0.009391228 -0.5176234
0.8438512 0.03480278 -0.5115811
0.869597 0.1081648 -0.5135952
-0.9910015 0.6228041 -0.5156093
-0.9916295 0.6351784 -0.5135952
0.1365768 -0.786101 -0.5035247
0.8197801 -0.06330792 -0.5045317
0.8465723 -0.002762126 -0.5015106
0.8664572 0.01977682 -0.5055388
0.8430139 0.04761905 -0.509567
0.8645734 0.04496741 -0.509567
0.8635268 0.05778367 -0.509567
0.4654081 0.06750635 -0.5065458
0.4739921 0.07833388 -0.5035247
0.8626896 0.07059994 -0.5035247
0.8216639 -0.08827754 -0.4974824
0.8742018 0.04540935 -0.4974824
0.8733667 0.05800464 -0.4974824
0.4748294 0.06618053 -0.4934542
0.8706435 0.09601149 -0.4964753
0.8907377 0.1128052 -0.4934542
0.8899004 0.1254005 -0.490433
0.8968078 0.1594299 -0.4914401
0.8940868 0.1969948 -0.4924471
-0.8806927 0.5490001 -0.4924471
0.4124536 -0.06021434 -0.4813696
0.4206169 -0.04231577 -0.4864048
0.4197796 -0.02927853 -0.4813696
0.4949236 0.09556955 -0.4853978
0.8917864 0.1006519 -0.4823766
0.8986917 0.1344603 -0.4833837
0.8976451 0.1470556 -0.4884189
0.894924 0.1848415 -0.4864048
0.9145996 0.2089272 -0.4884189
-0.6496093 0.6939565 -0.4884189
0.4407111 -0.02176555 -0.4733132
0.839037 -0.02972047 -0.4783484
0.470641 -0.006739587 -0.4743202
0.4767132 0.04165285 -0.4723061
0.4758739 0.05446912 -0.4733132
0.5060173 0.06595957 -0.4743202
0.4942936 0.1088278 -0.470292
0.5035055 0.1037454 -0.4743202
0.5020382 0.129378 -0.4733132
0.5012031 0.1417523 -0.4712991
0.8959706 0.1724671 -0.4793555
0.4063835 0.1863882 -0.4712991
0.9236001 0.2133466 -0.4733132
0.9137623 0.2219644 -0.4712991
0.940764 0.2661584 -0.4712991
0.9397174 0.2785328 -0.4783484
0.9462061 0.3238316 -0.4753273
-0.6489813 0.6818031 -0.4783484
-0.6588191 0.6913048 -0.4712991
-0.6596584 0.7036791 -0.4793555
-0.6514931 0.7319633 -0.4733132
0.1302994 -0.7918462 -0.469285
0.1288322 -0.7666556 -0.4612286
0.3917314 -0.06883217 -0.4612286
0.8419695 -0.06706441 -0.4672709
0.4216634 -0.05424815 -0.4632427
0.4503396 -0.02021876 -0.4642498
0.4495044 -0.007181527 -0.4602216
0.4689686 0.01867197 -0.4632427
0.4681292 0.03148823 -0.4612286
0.4664568 0.05645785 -0.4622357
0.50518 0.07877582 -0.4652568
0.4959702 0.08385814 -0.4612286
0.5045542 0.09181306 -0.4622357
0.5028775 0.1170036 -0.4602216
0.9192045 0.1468346 -0.4682779
0.5212973 0.1607557 -0.4672709
0.5302978 0.1649542 -0.4612286
0.5206693 0.173572 -0.4622357
0.9127179 0.2345597 -0.4672709
0.9219256 0.2385372 -0.4672709
0.9388822 0.291349 -0.469285
0.9683935 0.3050492 -0.4662639
-0.6774481 0.7092034 -0.4652568
-0.6609123 0.7290907 -0.469285
-0.6615402 0.741465 -0.4672709
-0.6521211 0.7447796 -0.4652568
-0.6621702 0.7542813 -0.4602216
-0.7605461 -0.3647111 -0.4572004
-0.5859776 -0.1344603 -0.4501511
0.4432229 -0.05888852 -0.4521652
0.4511768 -0.03259308 -0.4531722
0.8384091 -0.01668324 -0.4592145
0.4783898 0.01712518 -0.4551863
0.498482 0.0465142 -0.4531722
0.4976447 0.05888852 -0.4561934
0.4970167 0.07148381 -0.4521652
0.5223438 0.1486024 -0.4551863
0.5296698 0.1779914 -0.4521652
0.4989006 0.1804221 -0.4501511
0.5263208 0.2285935 -0.4531722
0.96944 0.2928958 -0.4531722
0.9380428 0.3041653 -0.4592145
0.9675583 0.3180864 -0.4561934
0.973417 0.3662579 -0.4592145
0.9924647 0.3868081 -0.4531722
-0.6479347 0.6700917 -0.4511581
-0.3270553 0.6913048 -0.4511581
-0.6500279 0.7074357 -0.4531722
-0.6778688 0.7220197 -0.4551863
-0.678704 0.734394 -0.4561934
-0.1642084 -0.6641255 -0.4400806
-0.6058625 -0.1247376 -0.4441088
-0.5866035 -0.121865 -0.4461229
0.4137095 -0.07148381 -0.4451158
0.4528513 -0.0575627 -0.4400806
0.412035 -0.0465142 -0.4420947
0.4520141 -0.04496741 -0.4400806
0.4417598 -0.03347696 -0.4441088
0.47462 0.005745221 -0.4446123
0.5273674 0.07369351 -0.4431017
0.5248556 0.1112584 -0.449144
0.5240183 0.1238537 -0.4410876
0.9166927 0.1852834 -0.4441088
0.5288326 0.1910286 -0.4451158
0.5279974 0.2036239 -0.4441088
0.5181575 0.2117998 -0.449144
0.5271581 0.2164402 -0.4441088
0.5173203 0.2243951 -0.4441088
0.5166923 0.2369904 -0.4400806
0.5254856 0.2414098 -0.448137
0.5248556 0.254447 -0.4420947
0.5240183 0.2668214 -0.4461229
0.9501831 0.2743343 -0.448137
0.5125039 0.2997459 -0.4400806
0.9790685 0.2909071 -0.4420947
0.947462 0.3121202 -0.4471299
0.9763474 0.328693 -0.4461229
0.9972789 0.3242736 -0.4441088
0.966719 0.3309027 -0.449144
0.9964437 0.3368689 -0.4420947
0.9656724 0.343498 -0.448137
0.9648351 0.3563142 -0.4420947
-0.6598636 0.7171583 -0.4420947
-0.1562545 -0.6798144 -0.4380665
-0.2154905 -0.6440172 -0.4330312
-0.1656736 -0.6389349 -0.4360524
-0.7004727 -0.3605126 -0.4360524
-0.7350097 -0.3386366 -0.4310171
0.4442715 -0.07037897 -0.4320242
0.42271 -0.06551762 -0.4300101
0.4425949 -0.04585129 -0.4370594
0.5079011 0.04187383 -0.4330312
0.5072711 0.05491106 -0.4310171
0.5267394 0.08673075 -0.4300101
0.5355306 0.09070821 -0.4310171
0.5233904 0.13667 -0.4320242
0.5313444 0.1532427 -0.4380665
0.5200413 0.1868302 -0.4380665
0.5468336 0.2372114 -0.4310171
0.5158551 0.2498067 -0.4390735
0.5459964 0.2493647 -0.4350453
0.5150199 0.2626229 -0.4350453
0.5215065 0.3050492 -0.4370594
0.977394 0.3163186 -0.4350453
0.5099922 0.3375318 -0.4340383
0.5198321 0.3306817 -0.4390735
0.9455782 0.3377527 -0.4330312
0.5192041 0.343277 -0.4330312
0.9744636 0.3541045 -0.4350453
0.9937227 0.3748757 -0.4310171
0.5166923 0.3812838 -0.4310171
-0.127369 0.6625787 -0.4380665
-0.1175313 0.6636836 -0.4340383
-0.6764016 0.697271 -0.4370594
-0.3551035 0.6935145 -0.4360524
-0.4095253 0.8470887 -0.4390735
-0.2540065 -0.4648105 -0.4219537
0.2123487 -0.2294774 -0.429003
-0.5784444 -0.1200972 -0.4229607
-0.6150745 -0.09755828 -0.4269889
0.411407 -0.03325599 -0.427996
0.4777598 0.03082532 -0.4219537
0.4995264 0.03502375 -0.427996
0.5372052 0.06529665 -0.4229607
0.5259022 0.09932604 -0.4259819
0.5346934 0.1033035 -0.4269889
0.5321816 0.1408684 -0.4259819
0.5529038 0.1497072 -0.4229607
0.5512292 0.1748978 -0.4209466
0.5192041 0.1998674 -0.4229607
0.5493454 0.1998674 -0.427996
0.5451591 0.262181 -0.4249748
0.9784406 0.3043863 -0.4219537
0.5208786 0.3180864 -0.427996
0.9985348 0.3125621 -0.4229607
0.9755123 0.3419512 -0.429003
0.5175317 0.3684676 -0.4269889
0.5158551 0.3941001 -0.4259819
-0.2033503 0.6820241 -0.4239678
-0.176558 0.712518 -0.4249748
-0.177186 0.7251133 -0.4229607
-0.6803785 0.7728428 -0.429003
-0.6531676 0.7708541 -0.427996
-0.4183165 0.8309579 -0.427996
-0.1554172 -0.6919677 -0.4179255
-0.2161185 -0.63098 -0.4199396
-0.3896404 -0.5514308 -0.4128902
-0.2560976 -0.4259198 -0.4128902
0.1619018 -0.3525577 -0.4118832
-0.7356355 -0.3255994 -0.4118832
-0.7291489 -0.3160977 -0.4128902
0.1845099 -0.2405259 -0.4128902
-0.4438529 -0.05667882 -0.4118832
0.5047613 0.02618495 -0.4149043
0.528414 0.0619821 -0.4159114
0.5363679 0.07855485 -0.4128902
0.5338562 0.1163407 -0.4189325
0.5332303 0.1287151 -0.4169184
0.553741 0.1371119 -0.4169184
0.5520665 0.1627444 -0.4169184
0.5487175 0.2124627 -0.4169184
0.5478802 0.225279 -0.4118832
-0.2730521 0.2427356 -0.4189325
0.5445312 0.2754392 -0.4128902
0.5233904 0.2803005 -0.4159114
0.543696 0.2878135 -0.4199396
0.9993721 0.3001878 -0.4169184
0.5420194 0.3130041 -0.4128902
0.5183668 0.3560933 -0.4189325
0.9956044 0.350348 -0.4128902
0.5386683 0.3636062 -0.4138973
0.5135526 0.431665 -0.4199396
0.5118781 0.4575185 -0.4138973
0.2801667 0.5737488 -0.4128902
0.02647726 0.6272235 -0.4199396
0.02584723 0.6398188 -0.4199396
-0.5861869 0.8736051 -0.4189325
-0.1863958 -0.6464479 -0.4008057
-0.1870237 -0.6336316 -0.4018127
-0.1884889 -0.6084411 -0.408862
-0.7567784 -0.4250359 -0.407855
0.1694392 -0.3421721 -0.4058409
0.1656715 -0.2778699 -0.4038268
-0.4114091 -0.1424152 -0.4068479
0.4235452 -0.07767098 -0.4068479
0.4538979 -0.06905314 -0.4038268
0.5380424 0.05358524 -0.4048338
-0.3419166 0.1214231 -0.4008057
0.5545783 0.1247376 -0.408862
0.550392 0.188156 -0.4038268
0.5564621 0.2387581 -0.4058409
0.5428567 0.3006298 -0.4038268
0.5411842 0.3258204 -0.4068479
0.5403449 0.3386366 -0.4018127
0.549134 0.3523368 -0.4008057
0.5378331 0.3764225 -0.4008057
0.5369958 0.3890178 -0.4028198
0.5104129 0.4827091 -0.4008057
-0.5868148 0.5565131 -0.407855
0.2611212 0.5664567 -0.4038268
0.2914697 0.5620373 -0.4008057
0.2500254 0.586786 -0.4008057
0.2297239 0.5947409 -0.407855
0.02731452 0.6148492 -0.4098691
0.05557201 0.6155121 -0.4058409
-0.3322881 -0.5699922 -0.3967775
-0.3902662 -0.5379516 -0.3987916
0.03254739 -0.453983 -0.3917422
-0.05829519 -0.3735499 -0.3957704
0.1673461 -0.3032814 -0.3977845
0.1650436 -0.2652746 -0.3997986
0.1861844 -0.2650536 -0.3957704
0.1941383 -0.2699149 -0.3957704
0.1558338 -0.2517954 -0.3987916
0.1926731 -0.2442824 -0.3947634
-0.3908963 -0.1574412 -0.3927492
-0.4423898 -0.08164844 -0.3927492
-0.4530607 -0.04540935 -0.3947634
-0.4168513 -0.04032703 -0.3997986
0.5058069 0.01414208 -0.3957704
0.5294605 0.05004972 -0.3947634
0.5556248 0.1128052 -0.3917422
0.5629508 0.1375539 -0.3997986
0.5614856 0.1631864 -0.3947634
0.5606484 0.1757817 -0.3957704
0.5589739 0.2011932 -0.3907351
0.5572994 0.2261629 -0.3937563
-0.3207758 0.2414098 -0.3957704
0.5547876 0.2643907 -0.3927492
0.5227646 0.2940007 -0.3917422
0.5508106 0.3275881 -0.3907351
0.5499734 0.3404044 -0.3917422
0.5395076 0.3512319 -0.3987916
0.5474616 0.3779693 -0.3967775
0.5466222 0.3905646 -0.3907351
0.5361565 0.4016131 -0.3997986
0.5457871 0.4029389 -0.3907351
0.5145992 0.4199536 -0.3917422
0.5336468 0.438957 -0.3947634
0.5112501 0.4703348 -0.3997986
0.5313444 0.4767429 -0.3907351
0.5089477 0.5081207 -0.3957704
0.281004 0.5615954 -0.3977845
0.2602818 0.579273 -0.3947634
0.0467787 0.6004862 -0.3987916
0.05640927 0.6031378 -0.3947634
0.04615285 0.6133024 -0.3937563
0.1598107 0.6243509 -0.3917422
0.01643016 0.6360623 -0.3937563
-0.2154905 0.7222406 -0.3967775
-0.2167464 0.7476522 -0.3957704
-0.2481436 -0.5655729 -0.3897281
-0.02773525 -0.402497 -0.3826787
-0.007850348 -0.3887968 -0.3826787
0.1614853 -0.3390785 -0.3826787
0.1644178 -0.2522373 -0.3856999
0.07671279 -0.2299193 -0.3806646
-0.4417598 -0.0944647 -0.3897281
0.5639974 -0.01248481 -0.3897281
0.539089 0.04165285 -0.3867069
0.5623208 0.1505911 -0.3897281
0.5819985 0.1713623 -0.3806646
0.5598112 0.1888189 -0.3816717
0.5803261 0.1967738 -0.3806646
0.5541617 0.2772069 -0.3816717
0.5524852 0.3026185 -0.3806646
0.55165 0.3149928 -0.3856999
0.5725815 0.3101315 -0.3856999
0.5482988 0.365374 -0.3867069
0.5355306 0.4144293 -0.3867069
0.5451591 0.4155342 -0.387714
0.509787 0.4955254 -0.388721
0.4986913 0.5145288 -0.3897281
0.5288326 0.5143078 -0.388721
0.5081104 0.5211579 -0.3826787
0.5279974 0.527124 -0.3856999
-0.5851403 0.5319854 -0.3806646
0.5271581 0.5397193 -0.3826787
0.5064359 0.5461275 -0.387714
0.02836319 0.6031378 -0.3836858
-0.2161185 0.7350569 -0.388721
-0.3844075 -0.638493 -0.3726082
-0.3885938 -0.5624793 -0.3726082
-0.02836319 -0.3894597 -0.3716012
-0.008478292 -0.3759806 -0.3746223
-0.009315551 -0.3631643 -0.3716012
0.02668658 -0.3510109 -0.3776435
0.03945478 -0.2184289 -0.3786505
-0.3900611 -0.1695945 -0.3796576
-0.4118277 -0.1284941 -0.3766364
-0.4225028 -0.08849851 -0.3736153
0.4754573 -0.06618053 -0.3766364
0.5108315 0.005413766 -0.3766364
0.5321816 0.01314772 -0.3746223
0.5305071 0.03811733 -0.3756294
0.5564621 0.1006519 -0.3796576
-0.3423353 0.1349022 -0.3756294
0.5845103 0.1340183 -0.3726082
0.5828358 0.1592089 -0.3705942
-0.2420735 0.2047288 -0.3746223
0.5891152 0.2009723 -0.3726082
-0.374779 0.2190918 -0.3796576
0.5786495 0.2221854 -0.3726082
0.58765 0.2261629 -0.3705942
0.5778143 0.2347807 -0.3746223
0.5558342 0.2522373 -0.3786505
0.5761377 0.2599713 -0.3736153
-0.3218224 0.2674842 -0.3705942
0.5851383 0.2635068 -0.3736153
-0.3226597 0.2798586 -0.3796576
0.5533224 0.2900232 -0.3716012
0.5346934 0.4274666 -0.3726082
0.5443219 0.4285714 -0.3766364
0.513134 0.4455861 -0.3776435
0.5330189 0.4519942 -0.3776435
0.5426474 0.453983 -0.3756294
0.5418101 0.4665783 -0.3766364
0.5411842 0.4793946 -0.3716012
0.5403449 0.4919898 -0.3705942
-0.1742555 0.505248 -0.3705942
0.5296698 0.5021545 -0.3726082
0.4963888 0.5525357 -0.3736153
0.01747673 0.6243509 -0.3705942
-0.3652542 -0.5445807 -0.3635448
-0.002198851 -0.343498 -0.3685801
0.02543069 -0.3251574 -0.366566
0.1608573 -0.3258204 -0.3645519
0.1344837 -0.2336758 -0.366566
0.06875884 -0.2281516 -0.3645519
0.06792158 -0.2157773 -0.3695871
0.07629417 -0.2166611 -0.3645519
-0.3802212 -0.2007513 -0.3695871
-0.3521731 -0.1985416 -0.3695871
-0.105391 -0.1835156 -0.3635448
-0.1937218 -0.1360071 -0.3655589
-0.4210376 -0.1130262 -0.3625378
-0.3366838 -0.1178875 -0.3645519
-0.3576152 -0.09711634 -0.3645519
0.5409728 0.01646227 -0.3635448
0.5313444 0.02574301 -0.367573
0.565044 0.1132472 -0.3655589
0.5642068 0.1260634 -0.3635448
0.590997 0.1755607 -0.3615307
0.5794867 0.2098111 -0.3655589
-0.2427015 0.217324 -0.367573
0.558346 0.2146724 -0.3615307
0.5859755 0.2513534 -0.3645519
0.5752984 0.2727875 -0.367573
0.584301 0.2761021 -0.3695871
0.5744632 0.2853828 -0.3605237
0.5736259 0.2979781 -0.3635448
0.5826265 0.3017346 -0.3625378
0.532391 0.4650315 -0.3635448
0.3777074 0.4955254 -0.367573
-0.1639991 0.5001657 -0.3645519
-0.1750928 0.5178433 -0.3685801
0.5591832 0.5120981 -0.3605237
0.5378331 0.5297757 -0.3695871
0.5265301 0.5525357 -0.3615307
0.5363679 0.5549663 -0.3615307
0.5246463 0.5775052 -0.3695871
0.5346934 0.5803779 -0.3645519
-0.368081 -0.5562921 -0.3514602
-0.06331666 -0.4128826 -0.3524673
-0.00617583 -0.4126616 -0.3564955
0.01873262 -0.3499061 -0.3575025
-0.3869193 -0.2188708 -0.3534743
-0.1254852 -0.1826318 -0.3514602
-0.1263225 -0.1702574 -0.3554884
-0.4181072 -0.1627444 -0.3524673
-0.4484578 -0.1189924 -0.3524673
0.5401356 0.0294995 -0.3575025
0.5943481 0.1251795 -0.3544814
0.5838823 0.1472766 -0.3564955
0.5813706 0.1850624 -0.3504532
-0.2412342 0.1930173 -0.3524673
0.6106746 0.1927964 -0.3564955
0.6098374 0.2053917 -0.3514602
0.576975 0.2478179 -0.3564955
0.5836731 0.2893603 -0.3504532
0.5819985 0.3145509 -0.3585096
0.5811613 0.3273671 -0.3595166
0.5711141 0.3362059 -0.3504532
0.543696 0.4420506 -0.3554884
0.561695 0.4743122 -0.3554884
0.5307185 0.4900011 -0.3595166
0.539717 0.5050271 -0.3514602
0.5372052 0.5428129 -0.3544814
0.5256908 0.5653519 -0.3575025
0.5355306 0.5677826 -0.3575025
0.251072 0.5752956 -0.3585096
0.5240183 0.5905425 -0.3504532
-0.3877545 -0.5744117 -0.3484391
-0.360755 -0.5565131 -0.3423968
-0.3048679 -0.5514308 -0.347432
0.02333545 -0.424594 -0.3454179
-0.05578342 -0.4102309 -0.347432
0.02250029 -0.4122196 -0.3494461
0.1259018 -0.2246161 -0.3454179
-0.379384 -0.2126837 -0.3444109
-0.358869 -0.2159982 -0.347432
-0.3875493 -0.2060546 -0.3423968
-0.3603363 -0.1910286 -0.347432
-0.3806399 -0.1872721 -0.347432
-0.4405039 -0.1052922 -0.3403827
0.5935129 0.1382168 -0.3454179
0.6125585 0.1680477 -0.346425
0.5903711 0.1888189 -0.3444109
0.6117233 0.180643 -0.3434038
0.5884852 0.2142305 -0.346425
0.6092115 0.217987 -0.347432
0.6190472 0.2126837 -0.346425
0.5870221 0.239642 -0.3413897
0.6140237 0.2886974 -0.3434038
0.5721607 0.3238316 -0.3423968
0.5635788 0.4495636 -0.3413897
0.5627416 0.4621589 -0.346425
0.561067 0.4871285 -0.3444109
0.5602298 0.4997238 -0.347432
0.5696489 0.5041432 -0.3434038
0.5388797 0.5178433 -0.346425
0.5688117 0.5167385 -0.3413897
0.5566714 0.5503259 -0.3454179
0.2519092 0.5631422 -0.3484391
0.5558342 0.5627003 -0.347432
0.5646275 0.579715 -0.3434038
0.5340654 0.5931941 -0.3444109
-0.8078512 -0.4409457 -0.3363545
-0.7814775 -0.4424925 -0.3343404
0.0001036108 -0.380179 -0.3363545
0.02919836 -0.387692 -0.3363545
0.02448878 -0.3743233 -0.3348439
0.02794247 -0.3620594 -0.3333333
-0.2636329 -0.2705778 -0.3323263
-0.2998444 -0.2683681 -0.3313192
0.1049703 -0.2168821 -0.3373615
-0.3881752 -0.1930173 -0.3333333
-0.3525917 -0.1846205 -0.3303122
-0.09764636 -0.1720252 -0.3303122
-0.4128743 -0.1017567 -0.3383686
-0.4214583 -0.09954701 -0.3353474
-0.2688658 0.1826318 -0.3383686
-0.3272667 0.2206386 -0.3313192
0.6083722 0.2310242 -0.3323263
0.6075349 0.2436195 -0.3323263
0.6058604 0.2685891 -0.3383686
0.614861 0.2763231 -0.3353474
0.6048138 0.2811844 -0.3383686
0.6041838 0.2940007 -0.3323263
0.5704862 0.3492432 -0.3363545
0.5738353 0.4416087 -0.3353474
0.5721607 0.4667993 -0.3313192
0.5585552 0.5251353 -0.3383686
0.557718 0.5377306 -0.3373615
0.565672 0.5673406 -0.3303122
0.5332303 0.6060104 -0.3383686
0.5533224 0.6007071 -0.3363545
0.8704342 0.8280853 -0.3363545
0.8813207 0.8212352 -0.3333333
-0.3666179 -0.5803779 -0.3242699
-0.3040286 -0.5635841 -0.3282981
-0.005129257 -0.4239311 -0.3202417
0.001150184 -0.3923323 -0.3202417
0.01977919 -0.3611756 -0.3282981
-0.2422828 -0.2807425 -0.3282981
-0.2343289 -0.2829522 -0.3222558
-0.3592898 -0.20274 -0.3252769
-0.4363176 -0.180643 -0.3232628
-0.3888031 -0.1802011 -0.3212487
-0.445316 -0.1680477 -0.3242699
-0.135323 -0.1578831 -0.327291
-0.4122464 -0.1139101 -0.3293051
0.5920456 0.1642912 -0.3202417
-0.2600746 0.1848415 -0.3202417
-0.3264273 0.2080433 -0.326284
-0.3180548 0.2058336 -0.3222558
0.6167448 0.2513534 -0.3222558
0.6159075 0.2641697 -0.3212487
0.5696489 0.3618385 -0.3282981
0.5922549 0.4694509 -0.326284
0.5713235 0.4793946 -0.3282981
0.5914177 0.4820462 -0.3242699
0.5706955 0.4919898 -0.3242699
0.5905804 0.4946415 -0.3242699
0.5999996 0.5032593 -0.3242699
0.5681837 0.5295547 -0.3242699
0.5880687 0.5324274 -0.3242699
0.5673486 0.54215 -0.326284
0.5665092 0.5551873 -0.3212487
0.5639974 0.5929732 -0.3242699
0.5526944 0.6135234 -0.3212487
-0.4003154 0.6992598 -0.327291
0.8505493 0.8316208 -0.3222558
0.849712 0.8442161 -0.3222558
0.7574043 0.8625566 -0.3222558
-0.004291998 -0.4363054 -0.3141994
0.003243332 -0.4303392 -0.3131923
-0.2981699 -0.2926748 -0.3101712
0.1549965 -0.2235112 -0.3101712
0.04782737 -0.2056126 -0.3182276
-0.1064376 -0.1565573 -0.3101712
-0.4388293 -0.129378 -0.3101712
-0.3368931 -0.1037454 -0.3131923
0.5928829 0.1519169 -0.3172205
-0.2607025 0.1974367 -0.3172205
-0.2613305 0.210032 -0.3182276
0.5732073 0.4546459 -0.3182276
0.5930922 0.4572975 -0.3131923
0.6025113 0.4659154 -0.3121853
0.6008368 0.490664 -0.3141994
0.5968599 0.5536405 -0.3152064
0.5960247 0.5664567 -0.3101712
0.5836731 0.5951828 -0.3182276
0.5828358 0.6079991 -0.3162135
-0.3718507 0.6908629 -0.3152064
0.8834117 0.7964866 -0.3141994
-0.4438529 0.8095238 -0.3101712
0.9018314 0.8095238 -0.3162135
0.8714808 0.8161529 -0.3172205
0.9001569 0.8347144 -0.3141994
0.839037 0.8446581 -0.3162135
0.7879642 0.859905 -0.3182276
0.7764519 0.8652083 -0.3162135
0.5378331 0.9944757 -0.3141994
-0.3649412 -0.6042426 -0.3001007
-0.3655692 -0.5920893 -0.3011078
-0.3121939 -0.5419291 -0.306143
0.09701633 -0.2115788 -0.305136
0.06771017 -0.2011932 -0.3081571
-0.0769242 -0.173351 -0.3081571
-0.1637898 -0.1523589 -0.3011078
-0.2699103 0.2084852 -0.306143
0.606907 0.2568777 -0.305136
0.5807427 0.3412883 -0.3091641
0.5648326 0.4380731 -0.3021148
0.6018834 0.4785106 -0.3041289
-0.2014665 0.4990609 -0.3021148
-0.1916287 0.4968512 -0.3011078
0.5897431 0.5078997 -0.306143
0.5993716 0.5162966 -0.306143
-0.1930939 0.5218208 -0.305136
0.5889059 0.520274 -0.306143
0.5872314 0.5456856 -0.3031219
0.5976971 0.5417081 -0.305136
0.5863941 0.5578389 -0.30715
0.5554156 0.5766214 -0.305136
0.5847196 0.5830295 -0.306143
0.5633695 0.6062313 -0.3081571
0.8725274 0.8039995 -0.305136
0.7274722 0.8667551 -0.3001007
0.726635 0.8791294 -0.3091641
0.6041838 0.9043199 -0.3021148
0.6341179 0.9087394 -0.3001007
0.5608577 0.933488 -0.3081571
0.5719514 0.9310573 -0.3011078
0.5403449 0.9571318 -0.305136
0.509787 0.9708319 -0.3031219
0.558346 0.9712739 -0.3011078
0.5089477 0.9834272 -0.3081571
0.4976447 0.992708 -0.3011078
0.5081104 0.9960225 -0.305136
-0.3858727 -0.5976135 -0.2950655
-0.3113567 -0.5538614 -0.2940584
-0.757825 -0.3834935 -0.2920443
-0.2627957 -0.2820683 -0.2990937
0.1342743 -0.2184289 -0.2940584
0.07608485 -0.2016352 -0.2980866
-0.1056003 -0.1682687 -0.2920443
-0.437362 -0.1536847 -0.2900302
-0.446574 -0.1417523 -0.2900302
-0.4382014 -0.1415313 -0.2960725
-0.4189465 -0.1357861 -0.2960725
-0.3641019 -0.1132472 -0.2910373
-0.3647319 -0.1006519 -0.2900302
-0.3584525 -0.06949508 -0.2970796
-0.3170061 0.1941222 -0.2900302
-0.28896 0.1976577 -0.2990937
-0.3184734 0.2193128 -0.2910373
-0.2895879 0.210253 -0.2930514
0.5799054 0.3541045 -0.2970796
0.585559 0.5708761 -0.2950655
0.5951853 0.579715 -0.2920443
0.5545783 0.5894376 -0.2930514
0.5943481 0.5918683 -0.2980866
-0.4382014 0.7100873 -0.2950655
0.8419695 0.807977 -0.2940584
0.8825744 0.8095238 -0.2950655
0.8518052 0.8199094 -0.2970796
0.9012035 0.822561 -0.2980866
0.8400835 0.8327256 -0.2980866
0.7161692 0.8773616 -0.2920443
0.7567763 0.8755938 -0.2960725
0.6050231 0.8921666 -0.2940584
0.7257977 0.8921666 -0.2970796
0.5924643 0.9111701 -0.2980866
0.6033486 0.9169152 -0.2950655
0.5619043 0.9215556 -0.2920443
0.5413893 0.9449785 -0.2910373
0.5711141 0.9438736 -0.2950655
0.5591832 0.9591205 -0.2920443
-0.3086356 -0.6035797 -0.2870091
-0.3107287 -0.5662358 -0.2890232
0.002824702 -0.41686 -0.2819738
0.002198851 -0.4040438 -0.2819738
0.02229097 -0.3974147 -0.2890232
0.1635784 -0.2228483 -0.286002
-0.4457367 -0.1541266 -0.2829809
-0.09806499 -0.1576621 -0.2880161
-0.4183165 -0.1481604 -0.2880161
-0.3821051 -0.1468346 -0.2809668
-0.1554172 -0.1472766 -0.2809668
0.5987458 0.5295547 -0.2839879
0.8752484 0.7668766 -0.2890232
0.8744112 0.7794719 -0.2829809
0.8438512 0.7827864 -0.2880161
0.8545263 0.7825655 -0.2829809
0.8430139 0.7953817 -0.2819738
0.853689 0.7949398 -0.2819738
0.8227105 0.8075351 -0.284995
0.8526403 0.8075351 -0.2819738
0.8107774 0.8165948 -0.2890232
0.8411301 0.8205723 -0.2890232
0.8199893 0.8453209 -0.2839879
0.7469385 0.8649873 -0.2809668
0.5439011 0.9074135 -0.286002
0.5309236 0.94078 -0.2819738
0.5602298 0.9465252 -0.2819738
0.4995264 0.9679593 -0.2870091
0.4790157 0.9880676 -0.2890232
0.5388797 0.9825433 -0.2829809
0.5679744 0.9935918 -0.286002
-0.3850334 -0.6093249 -0.2799597
-0.3090563 -0.5905425 -0.2719033
-0.3865007 -0.5841343 -0.2769386
-0.7561504 -0.4075793 -0.2719033
-0.2694937 -0.2935587 -0.2779456
-0.2412342 -0.291128 -0.2749245
-0.1263225 -0.1547895 -0.2708963
-0.3555221 -0.1194343 -0.2769386
-0.3561521 -0.1066181 -0.2739174
-0.2881248 0.1857253 -0.2769386
-0.2971233 0.1947851 -0.2769386
0.8844583 0.7847751 -0.2799597
0.8235477 0.7953817 -0.2729104
0.8735718 0.7922881 -0.2779456
0.7293561 0.8420064 -0.2759315
0.606907 0.867197 -0.2769386
0.7461013 0.8775826 -0.2779456
0.3034006 0.8897359 -0.2708963
0.5943481 0.8866423 -0.2799597
0.5935129 0.8990167 -0.2789527
0.6240708 0.8999006 -0.2789527
0.5627416 0.9091813 -0.2779456
0.5738353 0.9065297 -0.2799597
0.572998 0.918904 -0.2799597
0.5319723 0.9286267 -0.2719033
0.5110408 0.9591205 -0.2719033
0.4798529 0.9756933 -0.2708963
0.5399262 0.97039 -0.2739174
0.4986913 0.9805546 -0.2799597
0.557718 0.9840901 -0.2779456
0.4679241 0.992929 -0.2749245
-0.3285205 -0.6157331 -0.2628399
-0.06813299 -0.1779914 -0.2638469
-0.06876093 -0.1656171 -0.2698892
-0.2146533 -0.1061761 -0.264854
-0.2203027 0.5067948 -0.2608258
-0.259028 0.5211579 -0.2678751
0.8555728 0.7706331 -0.2638469
0.8118261 0.8044415 -0.2668681
0.7312399 0.8170368 -0.2638469
0.7013079 0.8205723 -0.2608258
0.7304026 0.8296321 -0.264854
0.6267919 0.8629985 -0.2608258
0.5951853 0.874489 -0.265861
0.6259546 0.8751519 -0.2678751
0.3835682 0.8868634 -0.2638469
0.606279 0.8802342 -0.264854
0.2912604 0.9025522 -0.264854
0.2709568 0.9173572 -0.2668681
0.5328096 0.9162524 -0.2668681
0.5918363 0.9244282 -0.2638469
0.527786 0.9916031 -0.2618328
-0.2609119 -0.3059331 -0.2567976
-0.3525917 -0.1693736 -0.2567976
-0.3532196 -0.1565573 -0.2588117
-0.3615901 -0.1497072 -0.2507553
-0.3622202 -0.1371119 -0.2517623
0.7121923 0.07524031 -0.2517623
-0.22177 0.5319854 -0.2547835
-0.4522255 0.6451221 -0.2588117
0.5767657 0.7096453 -0.2507553
0.722658 0.7907414 -0.2567976
0.8128726 0.7922881 -0.2567976
0.7023545 0.808198 -0.2588117
0.7218186 0.8033366 -0.2578046
0.7209835 0.815711 -0.2557905
-0.4440622 0.8236659 -0.2507553
0.8220825 0.8207933 -0.2557905
0.821038 0.8333886 -0.2578046
0.274308 0.867418 -0.2527694
0.2937722 0.8649873 -0.2567976
0.2623749 0.8780245 -0.2567976
0.2734686 0.8800133 -0.2557905
0.3957084 0.8811181 -0.2507553
0.5648326 0.8848746 -0.2507553
0.5757191 0.882223 -0.2507553
0.261747 0.8906198 -0.2537764
0.5639974 0.897028 -0.2527694
0.5748818 0.8948182 -0.2507553
0.2609097 0.9029942 -0.2537764
0.271792 0.9049829 -0.2578046
0.3027727 0.9025522 -0.2547835
0.2906324 0.9153685 -0.2557905
0.5432753 0.9208927 -0.2567976
0.542438 0.9332671 -0.2537764
0.2694916 0.9423268 -0.2588117
0.2688637 0.9549221 -0.2588117
0.5305071 0.9540382 -0.2537764
0.4809016 0.96354 -0.2588117
0.5296698 0.9668545 -0.2537764
0.5286233 0.9794498 -0.2537764
-0.7494524 -0.3958679 -0.2467271
-0.3538476 -0.1432991 -0.2437059
-0.3295671 -0.07656612 -0.2437059
-0.2954488 0.3249365 -0.2406848
-0.2757732 0.3231687 -0.2497482
0.868969 0.4458071 -0.2487412
-0.002828888 0.512982 -0.2437059
-0.424596 0.6490995 -0.2406848
-0.465831 0.7171583 -0.2437059
0.5840917 0.756491 -0.2477341
0.7948737 0.7739477 -0.2416918
0.6897956 0.8272014 -0.2437059
0.7201462 0.8283063 -0.2437059
0.6998427 0.8464258 -0.2416918
0.2640474 0.8532759 -0.2426989
0.5765563 0.8696277 -0.244713
0.2931442 0.8778036 -0.2467271
0.2433273 0.8842117 -0.2406848
0.3634719 0.9096233 -0.2416918
0.5338562 0.904099 -0.2477341
0.2602818 0.9158104 -0.2416918
0.2586094 0.94078 -0.2437059
-0.7500803 -0.3828306 -0.2336355
-0.2975419 0.2087062 -0.2366566
-0.191838 0.5114352 -0.2346425
-0.03150291 0.5180643 -0.2396777
-0.2209327 0.520053 -0.2386707
-0.4622726 0.6550657 -0.2366566
-0.4649937 0.705005 -0.2336355
0.700682 0.8338305 -0.2396777
0.3262159 0.8435532 -0.2386707
0.2946094 0.8530549 -0.2396777
0.2424901 0.897028 -0.2356495
0.2594445 0.9284057 -0.2326284
0.25777 0.9535963 -0.2386707
-0.7479872 -0.4203955 -0.2265861
-0.7486172 -0.4075793 -0.2215509
-0.3599177 -0.173793 -0.2275932
-0.2299333 0.5198321 -0.224572
-0.2491902 0.5266821 -0.2265861
-0.2498182 0.5392774 -0.2215509
-0.4340151 0.6490995 -0.223565
-0.4526441 0.6586013 -0.2225579
-0.4361083 0.6868854 -0.224572
-0.4080601 0.6848967 -0.2215509
-0.4367362 0.6994807 -0.2205438
0.5759284 0.7229035 -0.2286002
0.5750932 0.7352779 -0.2275932
-0.4444808 0.8369241 -0.2225579
-0.445316 0.8492984 -0.2255791
0.295656 0.8409016 -0.2255791
0.6891677 0.8402386 -0.224572
0.3061217 0.8534968 -0.2275932
-0.4472019 0.8868634 -0.223565
0.27305 0.8932714 -0.2215509
0.231815 0.9043199 -0.2205438
0.2418621 0.9096233 -0.2296073
-0.3161709 -0.3163186 -0.2114804
0.7134482 0.06397083 -0.2145015
-0.4800643 0.6552867 -0.2185297
-0.3978037 0.6771628 -0.2134945
-0.4264798 0.6873274 -0.2155086
-0.3986409 0.6897581 -0.2124874
-0.3804305 0.6890951 -0.2134945
-0.4641564 0.6928516 -0.2134945
-0.4086859 0.697713 -0.2185297
-0.4344337 0.837587 -0.2165156
-0.4733663 0.8552646 -0.2165156
-0.4739921 0.8678599 -0.2165156
-0.4185258 0.874047 -0.2134945
-0.4371569 0.8877472 -0.2165156
0.2123487 0.9133797 -0.2195368
0.239769 0.9474092 -0.2145015
-0.3802212 -0.1695945 -0.203424
-0.3808492 -0.1567783 -0.2024169
-0.4785991 -0.03922218 -0.2004028
-0.2747266 0.3118992 -0.204431
0.8783882 0.4581814 -0.203424
-0.4057597 0.6475527 -0.2014099
-0.3781281 0.6517512 -0.203424
-0.4250146 0.6625787 -0.2074522
-0.3971757 0.6647884 -0.2004028
-0.4530607 0.6716385 -0.203424
-0.4536907 0.6842338 -0.2074522
-0.3703834 0.6811402 -0.2094663
-0.4268963 0.7001436 -0.2054381
0.2964932 0.8289692 -0.2084592
0.2334895 0.8797923 -0.2084592
0.2389317 0.9602254 -0.2064451
0.1390886 0.9922661 -0.2014099
-0.2738894 0.2995249 -0.1973817
-0.2303519 0.5328693 -0.1963746
-0.480483 0.6687659 -0.1913394
-0.4254332 0.675174 -0.1953676
-0.4543186 0.6968291 -0.1993958
-0.4892742 0.8313999 -0.1933535
0.1801164 0.9659706 -0.1943605
0.179277 0.9785659 -0.1973817
-0.368081 0.6440172 -0.1883182
-0.3963385 0.6526351 -0.1822759
-0.4624819 0.6687659 -0.1863041
-0.4344337 0.6627997 -0.183283
-0.379384 0.6773837 -0.1863041
0.4762946 -0.04717711 -0.1792548
0.8777602 0.4712186 -0.1762336
-0.3954991 0.6402608 -0.1762336
-0.3693348 0.6692078 -0.1782477
-0.4348503 0.675616 -0.1722054
-0.4896907 0.8444371 -0.1792548
-0.4174792 0.8623357 -0.1701913
-0.1633712 -0.1349022 -0.1601208
0.5742539 -0.1300409 -0.1611279
0.4756687 -0.0339189 -0.1621349
0.4848765 -0.03657055 -0.1601208
0.4840392 -0.02397525 -0.1621349
0.4823647 0.001657275 -0.163142
-0.3770836 0.6402608 -0.163142
-0.4059649 0.6610319 -0.164149
-0.3785467 0.6654513 -0.163142
-0.4068042 0.6736272 -0.1611279
-0.4633213 0.8729422 -0.1601208
0.1390886 -0.276765 -0.1591138
-0.07629417 -0.1554524 -0.1510574
0.5838823 -0.1450668 -0.1550856
0.5824171 -0.1198763 -0.1530715
0.5717421 -0.09247597 -0.1540785
-0.3682903 0.6572754 -0.1510574
-0.4346451 0.8515081 -0.1581067
0.5815799 -0.106839 -0.1440081
0.5485082 -0.06507568 -0.1450151
0.5694396 -0.05424815 -0.1440081
0.4748294 -0.02088167 -0.1490433
0.4834113 -0.01049608 -0.1409869
0.5043427 0.006518617 -0.1440081
-0.4626912 0.8607889 -0.1480363
0.5727866 -0.1044084 -0.1379658
0.5807427 -0.09424373 -0.1349446
0.5711141 -0.07921777 -0.1359517
0.4867603 -0.06087725 -0.1309164
0.5399262 -0.06618053 -0.1309164
0.5686024 -0.04165285 -0.1359517
-0.0825757 0.4358634 -0.1379658
0.05599064 0.4948624 -0.1369587
0.8970193 0.4957463 -0.1339376
-0.05913245 0.5218208 -0.1399799
0.861643 0.5618164 -0.1369587
-0.4331779 0.8272014 -0.1369587
0.5849289 -0.1567783 -0.1248741
0.5752984 -0.1410894 -0.121853
0.5736259 -0.1163407 -0.1268882
0.539089 -0.05336427 -0.1258812
0.5053893 -0.005192796 -0.1258812
0.5137619 0.001215335 -0.1268882
-0.07441243 0.4667993 -0.12286
0.868969 0.4621589 -0.1208459
0.5535317 -0.1399845 -0.1188318
-0.1930939 -0.1024196 -0.1188318
0.5478802 -0.05115457 -0.1188318
-0.1882796 -0.04408353 -0.1188318
0.688749 0.1236328 -0.1148036
0.6567239 0.143741 -0.1127895
0.2866555 0.1967738 -0.1117825
0.284353 0.2343387 -0.1148036
0.8961799 0.5085626 -0.1178248
-0.4610146 0.8364822 -0.1158107
0.1560431 -0.2038449 -0.1077543
-0.195187 -0.06441277 -0.1077543
0.5472523 -0.0383383 -0.1067472
0.5148085 -0.01071705 -0.1047331
0.3601249 0.4972931 -0.1077543
0.3272625 0.5322064 -0.1037261
0.295656 0.5452436 -0.102719
0.3157502 0.5441388 -0.1067472
-0.4448995 0.8647663 -0.1077543
0.1108311 -0.2719037 -0.09466264
0.3957084 -0.2151144 -0.09667674
0.1646229 -0.2034029 -0.09365559
0.1554151 -0.1910286 -0.09869084
0.3917314 -0.1525798 -0.09063444
0.5089477 -0.05469009 -0.09969789
0.4744107 -0.006739587 -0.09768379
0.6473047 0.1408684 -0.09768379
0.8515959 0.4237101 -0.09164149
-0.05578342 0.4729864 -0.09264854
0.3492405 0.5098884 -0.09466264
0.3174247 0.5196111 -0.09365559
0.3167968 0.5322064 -0.09063444
0.3475681 0.5353 -0.09164149
0.3580339 0.5353 -0.09466264
0.4051297 -0.2201967 -0.08459215
0.5083197 -0.04165285 -0.0835851
0.5173203 -0.04761905 -0.08257805
0.6464674 0.1536847 -0.08862034
0.358869 0.5229256 -0.08559919
0.3266367 0.5454646 -0.081571
-0.4706452 0.8336095 -0.0835851
-0.445316 0.8778036 -0.0835851
0.1032958 -0.2783118 -0.07854985
0.08152703 -0.2573196 -0.0795569
0.163997 -0.1901447 -0.0735146
0.03903405 -0.1576621 -0.0755287
0.5445312 -0.1269473 -0.07653575
0.5531131 -0.1258425 -0.0795569
0.5805312 -0.07965971 -0.0795569
0.6793299 0.1304828 -0.0715005
-0.05473685 0.460833 -0.0795569
0.1813702 0.4816042 -0.07452165
0.3283091 0.520274 -0.0775428
0.895552 0.5220417 -0.07854985
0.8731553 0.549663 -0.07452165
-0.4344337 0.8658712 -0.07452165
-0.435271 0.8784665 -0.07854985
0.5547876 -0.1505911 -0.06143001
0.5380424 -0.02640592 -0.06646526
0.5372052 -0.01381063 -0.06143001
0.5608577 0.08562589 -0.06646526
0.179277 0.5196111 -0.06747231
0.3597063 0.5109932 -0.0694864
0.3486126 0.5231466 -0.06847936
0.02082577 -0.1877141 -0.05740181
0.1633691 -0.1768865 -0.05740181
0.1246459 -0.151696 -0.05035247
0.617582 0.1397636 -0.05337362
0.4995264 -0.247376 -0.04229607
0.5298792 -0.2365485 -0.04632427
0.02145371 -0.2003094 -0.04934542
0.04887394 -0.1709203 -0.04229607
0.1543685 -0.1640703 -0.04128902
0.5068545 -0.01513645 -0.04531722
0.6977496 0.000110485 -0.04431017
0.2008364 0.4862446 -0.04632427
0.2100463 0.4935366 -0.04934542
0.3186827 0.5083416 -0.04431017
0.1991619 0.5112143 -0.04833837
0.8019883 0.5467904 -0.04632427
0.8633175 0.5518727 -0.04330312
0.1127149 -0.2955475 -0.03826788
0.1328091 -0.1457298 -0.03323263
0.2025109 0.4617169 -0.03423968
0.2016737 0.4740913 -0.03927492
0.2110928 0.4813833 -0.03121853
0.2985864 0.5096675 -0.03625378
0.8744112 0.5381726 -0.03222558
0.801151 0.5598276 -0.03423968
0.8097329 0.5912054 -0.03524673
0.3948691 -0.1872721 -0.02014099
0.048246 -0.1574412 -0.02215509
0.1321812 -0.1326925 -0.02014099
0.6969123 0.01314772 -0.02416918
0.2891672 0.4964092 -0.02920443
0.28833 0.5090045 -0.02517623
0.329565 0.5090045 -0.02719033
0.8643641 0.5397193 -0.02618328
0.5637881 0.04982875 -0.01913394
0.6169562 0.1532427 -0.01812689
0.2033482 0.4497845 -0.01208459
-0.02836319 0.9803337 -0.01812689
0.5081104 -0.02618495 -0.003021148
0.5893245 0.1205392 -0.005035247
0.2173723 0.3821677 -2.88658e-15
0.2699103 0.4888963 -0.009063444
0.7835686 0.5324274 -0.009063444
0.7810568 0.5702133 -0.001007049
-0.05620205 0.9737046 -0.003021148
0.3942432 -0.1740139 0.003021148
0.550392 -0.07258867 0.002014099
0.5173203 -0.03237211 0.001007049
0.6259546 0.1607557 0.003021148
0.2902117 0.4849188 0.002014099
0.299633 0.498177 0.005035247
0.875667 0.5269031 0.009063444
-0.0007336481 0.9951386 0.007049345
0.1035051 -0.2626229 0.01510574
0.5579273 -0.1857253 0.01208459
0.3934059 -0.1611977 0.01409869
0.516483 -0.01933488 0.01309164
0.6491885 0.1320296 0.01913394
0.6270012 0.1486024 0.01611279
0.2190468 0.35764 0.01711984
0.7130295 0.5341951 0.01007049
0.5223438 -0.2372114 0.02920443
0.1022492 -0.1026406 0.02517623
0.1309253 -0.1059551 0.02114804
0.5606484 0.1013148 0.02920443
0.5886966 0.1340183 0.02316214
0.2100463 0.3510109 0.02618328
0.2347454 0.4265827 0.02719033
0.4919932 -0.2517954 0.03927492
0.4384086 -0.239863 0.03222558
0.4273149 -0.2051707 0.03021148
0.1319719 -0.1181085 0.03524673
0.1302994 -0.09269694 0.03323263
0.1014119 -0.08982433 0.03021148
0.1215061 -0.08673075 0.03021148
0.569021 0.1134681 0.03726083
0.1014119 0.3987405 0.03524673
0.8518052 0.4400619 0.03826788
0.2623749 0.461054 0.03222558
0.7821013 0.5585018 0.03021148
-0.1022534 0.9840901 0.03625378
0.4369434 -0.2140095 0.04431017
0.1022492 0.3861452 0.04028197
0.7936157 0.3963098 0.04934542
0.235792 0.4144293 0.04128902
0.7203556 0.4349796 0.04330312
0.2720034 0.4652525 0.04128902
0.261747 0.4736493 0.04128902
0.2609097 0.4860236 0.04028197
-0.07336585 0.9790078 0.04733132
0.6615402 -0.3684676 0.05438067
0.4394552 -0.2515744 0.05941591
0.1231807 -0.1108165 0.05337362
0.6690735 -0.01447354 0.05135952
0.6900049 -0.002983096 0.05840886
0.5765563 0.001215335 0.05740181
0.5635788 0.06485471 0.05941591
0.681423 0.122086 0.05941591
0.1633691 0.3271462 0.05941591
0.5970692 0.4553088 0.05538771
0.876923 0.5156336 0.05337362
0.7850338 0.5213789 0.05236657
0.7538459 0.5375097 0.05538771
0.7237046 0.5408242 0.05740181
0.7530107 0.549884 0.05639476
-0.08383159 0.9761353 0.05135952
-0.05641136 0.9874047 0.05035247
0.5508106 -0.1963319 0.06847936
0.1225548 -0.09800022 0.06445116
0.4798529 -0.06374986 0.06646526
0.629513 -0.01977682 0.06143001
0.5627416 0.07745001 0.06243706
0.7835686 0.3991824 0.06042296
0.8137099 0.4002873 0.06445116
0.7214021 0.4232681 0.06646526
0.2431159 0.4575185 0.06243706
0.6956543 0.505248 0.0694864
0.8779695 0.5032593 0.06143001
0.7546831 0.5251353 0.06445116
0.7833593 0.5467904 0.06042296
-0.04531768 0.9829853 0.0694864
-0.113345 0.9940338 0.06042296
-0.01747883 0.9938129 0.06143001
0.430036 -0.2407469 0.0755287
0.6592357 0.1371119 0.0795569
0.1918359 0.3353221 0.0775428
0.7324958 0.4161971 0.07653575
0.8660386 0.5302176 0.07854985
-0.04448042 0.97039 0.0735146
0.4708524 -0.2551099 0.08559919
0.55165 -0.2082643 0.08761329
0.09199277 -0.06043531 0.0835851
0.449293 -0.06551762 0.08660624
0.09973741 -0.05004972 0.08257805
0.5196227 -0.05469009 0.08660624
0.6598636 -0.01557839 0.081571
0.8670852 0.5182853 0.08761329
0.7431709 0.549663 0.08559919
0.7230766 0.5540824 0.08862034
-0.04594563 0.9955806 0.08257805
0.4915725 -0.2372114 0.09869084
0.4049183 -0.188377 0.09969789
0.4042903 -0.1757817 0.09667674
0.1012026 -0.07501934 0.09466264
0.4589215 -0.06485471 0.09466264
0.09136273 -0.04739808 0.09667674
0.6971216 0.02972047 0.09768379
0.5704862 0.1024196 0.09264854
0.1834633 0.3255994 0.09466264
0.1828333 0.3379737 0.09466264
0.7333331 0.4040438 0.09063444
-0.08424813 0.9896144 0.09869084
-0.1024585 0.9977903 0.09063444
0.4702245 -0.2411888 0.1057402
0.5595998 -0.1947851 0.1087613
0.6079535 -0.01093802 0.1047331
0.1652529 0.3032814 0.102719
0.1549965 0.3267042 0.102719
0.1926731 0.3236107 0.1037261
0.793197 0.41001 0.1037261
0.6077442 0.4524362 0.1007049
-0.07357726 0.992708 0.1037261
0.4999472 -0.2292564 0.1127895
0.100784 -0.06176113 0.1127895
0.5114595 -0.0597724 0.1188318
0.07085198 -0.03546569 0.1178248
0.1566689 0.3021766 0.1178248
0.1560431 0.3147719 0.1148036
0.1646229 0.3160977 0.1107754
0.7201462 0.4497845 0.1198389
0.7149134 0.5246934 0.1168177
0.7444267 0.5379516 0.1137966
-0.02794456 0.9958016 0.1107754
0.06164214 -0.02353331 0.12286
0.5746725 0.04121092 0.1238671
0.6939819 0.08120649 0.1258812
0.1365768 0.3085847 0.1299094
0.126739 0.3156557 0.1248741
0.1845099 0.313888 0.1258812
0.8792254 0.4924318 0.12286
0.7735215 0.5509889 0.121853
0.5581366 -0.1689316 0.1389728
0.5572994 -0.1563363 0.1369587
0.4599701 -0.07590321 0.1349446
0.5206693 -0.06507568 0.1389728
0.565672 0.0420948 0.1309164
0.6914701 0.1192134 0.1389728
0.7427501 0.5633631 0.1339376
0.635581 -0.4272456 0.1470292
0.5455778 -0.106839 0.1440081
0.5541617 -0.1055132 0.1450151
0.5127153 -0.07126284 0.1480363
0.5215065 -0.07789195 0.1409869
0.4899001 -0.06397083 0.1490433
0.5997903 -0.01226384 0.1450151
0.6389321 -0.01137996 0.1480363
0.5732073 0.06662247 0.1440081
0.6925167 0.106839 0.1450151
0.5999996 0.1158988 0.1460222
0.1374141 0.2966523 0.1450151
0.1275763 0.3037233 0.141994
0.7833593 0.4139874 0.143001
0.07022613 -0.02176555 0.1500504
0.5757191 0.02972047 0.1581067
0.6950285 0.06927411 0.1540785
0.1382534 0.284278 0.1530715
0.7247512 0.3885759 0.1550856
0.7348003 0.3934372 0.1560926
0.7031918 0.4075793 0.1550856
0.8243849 0.4084632 0.1540785
0.8425953 0.4409457 0.1550856
0.7090526 0.6130815 0.1591138
0.6795391 0.7571539 0.1540785
0.5606484 -0.2056126 0.1611279
0.4032438 -0.1483814 0.1621349
0.4024086 -0.1355651 0.164149
0.5449498 -0.09358082 0.164149
0.5533224 -0.092255 0.1601208
0.06122351 -0.009612198 0.1601208
0.5991623 0.001215335 0.1681772
0.5725815 0.08010165 0.163142
0.591627 0.1136891 0.1691843
0.1091566 0.2893603 0.1621349
0.7170065 0.5010496 0.1681772
0.6678175 0.7743896 0.1681772
0.404081 -0.1607557 0.1732125
0.5441126 -0.08098552 0.1701913
0.06980541 -0.008507348 0.1701913
0.06896815 0.004087946 0.1711984
0.5767657 0.01756712 0.1762336
0.6935633 0.09512761 0.1732125
0.5995809 0.1295989 0.1792548
0.1116684 0.2520164 0.1772407
0.1286228 0.2920119 0.1722054
0.8785996 0.3706773 0.1711984
0.7643116 0.4027179 0.1701913
0.6092115 0.4418296 0.1792548
0.8963892 0.6837919 0.1732125
0.6686548 0.7620152 0.1701913
0.7358449 0.8152691 0.1742195
0.5526944 -0.07877582 0.1852971
0.5432753 -0.06816927 0.1802618
0.06059556 0.003866976 0.1852971
0.05913036 0.02839465 0.18429
0.5719514 0.09291791 0.1812689
0.6203031 0.1351232 0.1883182
0.1108311 0.2650536 0.18429
0.7257977 0.3768644 0.1812689
0.7241232 0.4016131 0.1822759
0.7538459 0.4155342 0.1873112
0.7161692 0.5140868 0.1852971
0.7747774 0.5401613 0.1852971
0.8283619 0.7938349 0.1822759
0.4700151 -0.225279 0.1903323
0.3925687 -0.1176666 0.1943605
0.05996552 0.01646227 0.1903323
0.06854952 0.01778809 0.1953676
0.689377 0.02640592 0.1913394
0.05850242 0.04143189 0.1953676
0.8139192 0.4164181 0.1943605
0.610256 0.4298972 0.1963746
0.7324958 0.4321069 0.1943605
0.711983 0.5764004 0.1933535
0.861643 0.6084411 0.1983887
0.8938774 0.7215777 0.1933535
0.5501827 -0.1667219 0.2064451
0.3934059 -0.1295989 0.2084592
0.6540028 0.08827754 0.2084592
0.05410681 0.1158988 0.2064451
0.07713143 0.2053917 0.2074522
0.1104125 0.2780908 0.204431
0.1298787 0.2807425 0.2084592
0.6309782 0.4250359 0.2064451
0.7567763 0.5165175 0.2054381
0.6925167 0.571539 0.203424
0.8626896 0.5960667 0.2094663
0.4917839 -0.2204176 0.2155086
0.55102 -0.1786543 0.2114804
0.5493454 -0.1541266 0.2104733
0.66949 0.003646006 0.2124874
0.6904215 0.01469451 0.2134945
0.5673486 0.03259308 0.2134945
0.697331 0.04629323 0.2195368
0.5926735 0.1028616 0.2124874
0.6293036 0.1424152 0.2165156
0.1018285 0.2683681 0.2104733
0.6502351 0.7463264 0.2175227
0.8490841 0.7827864 0.2145015
0.5231811 -0.217545 0.2296073
0.6602822 0.001657275 0.2275932
0.6843534 0.1026406 0.2286002
0.6835161 0.1147939 0.2225579
0.1026678 0.2564358 0.2225579
0.130716 0.2685891 0.2205438
0.8241757 0.4232681 0.2255791
0.8233384 0.4358634 0.2275932
0.8524352 0.4577395 0.2275932
0.8708549 0.4846978 0.2275932
0.726007 0.5330903 0.2265861
0.8472024 0.5322064 0.2205438
0.722658 0.5828086 0.2296073
0.872946 0.5954039 0.2255791
0.7716355 0.7388134 0.2255791
0.6311875 0.1176666 0.2366566
0.6303481 0.1302619 0.2346425
0.7312399 0.4581814 0.2326284
0.8691783 0.5098884 0.2366566
0.8049187 0.6985968 0.2356495
0.8296178 0.7827864 0.2306143
0.4275243 -0.1726881 0.24572
0.5231811 -0.08717269 0.2406848
0.6083722 0.006297647 0.2426989
0.03819889 0.06529665 0.2426989
0.621559 0.1245166 0.2477341
0.08424813 0.2447243 0.2426989
0.6081629 0.469009 0.2416918
0.8455257 0.5578389 0.24572
0.7201462 0.6210364 0.2406848
0.5315537 -0.2129046 0.2598187
0.6596543 0.01513645 0.2557905
0.696703 0.05999337 0.2517623
0.6004182 0.4360844 0.2547835
0.7203556 0.4663573 0.2567976
0.8702249 0.4977351 0.2537764
0.8155937 0.5490001 0.2527694
0.8421746 0.608662 0.2527694
0.4283615 -0.1841785 0.264854
0.4204076 -0.0597724 0.2628399
0.6881211 0.05380621 0.2638469
0.5997903 0.4491217 0.2698892
0.8425953 0.4561927 0.2608258
0.8511772 0.4838139 0.2678751
0.8465723 0.5459065 0.2628399
0.7134482 0.5660148 0.2628399
0.7400332 0.7677605 0.2678751
0.4001019 -0.08164844 0.2729104
0.430036 -0.06706441 0.2749245
0.6303481 -0.000110485 0.2729104
0.606907 0.03215114 0.2708963
0.6018834 0.1075019 0.2749245
0.6617453 0.1309248 0.2769386
0.6393508 0.3149928 0.2799597
0.8520145 0.4716606 0.2779456
0.8149658 0.5620373 0.2708963
0.8141285 0.5746326 0.2769386
0.8132934 0.5872279 0.2749245
0.8432233 0.5967296 0.2749245
0.6713759 0.7396973 0.2779456
0.6703293 0.7520716 0.2769386
0.8317088 0.7584797 0.2708963
0.4229193 -0.09623246 0.286002
0.5993716 0.01778809 0.2880161
0.6891677 0.04187383 0.2819738
0.85034 0.4968512 0.2870091
0.8168496 0.5372887 0.2819738
0.8365252 0.5445807 0.2890232
0.8346414 0.5691084 0.284995
0.681423 0.7483151 0.2880161
0.4700151 -0.2089272 0.2970796
0.5752984 0.05910949 0.2950655
0.7324958 0.4475749 0.2940584
0.7283095 0.5098884 0.2960725
0.7467292 0.5304386 0.2950655
0.8641548 0.5856811 0.2900302
0.7994765 0.63098 0.2980866
0.7084246 0.6418076 0.2980866
0.8379904 0.6720805 0.2930514
0.5229697 -0.2022981 0.306143
0.5309236 -0.1985416 0.3011078
0.5221345 -0.1899238 0.3031219
0.4214541 -0.07082091 0.30715
0.5145992 -0.07855485 0.3011078
0.6860279 0.09269694 0.30715
0.7645209 0.4190697 0.3011078
0.7837779 0.4310021 0.3001007
0.7310306 0.4727654 0.30715
0.8356879 0.557176 0.3031219
0.4909466 -0.1916915 0.3172205
0.5302978 -0.1857253 0.3121853
0.5246463 -0.09689537 0.3182276
0.4222914 -0.08319522 0.3101712
0.66949 0.01977682 0.3152064
0.6081629 0.02132361 0.3172205
0.662794 0.1196553 0.3192346
0.7094712 0.3370898 0.3141994
0.7538459 0.431665 0.3162135
0.8375718 0.5326483 0.3111782
0.8453164 0.5724229 0.3131923
0.8691783 0.660369 0.3131923
0.6759808 0.6789305 0.3152064
0.8187314 0.7940559 0.3182276
0.4610146 -0.2069385 0.3202417
0.5007844 -0.2089272 0.3212487
0.4384086 -0.1914705 0.3252769
0.436732 -0.1667219 0.3242699
0.4030344 -0.1174456 0.3242699
0.4321292 -0.09048724 0.327291
0.6186286 0.3216219 0.3282981
0.7002614 0.3304607 0.3202417
0.6345365 0.3910065 0.326284
0.849712 0.5103304 0.3242699
0.8444791 0.5856811 0.3282981
0.4919932 -0.2034029 0.3373615
0.4603867 -0.1939012 0.3363545
0.5001565 -0.195669 0.3383686
0.5255882 -0.1743454 0.335851
0.4015692 -0.09203403 0.3353474
0.431294 -0.07745001 0.3313192
0.6688641 0.03281405 0.3373615
0.6525376 0.1298199 0.3343404
0.7301933 0.4860236 0.3303122
0.7276816 0.5233676 0.3303122
0.8331762 0.5954039 0.3313192
0.8986917 0.675616 0.3393756
0.884249 0.7321843 0.3303122
0.6964937 0.8163739 0.3373615
0.4695965 -0.1941222 0.3484391
0.63956 0.007844437 0.346425
0.5989509 0.03193017 0.3434038
0.659445 0.03038338 0.347432
0.6870745 0.08164844 0.3444109
0.8061746 0.5452436 0.346425
0.708006 0.6555077 0.3494461
0.4597587 -0.181085 0.3534743
0.4689686 -0.1813059 0.3534743
0.426687 -0.143741 0.3554884
0.549764 -0.1368909 0.3524673
0.4024086 -0.1039664 0.3504532
0.630143 0.01535742 0.3564955
0.7630557 0.4458071 0.3554884
0.7297726 0.4990609 0.3595166
0.7647303 0.7058889 0.3524673
0.7010986 0.7549442 0.3554884
0.4995264 -0.1821898 0.3685801
0.5208786 -0.1629654 0.3635448
0.3931966 -0.09954701 0.3615307
0.6537914 0.1183295 0.3695871
0.8143378 0.4338747 0.3655589
0.8398743 0.5090045 0.3655589
0.8492934 0.5238096 0.3635448
0.7772892 0.5326483 0.3615307
0.8997362 0.6636836 0.3635448
0.4589215 -0.1678268 0.3746223
0.4331757 -0.1015357 0.3746223
0.5160644 -0.08827754 0.3776435
0.594976 0.09556955 0.3776435
0.7536366 0.4458071 0.3766364
0.8074304 0.5335322 0.3756294
0.8327575 0.608883 0.3756294
0.6755622 0.6928516 0.3716012
0.6383042 -0.4312231 0.3826787
0.4277336 -0.1550105 0.3846928
0.4365269 -0.1519169 0.3806646
0.4356875 -0.1393216 0.3836858
0.5259022 -0.1077229 0.3816717
0.4543165 -0.09291791 0.3836858
0.6391414 0.02154458 0.3826787
0.5966505 0.07059994 0.3806646
0.793825 0.4429345 0.3836858
0.7222394 0.6121975 0.3806646
0.7205648 0.6373881 0.3846928
0.7402384 0.7832284 0.3816717
0.7394032 0.7958237 0.3856999
0.4381993 -0.1764446 0.3957704
0.549134 -0.1231908 0.3917422
0.6037673 0.0988841 0.3967775
0.6650965 0.09711634 0.3967775
0.6236522 0.1165617 0.3937563
0.6184193 0.335985 0.3987916
0.7946622 0.4307811 0.3927492
0.8428047 0.4725445 0.3937563
0.812454 0.6155121 0.3957704
0.8919915 0.6345155 0.3947634
0.6533749 0.7257761 0.3907351
0.6732597 0.7304165 0.3967775
0.5294605 -0.1572202 0.4058409
0.4576635 -0.1417523 0.407855
0.5196227 -0.13667 0.4048338
0.527786 -0.1322506 0.4018127
0.4262663 -0.1298199 0.4008057
0.6297223 0.0294995 0.4018127
0.7519621 0.4714396 0.407855
0.8419695 0.4851398 0.4048338
