# .PCD v.7 - Point Cloud Data file format
VERSION .7
FIELDS x y z
SIZE 4 4 4
TYPE F F F
COUNT 1 1 1
WIDTH 271
HEIGHT 1
VIEWPOINT 0 0 0 1 0 0 0
POINTS 271
DATA ascii
576505.4375 4178044.5 313.559997559
576505.9375 4178044.25 313.670013428
576507.1875 4178043.5 313.489990234
576507.1875 4178043.75 314.220001221
576507.6875 4178043.25 313.579986572
576507.6875 4178043.5 313.380004883
576507.6875 4178043.75 314.130004883
576507.9375 4178043.5 313.529998779
576508.1875 4178043 313.149993896
576508.1875 4178043.25 313.470001221
576508.1875 4178043.5 313.630004883
576508.4375 4178043.25 313.640014648
576508.4375 4178043.5 313.700012207
576508.4375 4178043.75 313.570007324
576508.6875 4178043.25 313.779998779
576508.9375 4178043 314.059997559
576508.9375 4178043.25 313.910003662
576508.9375 4178043.5 313.839996338
576509.1875 4178042.5 313.549987793
576509.1875 4178042.75 313.739990234
576509.1875 4178043 314
576509.1875 4178043.25 314.040008545
576509.1875 4178043.5 313.869995117
576509.1875 4178043.75 313.510009766
576509.4375 4178042 313.230010986
576509.4375 4178042.25 313.049987793
576509.4375 4178042.5 313.519989014
576509.4375 4178043 314.200012207
576509.4375 4178043.75 313.730010986
576509.6875 4178042.25 313.260009766
576509.9375 4178042 312.920013428
576509.9375 4178042.25 313.459991455
576509.9375 4178043 314.369995117
576509.9375 4178043.25 314.290008545
576509.9375 4178043.5 314
576509.9375 4178043.75 313.549987793
576510.1875 4178042.5 314.059997559
576510.1875 4178042.75 314.320007324
576510.1875 4178043 314.399993896
576510.1875 4178043.25 314.279998779
576510.1875 4178043.5 313.970001221
576510.1875 4178043.75 313.519989014
576510.4375 4178042 313.359985352
576510.4375 4178042.75 314.350006104
576510.6875 4178041.75 313.130004883
576510.6875 4178042.5 314.25
576510.6875 4178042.75 314.329986572
576510.6875 4178043 314.230010986
576510.6875 4178043.75 313.579986572
576510.9375 4178041.5 313.450012207
576510.9375 4178041.75 313.410003662
576510.9375 4178042 313.739990234
576510.9375 4178042.5 314.239990234
576510.9375 4178042.75 314.269989014
576510.9375 4178043 314.140014648
576510.9375 4178043.25 313.890014648
576510.9375 4178043.5 313.529998779
576511.1875 4178041 313.559997559
576511.1875 4178041.75 313.640014648
576511.1875 4178042.25 314.019989014
576511.1875 4178042.5 314.25
576511.1875 4178042.75 314.049987793
576511.1875 4178043.5 313.529998779
576511.4375 4178042 314.160003662
576511.4375 4178042.5 314.239990234
576511.6875 4178041.25 313.350006104
576511.6875 4178041.5 313.779998779
576511.6875 4178041.75 314.100006104
576511.6875 4178042 314.290008545
576511.6875 4178042.5 314.220001221
576511.6875 4178042.75 313.980010986
576511.6875 4178043 313.649993896
576511.6875 4178043.25 313.25
576511.9375 4178041.25 313.519989014
576511.9375 4178041.5 313.940002441
576511.9375 4178042 314.380004883
576511.9375 4178042.25 314.359985352
576511.9375 4178042.5 314.190002441
576511.9375 4178042.75 313.899993896
576511.9375 4178043 313.510009766
576511.9375 4178043.25 313.070007324
576512.1875 4178042.75 313.820007324
576512.4375 4178041.25 313.609985352
576512.4375 4178041.75 314.290008545
576512.4375 4178042.5 313.959991455
576512.4375 4178042.75 313.739990234
576512.4375 4178043 313.440002441
576512.6875 4178040.75 313.269989014
576512.6875 4178041 313.239990234
576512.6875 4178041.25 313.679992676
576512.6875 4178041.5 314.040008545
576512.6875 4178041.75 314.269989014
576512.6875 4178042.5 314.019989014
576512.6875 4178042.75 313.649993896
576512.6875 4178043 313.660003662
576512.9375 4178040.75 313.010009766
576512.9375 4178041.25 313.709991455
576512.9375 4178041.75 314.190002441
576512.9375 4178042.25 313.899993896
576512.9375 4178042.5 313.899993896
576513.1875 4178041.5 313.970001221
576513.1875 4178042 314.160003662
576513.1875 4178042.75 313.359985352
576513.4375 4178040.75 312.950012207
576513.4375 4178041 313.350006104
576513.4375 4178041.25 313.690002441
576513.4375 4178041.5 313.940002441
576513.4375 4178041.75 314.059997559
576513.4375 4178042 314.019989014
576513.4375 4178042.25 313.839996338
576513.4375 4178042.5 313.529998779
576513.6875 4178040.25 312.290008545
576513.6875 4178040.5 312.670013428
576513.6875 4178040.75 313.070007324
576513.6875 4178041 313.450012207
576513.6875 4178041.25 313.75
576513.6875 4178041.5 313.929992676
576513.6875 4178041.75 313.970001221
576513.6875 4178042 313.869995117
576513.6875 4178042.25 313.619995117
576513.9375 4178041.25 313.820007324
576513.9375 4178041.75 313.880004883
576514.1875 4178040.75 313.410003662
576514.1875 4178041 313.510009766
576514.1875 4178041.25 313.910003662
576514.1875 4178041.5 313.910003662
576514.1875 4178041.75 313.779998779
576514.1875 4178042 313.440002441
576514.4375 4178040 312.260009766
576514.4375 4178040.5 313.369995117
576514.4375 4178040.75 313.589996338
576514.4375 4178041.25 313.980010986
576514.4375 4178041.5 313.910003662
576514.4375 4178041.75 313.670013428
576514.4375 4178042 313.769989014
576514.6875 4178040.25 313.779998779
576514.6875 4178040.5 313.380004883
576514.6875 4178040.75 313.579986572
576514.6875 4178041 313.989990234
576514.6875 4178041.25 313.989990234
576514.6875 4178041.5 313.880004883
576514.9375 4178040.5 313.549987793
576514.9375 4178041.75 313.450012207
576515.1875 4178040.5 313.690002441
576515.1875 4178040.75 314
576515.1875 4178041 314.130004883
576515.1875 4178041.5 313.779998779
576515.1875 4178041.75 313.369995117
576515.4375 4178040.25 313.369995117
576515.4375 4178040.5 313.790008545
576515.4375 4178040.75 314.049987793
576515.4375 4178041 314.119995117
576515.4375 4178041.25 314.010009766
576515.4375 4178041.5 313.739990234
576515.4375 4178041.75 313.339996338
576515.6875 4178040.25 313.489990234
576515.6875 4178040.75 314.049987793
576515.6875 4178041.5 313.730010986
576515.9375 4178040 313.820007324
576515.9375 4178040.25 313.589996338
576515.9375 4178040.5 313.760009766
576515.9375 4178041 313.880004883
576515.9375 4178041.25 313.959991455
576515.9375 4178041.5 313.769989014
576515.9375 4178041.75 313.649993896
576516.1875 4178039.25 314.839996338
576516.1875 4178040.25 313.670013428
576516.1875 4178040.5 313.859985352
576516.1875 4178040.75 313.970001221
576516.1875 4178041 314.010009766
576516.1875 4178041.5 313.660003662
576516.1875 4178041.75 313.660003662
576516.1875 4178042.25 314.070007324
576516.4375 4178039.75 313.609985352
576516.4375 4178040.5 313.660003662
576516.4375 4178040.75 313.929992676
576516.4375 4178041 313.730010986
576516.6875 4178039 314.779998779
576516.6875 4178040.75 313.910003662
576516.6875 4178041.5 314.100006104
576516.6875 4178041.75 314.049987793
576516.6875 4178042 313.899993896
576516.6875 4178042.25 313.619995117
576516.9375 4178039.5 313.700012207
576516.9375 4178039.75 313.769989014
576516.9375 4178040 313.790008545
576516.9375 4178040.25 313.799987793
576516.9375 4178040.5 313.829986572
576516.9375 4178040.75 313.910003662
576516.9375 4178041.25 314.149993896
576516.9375 4178041.5 314.230010986
576516.9375 4178042 314.070007324
576516.9375 4178042.25 313.779998779
576516.9375 4178042.5 313.369995117
576517.1875 4178038.25 312.769989014
576517.1875 4178038.5 313.089996338
576517.1875 4178038.75 313.390014648
576517.1875 4178039.25 313.790008545
576517.1875 4178039.5 313.859985352
576517.1875 4178039.75 313.859985352
576517.1875 4178040 313.829986572
576517.1875 4178040.25 313.809997559
576517.1875 4178040.5 313.839996338
576517.1875 4178040.75 313.929992676
576517.1875 4178041.25 314.220001221
576517.4375 4178037.75 312.519989014
576517.4375 4178038 312.790008545
576517.4375 4178038.25 313.070007324
576517.4375 4178040.25 313.790008545
576517.4375 4178041.25 314.260009766
576517.4375 4178041.5 314.350006104
576517.6875 4178037.5 312.540008545
576517.6875 4178038 312.989990234
576517.6875 4178038.75 313.070007324
576517.6875 4178039.25 313.510009766
576517.6875 4178040 313.529998779
576517.6875 4178040.25 313.720001221
576517.6875 4178040.5 313.529998779
576517.6875 4178041 313.540008545
576517.6875 4178041.25 314.25
576517.6875 4178041.5 314.359985352
576517.6875 4178041.75 315.309997559
576517.9375 4178036.75 312.540008545
576517.9375 4178037 312.309997559
576517.9375 4178037.25 312.890014648
576517.9375 4178037.5 312.700012207
576517.9375 4178037.75 312.970001221
576517.9375 4178038 313.049987793
576517.9375 4178038.25 312.940002441
576517.9375 4178039 313.489990234
576517.9375 4178039.25 313.5
576517.9375 4178039.5 313.5
576517.9375 4178039.75 313.489990234
576517.9375 4178040 313.510009766
576517.9375 4178040.25 313.579986572
576517.9375 4178040.5 313.700012207
576517.9375 4178040.75 313.700012207
576517.9375 4178041.5 315.540008545
576518.1875 4178037 312.399993896
576518.1875 4178037.5 312.739990234
576518.1875 4178037.75 312.859985352
576518.1875 4178038 312.670013428
576518.1875 4178038.25 313.029998779
576518.1875 4178038.5 313.049987793
576518.1875 4178038.75 313.109985352
576518.1875 4178039 313.75
576518.1875 4178039.5 313.619995117
576518.1875 4178040.25 313.790008545
576518.4375 4178036.75 312.700012207
576518.4375 4178037.5 312.609985352
576518.4375 4178037.75 312.700012207
576518.4375 4178038.25 312.739990234
576518.4375 4178038.75 312.709991455
576518.4375 4178040.75 313.529998779
576518.4375 4178041 313.730010986
576518.6875 4178038 312.420013428
576518.6875 4178040.75 313.239990234
576518.6875 4178041 313.459991455
576518.6875 4178041.5 313.600006104
576518.6875 4178042 313.170013428
576518.6875 4178042.25 312.779998779
576518.9375 4178040.75 312.899993896
576518.9375 4178041 313.149993896
576519.1875 4178040.75 312.910003662
576519.1875 4178041.25 313.070007324
576519.1875 4178041.75 313
576519.1875 4178042 312.809997559
576519.4375 4178041.5 312.790008545
576519.4375 4178041.75 312.769989014
576519.4375 4178042 312.899993896
576519.6875 4178041.5 312.950012207
