# .PCD v.7 - Point Cloud Data file format
VERSION .7
FIELDS x y z
SIZE 4 4 4
TYPE F F F
COUNT 1 1 1
WIDTH 266
HEIGHT 1
VIEWPOINT 0 0 0 1 0 0 0
POINTS 266
DATA ascii
576514.7 4178041 313.99
576514.7 4178041 313.99
576515.2 4178041 314
576509.2 4178043 314
576509.9 4178044 314
576516.2 4178041 314.01
576515.4 4178041 314.01
576513.4 4178042 314.02
576511.2 4178042 314.02
576512.7 4178042 314.02
576515.4 4178041 314.05
576515.7 4178041 314.05
576512.7 4178042 314.04
576516.7 4178042 314.05
576511.2 4178043 314.05
576509.2 4178043 314.04
576513.4 4178042 314.06
576510.2 4178042 314.06
576508.9 4178043 314.06
576516.9 4178042 314.07
576516.2 4178042 314.07
576511.7 4178042 314.1
576516.7 4178042 314.1
576515.4 4178041 314.12
576515.2 4178041 314.13
576507.7 4178044 314.13
576510.9 4178043 314.14
576516.9 4178041 314.15
576511.4 4178042 314.16
576513.2 4178042 314.16
576512.9 4178042 314.19
576511.9 4178042 314.19
576509.4 4178043 314.2
576517.2 4178041 314.22
576511.7 4178042 314.22
576507.2 4178044 314.22
576516.9 4178042 314.23
576510.7 4178043 314.23
576510.9 4178042 314.24
576511.4 4178042 314.24
576517.7 4178041 314.25
576510.7 4178042 314.25
576511.2 4178042 314.25
576517.4 4178041 314.26
576512.7 4178042 314.27
576510.9 4178043 314.27
576510.2 4178043 314.28
576512.4 4178042 314.29
576511.7 4178042 314.29
576509.9 4178043 314.29
576510.2 4178043 314.32
576510.7 4178043 314.33
576517.4 4178042 314.35
576517.7 4178042 314.36
576511.9 4178042 314.36
576510.4 4178043 314.35
576509.9 4178043 314.37
576511.9 4178042 314.38
576510.2 4178043 314.4
576517.9 4178037 312.31
576518.2 4178037 312.4
576518.7 4178038 312.42
576517.4 4178038 312.52
576517.9 4178037 312.54
576517.7 4178038 312.54
576518.4 4178038 312.61
576516.7 4178039 314.78
576518.2 4178038 312.67
576513.7 4178040 312.67
576518.4 4178037 312.7
576517.9 4178038 312.7
576518.4 4178038 312.7
576518.4 4178039 312.71
576516.2 4178039 314.84
576518.2 4178038 312.74
576518.4 4178038 312.74
576517.2 4178038 312.77
576519.4 4178042 312.77
576518.7 4178042 312.78
576517.4 4178038 312.79
576519.4 4178042 312.79
576519.2 4178042 312.81
576518.2 4178038 312.86
576517.9 4178037 312.89
576518.9 4178041 312.9
576519.4 4178042 312.9
576519.2 4178041 312.91
576509.9 4178042 312.92
576517.9 4178038 312.94
576513.4 4178041 312.95
576519.7 4178042 312.95
576517.9 4178038 312.97
576517.7 4178038 312.99
576519.2 4178042 313
576512.9 4178041 313.01
576518.2 4178038 313.03
576517.9 4178038 313.05
576518.2 4178038 313.05
576509.4 4178042 313.05
576517.4 4178038 313.07
576517.7 4178039 313.07
576513.7 4178041 313.07
576519.2 4178041 313.07
576511.9 4178043 313.07
576517.2 4178038 313.09
576518.2 4178039 313.11
576510.7 4178042 313.13
576518.9 4178041 313.15
576508.2 4178043 313.15
576518.7 4178042 313.17
576517.7 4178042 315.31
576509.4 4178042 313.23
576518.7 4178041 313.24
576512.7 4178041 313.24
576511.7 4178043 313.25
576512.7 4178041 313.27
576509.7 4178042 313.26
576515.4 4178042 313.34
576513.4 4178041 313.35
576511.7 4178041 313.35
576510.4 4178042 313.36
576513.2 4178043 313.36
576515.4 4178040 313.37
576514.4 4178040 313.37
576515.2 4178042 313.37
576516.9 4178042 313.37
576514.7 4178040 313.38
576507.7 4178044 313.38
576517.2 4178039 313.39
576514.2 4178041 313.41
576510.9 4178042 313.41
576517.9 4178042 315.54
576514.2 4178042 313.44
576512.4 4178043 313.44
576513.7 4178041 313.45
576510.9 4178042 313.45
576514.9 4178042 313.45
576518.7 4178041 313.46
576509.9 4178042 313.46
576508.2 4178043 313.47
576517.9 4178039 313.49
576517.9 4178040 313.49
576515.7 4178040 313.49
576507.2 4178044 313.49
576517.9 4178040 313.5
576517.7 4178039 313.51
576517.9 4178040 313.51
576514.2 4178041 313.51
576511.9 4178041 313.52
576509.4 4178042 313.52
576511.9 4178043 313.51
576509.2 4178044 313.51
576510.2 4178044 313.52
576517.7 4178040 313.53
576517.7 4178040 313.53
576518.4 4178041 313.53
576513.4 4178042 313.53
576507.9 4178044 313.53
576510.9 4178044 313.53
576511.2 4178044 313.53
576514.9 4178040 313.55
576517.7 4178041 313.54
576509.2 4178042 313.55
576509.9 4178044 313.55
576511.2 4178041 313.56
576505.4 4178044 313.56
576517.9 4178040 313.58
576514.7 4178041 313.58
576507.7 4178043 313.58
576508.4 4178044 313.57
576510.7 4178044 313.58
576515.9 4178040 313.59
576514.4 4178041 313.59
576516.4 4178040 313.61
576512.4 4178041 313.61
576518.7 4178042 313.6
576518.2 4178040 313.62
576513.7 4178042 313.62
576516.7 4178042 313.62
576508.2 4178044 313.63
576511.2 4178042 313.64
576508.4 4178043 313.64
576515.9 4178042 313.65
576511.7 4178043 313.65
576512.7 4178043 313.65
576516.4 4178040 313.66
576516.2 4178042 313.66
576512.7 4178043 313.66
576516.2 4178040 313.67
576514.4 4178042 313.67
576505.9 4178044 313.67
576512.7 4178041 313.68
576515.2 4178040 313.69
576513.4 4178041 313.69
576516.9 4178040 313.7
576517.9 4178040 313.7
576508.4 4178044 313.7
576512.9 4178041 313.71
576517.7 4178040 313.72
576516.4 4178041 313.73
576518.4 4178041 313.73
576515.7 4178042 313.73
576509.4 4178044 313.73
576515.4 4178042 313.74
576510.9 4178042 313.74
576509.2 4178043 313.74
576512.4 4178043 313.74
576518.2 4178039 313.75
576513.7 4178041 313.75
576516.9 4178040 313.77
576515.9 4178040 313.76
576515.9 4178042 313.77
576514.4 4178042 313.77
576514.7 4178040 313.78
576511.7 4178042 313.78
576514.2 4178042 313.78
576515.2 4178042 313.78
576516.9 4178042 313.78
576508.7 4178043 313.78
576517.2 4178039 313.79
576516.9 4178040 313.79
576516.9 4178040 313.8
576517.4 4178040 313.79
576518.2 4178040 313.79
576515.4 4178040 313.79
576517.2 4178040 313.81
576515.9 4178040 313.82
576517.2 4178040 313.83
576516.9 4178040 313.83
576513.9 4178041 313.82
576512.2 4178043 313.82
576517.2 4178040 313.84
576513.4 4178042 313.84
576508.9 4178044 313.84
576517.2 4178040 313.86
576517.2 4178040 313.86
576516.2 4178040 313.86
576513.7 4178042 313.87
576509.2 4178044 313.87
576515.9 4178041 313.88
576513.9 4178042 313.88
576514.7 4178042 313.88
576510.9 4178043 313.89
576516.7 4178042 313.9
576512.9 4178042 313.9
576512.9 4178042 313.9
576511.9 4178043 313.9
576516.7 4178041 313.91
576516.9 4178041 313.91
576514.2 4178041 313.91
576514.2 4178042 313.91
576514.4 4178042 313.91
576508.9 4178043 313.91
576516.4 4178041 313.93
576517.2 4178041 313.93
576513.7 4178042 313.93
576511.9 4178042 313.94
576513.4 4178042 313.94
576515.9 4178041 313.96
576512.4 4178042 313.96
576516.2 4178041 313.97
576513.2 4178042 313.97
576513.7 4178042 313.97
576510.2 4178044 313.97
576514.4 4178041 313.98
576511.7 4178043 313.98
