# .PCD v.7 - Point Cloud Data file format
VERSION .7
FIELDS x y z
SIZE 4 4 4
TYPE F F F
COUNT 1 1 1
WIDTH 111
HEIGHT 1
VIEWPOINT 0 0 0 1 0 0 0
POINTS 111
DATA ascii
576537.2 4178060 312.07
576534.9 4178059 312.11
576535.7 4178059 312.11
576535.9 4178059 312.1
576537.4 4178059 312.11
576537.7 4178060 312.11
576537.9 4178060 312.12
576536.7 4178059 312.13
576537.7 4178060 312.13
576532.2 4178060 312.13
576535.4 4178059 312.14
576537.2 4178059 312.14
576533.9 4178059 312.15
576536.9 4178059 312.15
576532.9 4178060 312.15
576534.9 4178060 312.15
576531.4 4178060 312.15
576536.7 4178060 312.16
576536.9 4178060 312.16
576530.9 4178060 312.17
576534.7 4178059 312.18
576533.2 4178060 312.18
576530.4 4178060 312.18
576537.4 4178060 312.18
576531.2 4178060 312.18
576534.2 4178059 312.19
576536.4 4178060 312.19
576537.7 4178060 312.19
576533.9 4178061 312.19
576533.2 4178060 312.2
576531.4 4178061 312.2
576533.7 4178061 312.2
576534.4 4178059 312.21
576534.7 4178060 312.21
576537.4 4178060 312.21
576534.7 4178059 312.22
576533.4 4178060 312.22
576531.9 4178060 312.22
576530.7 4178060 312.22
576531.2 4178060 312.22
576532.2 4178060 312.24
576530.9 4178060 312.24
576537.2 4178060 312.25
576531.2 4178060 312.25
576531.9 4178060 312.25
576532.7 4178060 312.25
576538.4 4178061 312.25
576533.2 4178061 312.25
576533.7 4178060 312.26
576532.4 4178060 312.26
576532.7 4178060 312.27
576537.4 4178060 312.27
576531.7 4178060 312.26
576532.2 4178060 312.27
576537.2 4178060 312.26
576537.4 4178060 312.27
576531.9 4178060 312.28
576535.9 4178060 312.3
576536.2 4178060 312.29
576532.9 4178060 312.3
576532.2 4178060 312.3
576532.4 4178060 312.3
576533.9 4178060 312.31
576533.2 4178060 312.31
576535.7 4178060 312.32
576537.2 4178060 312.33
576536.4 4178060 312.33
576535.4 4178060 312.34
576532.7 4178060 312.34
576537.2 4178060 312.34
576533.2 4178060 312.34
576534.2 4178060 312.35
576536.4 4178060 312.35
576534.9 4178060 312.38
576536.2 4178060 312.38
576532.9 4178060 312.39
576534.7 4178060 312.4
576536.7 4178060 312.41
576534.4 4178060 312.41
576533.7 4178060 312.41
576533.2 4178060 312.42
576533.9 4178060 312.42
576535.4 4178060 312.42
576535.7 4178060 312.42
576536.7 4178061 312.44
576533.9 4178060 312.45
576533.4 4178060 312.46
576536.7 4178060 312.46
576535.9 4178060 312.47
576530.9 4178061 312.48
576535.7 4178060 312.49
576535.4 4178060 312.5
576533.7 4178060 312.5
576536.7 4178060 312.5
576534.4 4178060 312.51
576533.7 4178060 312.51
576533.9 4178060 312.53
576534.2 4178060 312.54
576534.4 4178060 312.55
576535.9 4178060 312.55
576536.2 4178060 312.54
576532.7 4178060 312.55
576535.9 4178060 312.56
576535.4 4178060 312.57
576535.7 4178060 312.575
576534.7 4178060 312.59
576535.4 4178060 312.59
576536.2 4178061 312.59
576534.4 4178060 312.61
576534.9 4178060 312.61
576534.9 4178061 312.73
