# .PCD v.7 - Point Cloud Data file format
VERSION .7
FIELDS x y z
SIZE 4 4 4
TYPE F F F
COUNT 1 1 1
WIDTH 150
HEIGHT 1
VIEWPOINT 0 0 0 1 0 0 0
POINTS 150
DATA ascii
576529.4375 4178060 312.040008545
576530.1875 4178060 312.089996338
576530.1875 4178060.25 312.130004883
576530.1875 4178060.5 312.079986572
576530.4375 4178060 312.130004883
576530.4375 4178060.25 312.179992676
576530.4375 4178060.5 312.140014648
576530.6875 4178060.25 312.220001221
576530.9375 4178060.25 312.239990234
576530.9375 4178060.5 312.170013428
576530.9375 4178061 312.480010986
576531.1875 4178059.25 312.010009766
576531.1875 4178059.75 312.109985352
576531.1875 4178060 312.220001221
576531.1875 4178060.25 312.25
576531.1875 4178060.5 312.179992676
576531.4375 4178059.5 312.019989014
576531.4375 4178060.25 312.089996338
576531.4375 4178060.5 312.149993896
576531.4375 4178060.75 312.200012207
576531.6875 4178060 312.260009766
576531.6875 4178060.5 312.119995117
576531.9375 4178059.5 312.089996338
576531.9375 4178059.75 312.220001221
576531.9375 4178060 312.279998779
576531.9375 4178060.25 312.25
576531.9375 4178060.5 312.109985352
576532.1875 4178059.5 312.109985352
576532.1875 4178059.75 312.239990234
576532.1875 4178060 312.299987793
576532.1875 4178060.25 312.269989014
576532.1875 4178060.5 312.130004883
576532.4375 4178059.75 312.260009766
576532.4375 4178060.25 312.299987793
576532.6875 4178059.5 312.019989014
576532.6875 4178059.75 312.269989014
576532.6875 4178060 312.25
576532.6875 4178060.25 312.339996338
576532.6875 4178060.5 312.549987793
576532.9375 4178059.25 311.989990234
576532.9375 4178059.5 312.149993896
576532.9375 4178059.75 312.299987793
576532.9375 4178060 312.390014648
576532.9375 4178060.25 312.390014648
576533.1875 4178059.25 312.029998779
576533.1875 4178059.5 312.179992676
576533.1875 4178059.75 312.200012207
576533.1875 4178060 312.420013428
576533.1875 4178060.25 312.309997559
576533.1875 4178060.5 312.339996338
576533.1875 4178061 312.25
576533.4375 4178059.5 312.220001221
576533.4375 4178060 312.459991455
576533.6875 4178059.25 312.100006104
576533.6875 4178059.5 312.260009766
576533.6875 4178060 312.5
576533.6875 4178060.25 312.510009766
576533.6875 4178060.5 312.410003662
576533.6875 4178060.75 312.200012207
576533.9375 4178059 311.989990234
576533.9375 4178059.25 312.149993896
576533.9375 4178059.5 312.309997559
576533.9375 4178059.75 312.450012207
576533.9375 4178060 312.529998779
576533.9375 4178060.25 312.529998779
576533.9375 4178060.5 312.420013428
576533.9375 4178060.75 312.190002441
576534.1875 4178059 312.029998779
576534.1875 4178059.25 312.190002441
576534.1875 4178059.5 312.350006104
576534.1875 4178060.25 312.540008545
576534.4375 4178059.25 312.209991455
576534.4375 4178059.75 312.510009766
576534.4375 4178060 312.410003662
576534.4375 4178060.25 312.549987793
576534.4375 4178060.5 312.609985352
576534.6875 4178059 312.179992676
576534.6875 4178059.25 312.220001221
576534.6875 4178059.5 312.209991455
576534.6875 4178060 312.589996338
576534.6875 4178060.5 312.399993896
576534.9375 4178058.75 312.109985352
576534.9375 4178059 312.019989014
576534.9375 4178059.25 312.070007324
576534.9375 4178059.5 312.380004883
576534.9375 4178060 312.149993896
576534.9375 4178060.5 312.609985352
576534.9375 4178061 312.730010986
576535.1875 4178059 311.989990234
576535.4375 4178059.25 312.140014648
576535.4375 4178059.5 312.339996338
576535.4375 4178059.75 312.5
576535.4375 4178060 312.589996338
576535.4375 4178060.25 312.570007324
576535.4375 4178060.5 312.420013428
576535.6875 4178059.25 312.109985352
576535.6875 4178059.5 312.320007324
576535.6875 4178059.75 312.489990234
576535.6875 4178060 312.579986572
576535.6875 4178060.25 312.570007324
576535.6875 4178060.5 312.420013428
576535.9375 4178059.25 312.100006104
576535.9375 4178059.5 312.299987793
576535.9375 4178059.75 312.470001221
576535.9375 4178060 312.559997559
576535.9375 4178060.25 312.549987793
576536.1875 4178059.5 312.290008545
576536.1875 4178060 312.540008545
576536.1875 4178060.5 312.380004883
576536.1875 4178060.75 312.589996338
576536.4375 4178059.25 311.970001221
576536.4375 4178059.75 312.190002441
576536.4375 4178060.25 312.350006104
576536.4375 4178060.5 312.329986572
576536.6875 4178059.25 312.130004883
576536.6875 4178059.5 312.160003662
576536.6875 4178059.75 312.410003662
576536.6875 4178060 312.459991455
576536.6875 4178060.25 312.5
576536.6875 4178060.75 312.440002441
576536.9375 4178059 312.010009766
576536.9375 4178059.25 312.149993896
576536.9375 4178060.5 312.160003662
576537.1875 4178059 312.019989014
576537.1875 4178059.25 312.140014648
576537.1875 4178059.5 312.25
576537.1875 4178059.75 312.329986572
576537.1875 4178060 312.339996338
576537.1875 4178060.25 312.260009766
576537.1875 4178060.5 312.070007324
576537.4375 4178059 312.010009766
576537.4375 4178059.25 312.109985352
576537.4375 4178059.5 312.209991455
576537.4375 4178059.75 312.269989014
576537.4375 4178060 312.269989014
576537.4375 4178060.25 312.179992676
576537.4375 4178060.5 311.989990234
576537.6875 4178059.25 312.049987793
576537.6875 4178059.5 312.130004883
576537.6875 4178060 312.190002441
576537.6875 4178060.25 312.109985352
576537.9375 4178060 312.119995117
576537.9375 4178060.25 312.049987793
576538.1875 4178059.5 311.940002441
576538.1875 4178059.75 311.929992676
576538.1875 4178060 312.049987793
576538.4375 4178060 311.980010986
576538.4375 4178060.25 311.959991455
576538.4375 4178060.75 312.25
576538.6875 4178060 311.929992676
