# .PCD v.7 - Point Cloud Data file format
VERSION .7
FIELDS x y z
SIZE 4 4 4
TYPE F F F
COUNT 1 1 1
WIDTH 1341
HEIGHT 1
VIEWPOINT 0 0 0 1 0 0 0
POINTS 1341
DATA ascii
576509.9375 4178029 310.75
576509.9375 4178029.25 310.75
576509.9375 4178029.5 310.760009766
576509.9375 4178030.25 310.850006104
576509.9375 4178030.75 310.910003662
576509.9375 4178031.75 310.980010986
576509.9375 4178032 311
576509.9375 4178032.25 310.839996338
576509.9375 4178032.5 311.029998779
576509.9375 4178032.75 311.309997559
576509.9375 4178033.5 310.829986572
576509.9375 4178033.75 311
576509.9375 4178034 311.089996338
576509.9375 4178034.25 310.970001221
576509.9375 4178034.5 310.970001221
576509.9375 4178034.75 310.980010986
576509.9375 4178035 311.010009766
576509.9375 4178035.25 311.059997559
576509.9375 4178035.5 311.119995117
576509.9375 4178035.75 311.179992676
576509.9375 4178036 311.230010986
576509.9375 4178036.25 311.269989014
576509.9375 4178036.5 311.339996338
576509.9375 4178036.75 311.290008545
576509.9375 4178037 311.279998779
576509.9375 4178037.25 311.260009766
576509.9375 4178037.5 311.239990234
576509.9375 4178037.75 311.100006104
576509.9375 4178038 311.239990234
576509.9375 4178038.25 311.420013428
576509.9375 4178038.5 311.290008545
576509.9375 4178039.25 311.410003662
576509.9375 4178039.75 311.369995117
576509.9375 4178045 311.429992676
576509.9375 4178045.25 311.350006104
576509.9375 4178045.5 311.380004883
576509.9375 4178045.75 311.480010986
576509.9375 4178047.25 311.619995117
576509.9375 4178047.75 311.529998779
576509.9375 4178048.25 311.510009766
576509.9375 4178048.5 311.670013428
576509.9375 4178049.25 311.559997559
576509.9375 4178049.5 311.559997559
576509.9375 4178049.75 311.529998779
576509.9375 4178050 311.559997559
576509.9375 4178050.25 311.670013428
576509.9375 4178050.5 311.619995117
576509.9375 4178050.75 311.670013428
576509.9375 4178051 311.720001221
576509.9375 4178051.25 311.769989014
576509.9375 4178051.5 311.809997559
576509.9375 4178051.75 311.839996338
576509.9375 4178052 311.839996338
576509.9375 4178052.25 311.829986572
576509.9375 4178052.5 311.850006104
576509.9375 4178052.75 311.769989014
576509.9375 4178053 311.720001221
576509.9375 4178053.75 311.570007324
576509.9375 4178054 311.670013428
576509.9375 4178054.5 311.690002441
576509.9375 4178055.75 311.790008545
576509.9375 4178056.25 311.880004883
576509.9375 4178057 312.049987793
576509.9375 4178057.5 312.089996338
576509.9375 4178057.75 312.070007324
576509.9375 4178058 312.029998779
576509.9375 4178058.25 311.989990234
576509.9375 4178058.5 311.950012207
576509.9375 4178058.75 311.940002441
576509.9375 4178059 311.959991455
576509.9375 4178059.25 312.010009766
576509.9375 4178059.5 312.089996338
576509.9375 4178060 312.190002441
576510.1875 4178018.75 310.230010986
576510.1875 4178019 310.429992676
576510.1875 4178019.5 310.470001221
576510.1875 4178019.75 310.25
576510.1875 4178020 310.25
576510.1875 4178020.25 310.339996338
576510.1875 4178020.5 310.359985352
576510.1875 4178021 310.339996338
576510.1875 4178021.5 310.320007324
576510.1875 4178022.75 310.420013428
576510.1875 4178023.75 310.470001221
576510.1875 4178024 310.459991455
576510.1875 4178024.5 310.450012207
576510.1875 4178024.75 310.440002441
576510.1875 4178025 310.440002441
576510.1875 4178025.25 310.459991455
576510.1875 4178025.5 310.480010986
576510.1875 4178025.75 310.519989014
576510.1875 4178026 310.559997559
576510.1875 4178026.25 310.619995117
576510.1875 4178026.5 310.679992676
576510.1875 4178026.75 310.739990234
576510.1875 4178027 310.790008545
576510.1875 4178028 310.829986572
576510.1875 4178029.25 310.730010986
576510.1875 4178029.5 310.75
576510.1875 4178029.75 310.790008545
576510.1875 4178030 310.820007324
576510.1875 4178030.25 310.880004883
576510.1875 4178030.5 310.75
576510.1875 4178030.75 310.950012207
576510.1875 4178031 311.049987793
576510.1875 4178031.5 310.989990234
576510.1875 4178031.75 310.910003662
576510.1875 4178032 311.010009766
576510.1875 4178032.25 311.019989014
576510.1875 4178032.5 311.040008545
576510.1875 4178033 311.059997559
576510.1875 4178033.25 311.059997559
576510.1875 4178033.5 311.040008545
576510.1875 4178033.75 311.019989014
576510.1875 4178034 311
576510.1875 4178034.25 311.160003662
576510.1875 4178035 311.029998779
576510.1875 4178035.25 311.079986572
576510.1875 4178035.5 311.029998779
576510.1875 4178035.75 311.190002441
576510.1875 4178036 311.380004883
576510.1875 4178036.25 311.260009766
576510.1875 4178036.75 311.25
576510.1875 4178037.5 311.179992676
576510.1875 4178038 311.190002441
576510.1875 4178038.75 311.329986572
576510.1875 4178039.25 311.380004883
576510.1875 4178039.5 311.369995117
576510.1875 4178039.75 311.329986572
576510.1875 4178040 311.269989014
576510.1875 4178040.25 311.220001221
576510.1875 4178040.5 311.220001221
576510.1875 4178045 311.450012207
576510.1875 4178045.5 311.399993896
576510.1875 4178046 311.579986572
576510.1875 4178046.25 311.619995117
576510.1875 4178046.75 311.700012207
576510.1875 4178047 311.579986572
576510.1875 4178047.25 311.609985352
576510.1875 4178047.5 311.609985352
576510.1875 4178047.75 311.519989014
576510.1875 4178048 311.420013428
576510.1875 4178048.25 311.5
576510.1875 4178048.5 311.5
576510.1875 4178048.75 311.5
576510.1875 4178049 311.5
576510.1875 4178049.25 311.489990234
576510.1875 4178049.5 311.489990234
576510.1875 4178049.75 311.459991455
576510.1875 4178050 311.5
576510.1875 4178050.25 311.429992676
576510.1875 4178050.5 311.600006104
576510.1875 4178050.75 311.790008545
576510.1875 4178051 311.739990234
576510.1875 4178051.25 311.839996338
576510.1875 4178051.5 311.859985352
576510.1875 4178051.75 311.880004883
576510.1875 4178052 311.940002441
576510.1875 4178052.25 311.859985352
576510.1875 4178052.75 311.769989014
576510.1875 4178054.25 311.670013428
576510.1875 4178054.5 311.679992676
576510.1875 4178055 311.720001221
576510.1875 4178055.25 311.739990234
576510.1875 4178055.75 311.799987793
576510.1875 4178056 311.850006104
576510.1875 4178056.25 311.899993896
576510.1875 4178056.5 311.959991455
576510.1875 4178056.75 312.019989014
576510.1875 4178057 312.059997559
576510.1875 4178057.25 312.089996338
576510.1875 4178057.5 312.089996338
576510.1875 4178057.75 312.070007324
576510.1875 4178058 312.019989014
576510.1875 4178058.25 311.980010986
576510.1875 4178058.75 311.920013428
576510.1875 4178059 311.940002441
576510.4375 4178019.25 310.140014648
576510.4375 4178019.75 310.220001221
576510.4375 4178020.5 310.320007324
576510.4375 4178020.75 310.329986572
576510.4375 4178021 310.329986572
576510.4375 4178021.25 310.320007324
576510.4375 4178021.5 310.320007324
576510.4375 4178021.75 310.320007324
576510.4375 4178022 310.329986572
576510.4375 4178022.25 310.350006104
576510.4375 4178022.5 310.369995117
576510.4375 4178022.75 310.390014648
576510.4375 4178023 310.410003662
576510.4375 4178023.25 310.440002441
576510.4375 4178023.5 310.450012207
576510.4375 4178023.75 310.470001221
576510.4375 4178024 310.470001221
576510.4375 4178024.25 310.470001221
576510.4375 4178024.5 310.459991455
576510.4375 4178025.25 310.440002441
576510.4375 4178025.75 310.489990234
576510.4375 4178026.25 310.609985352
576510.4375 4178027.5 310.899993896
576510.4375 4178027.75 310.959991455
576510.4375 4178028 310.859985352
576510.4375 4178028.25 310.910003662
576510.4375 4178028.5 310.769989014
576510.4375 4178029 310.559997559
576510.4375 4178029.25 310.720001221
576510.4375 4178029.5 310.760009766
576510.4375 4178029.75 310.799987793
576510.4375 4178030 310.859985352
576510.4375 4178030.25 310.910003662
576510.4375 4178030.5 310.950012207
576510.4375 4178030.75 310.980010986
576510.4375 4178031 311
576510.4375 4178031.25 311
576510.4375 4178031.5 311
576510.4375 4178031.75 311.010009766
576510.4375 4178032 311.070007324
576510.4375 4178032.25 311.029998779
576510.4375 4178032.5 311.059997559
576510.4375 4178033.25 311.019989014
576510.4375 4178033.5 311.059997559
576510.4375 4178033.75 310.970001221
576510.4375 4178034 311.029998779
576510.4375 4178035.25 311.100006104
576510.4375 4178035.75 311.190002441
576510.4375 4178036.5 311.230010986
576510.4375 4178036.75 311.209991455
576510.4375 4178037 311.179992676
576510.4375 4178037.25 311.149993896
576510.4375 4178037.5 311.130004883
576510.4375 4178037.75 311.130004883
576510.4375 4178038 311.160003662
576510.4375 4178038.25 311.200012207
576510.4375 4178038.5 311.25
576510.4375 4178038.75 311.299987793
576510.4375 4178039 311.329986572
576510.4375 4178039.25 311.339996338
576510.4375 4178039.5 311.320007324
576510.4375 4178039.75 311.269989014
576510.4375 4178040 311.230010986
576510.4375 4178040.5 311.269989014
576510.4375 4178045 311.470001221
576510.4375 4178045.25 311.489990234
576510.4375 4178045.5 311.410003662
576510.4375 4178045.75 311.570007324
576510.4375 4178046 311.559997559
576510.4375 4178046.25 311.640014648
576510.4375 4178046.5 311.679992676
576510.4375 4178046.75 311.679992676
576510.4375 4178047 311.649993896
576510.4375 4178047.25 311.5
576510.4375 4178047.5 311.559997559
576510.4375 4178047.75 311.549987793
576510.4375 4178048 311.5
576510.4375 4178048.25 311.489990234
576510.4375 4178048.5 311.5
576510.4375 4178048.75 311.470001221
576510.4375 4178049 311.429992676
576510.4375 4178050 311.459991455
576510.4375 4178050.5 311.579986572
576510.4375 4178051 311.739990234
576510.4375 4178052.5 311.809997559
576510.4375 4178052.75 311.769989014
576510.4375 4178053 311.720001221
576510.4375 4178053.25 311.690002441
576510.4375 4178053.5 311.670013428
576510.4375 4178053.75 311.660003662
576510.4375 4178054 311.660003662
576510.4375 4178054.25 311.670013428
576510.4375 4178054.5 311.679992676
576510.4375 4178054.75 311.700012207
576510.4375 4178055 311.709991455
576510.4375 4178055.25 311.739990234
576510.4375 4178055.5 311.760009766
576510.4375 4178055.75 311.799987793
576510.4375 4178056 311.850006104
576510.4375 4178056.25 311.910003662
576510.4375 4178056.5 311.959991455
576510.4375 4178058.25 311.959991455
576510.4375 4178058.75 311.899993896
576510.4375 4178059 311.920013428
576510.4375 4178059.25 311.959991455
576510.4375 4178059.5 311.940002441
576510.4375 4178059.75 312.089996338
576510.4375 4178060.25 312.019989014
576510.6875 4178018.75 310.230010986
576510.6875 4178019 310.149993896
576510.6875 4178019.25 310.130004883
576510.6875 4178019.5 310.149993896
576510.6875 4178019.75 310.190002441
576510.6875 4178020 310.239990234
576510.6875 4178020.25 310.279998779
576510.6875 4178020.5 310.299987793
576510.6875 4178020.75 310.320007324
576510.6875 4178021 310.320007324
576510.6875 4178021.25 310.320007324
576510.6875 4178021.5 310.320007324
576510.6875 4178021.75 310.320007324
576510.6875 4178022 310.320007324
576510.6875 4178022.25 310.320007324
576510.6875 4178023 310.369995117
576510.6875 4178023.5 310.440002441
576510.6875 4178024 310.489990234
576510.6875 4178025 310.299987793
576510.6875 4178025.25 310.450012207
576510.6875 4178025.5 310.549987793
576510.6875 4178025.75 310.480010986
576510.6875 4178026 310.350006104
576510.6875 4178026.5 310.690002441
576510.6875 4178026.75 310.790008545
576510.6875 4178027 310.869995117
576510.6875 4178027.25 310.679992676
576510.6875 4178027.75 310.920013428
576510.6875 4178028 310.869995117
576510.6875 4178028.25 310.809997559
576510.6875 4178028.5 310.75
576510.6875 4178028.75 310.709991455
576510.6875 4178029 310.700012207
576510.6875 4178029.25 310.709991455
576510.6875 4178029.5 310.75
576510.6875 4178029.75 310.829986572
576510.6875 4178030 310.869995117
576510.6875 4178030.25 311.070007324
576510.6875 4178030.5 310.970001221
576510.6875 4178030.75 311.040008545
576510.6875 4178031 311.019989014
576510.6875 4178031.5 310.950012207
576510.6875 4178031.75 311.019989014
576510.6875 4178032.25 311.040008545
576510.6875 4178033.5 311.089996338
576510.6875 4178034.5 311.049987793
576510.6875 4178034.75 311.059997559
576510.6875 4178035.25 311.119995117
576510.6875 4178035.5 311.160003662
576510.6875 4178035.75 311.190002441
576510.6875 4178036 311.209991455
576510.6875 4178036.25 311.209991455
576510.6875 4178036.5 311.200012207
576510.6875 4178036.75 311.179992676
576510.6875 4178037 311.140014648
576510.6875 4178037.25 311.119995117
576510.6875 4178037.5 311.109985352
576510.6875 4178037.75 311.109985352
576510.6875 4178038 311.140014648
576510.6875 4178038.25 311.190002441
576510.6875 4178038.5 311.230010986
576510.6875 4178040 311.209991455
576510.6875 4178045 311.529998779
576510.6875 4178045.25 311.410003662
576510.6875 4178045.5 311.549987793
576510.6875 4178045.75 311.470001221
576510.6875 4178046 311.619995117
576510.6875 4178046.25 311.600006104
576510.6875 4178046.75 311.589996338
576510.6875 4178047 311.630004883
576510.6875 4178047.5 311.570007324
576510.6875 4178048.75 311.459991455
576510.6875 4178049.5 311.410003662
576510.6875 4178050 311.450012207
576510.6875 4178050.25 311.5
576510.6875 4178050.5 311.559997559
576510.6875 4178050.75 311.640014648
576510.6875 4178051 311.720001221
576510.6875 4178051.25 311.779998779
576510.6875 4178051.5 311.829986572
576510.6875 4178051.75 311.839996338
576510.6875 4178052 311.839996338
576510.6875 4178052.25 311.809997559
576510.6875 4178052.5 311.779998779
576510.6875 4178052.75 311.739990234
576510.6875 4178053 311.709991455
576510.6875 4178053.25 311.679992676
576510.6875 4178053.5 311.670013428
576510.6875 4178053.75 311.670013428
576510.6875 4178054 311.670013428
576510.6875 4178054.25 311.679992676
576510.6875 4178054.5 311.690002441
576510.6875 4178054.75 311.700012207
576510.6875 4178055.5 311.75
576510.6875 4178056 311.839996338
576510.6875 4178056.5 311.950012207
576510.6875 4178057 312.029998779
576510.6875 4178057.25 312.019989014
576510.6875 4178058 311.989990234
576510.6875 4178058.25 311.940002441
576510.6875 4178058.5 311.869995117
576510.6875 4178058.75 311.890014648
576510.6875 4178059 311.989990234
576510.6875 4178059.25 311.950012207
576510.6875 4178059.5 312
576510.6875 4178059.75 312.059997559
576510.6875 4178060 312.079986572
576510.6875 4178060.25 312.040008545
576510.9375 4178018.75 310.220001221
576510.9375 4178019 310.140014648
576510.9375 4178019.25 310.109985352
576510.9375 4178019.5 310.130004883
576510.9375 4178019.75 310.170013428
576510.9375 4178020 310.220001221
576510.9375 4178020.75 310.320007324
576510.9375 4178021.25 310.329986572
576510.9375 4178022.5 310.279998779
576510.9375 4178022.75 310.290008545
576510.9375 4178023 310.320007324
576510.9375 4178023.25 310.350006104
576510.9375 4178023.5 310.420013428
576510.9375 4178023.75 310.519989014
576510.9375 4178024 310.510009766
576510.9375 4178024.25 310.640014648
576510.9375 4178024.5 310.540008545
576510.9375 4178024.75 310.519989014
576510.9375 4178025 310.489990234
576510.9375 4178025.25 310.470001221
576510.9375 4178025.5 310.459991455
576510.9375 4178025.75 310.480010986
576510.9375 4178026 310.529998779
576510.9375 4178026.25 310.609985352
576510.9375 4178026.5 310.700012207
576510.9375 4178026.75 310.799987793
576510.9375 4178027 310.880004883
576510.9375 4178027.25 311.059997559
576510.9375 4178027.5 310.940002441
576510.9375 4178027.75 310.910003662
576510.9375 4178028 310.989990234
576510.9375 4178028.25 310.799987793
576510.9375 4178028.5 310.559997559
576510.9375 4178029.25 310.75
576510.9375 4178029.5 310.75
576510.9375 4178030 310.880004883
576510.9375 4178030.5 310.980010986
576510.9375 4178032 311.040008545
576510.9375 4178032.25 311.059997559
576510.9375 4178032.75 311.089996338
576510.9375 4178033 311.100006104
576510.9375 4178033.5 311.109985352
576510.9375 4178033.75 311.109985352
576510.9375 4178034 311.100006104
576510.9375 4178034.25 311.100006104
576510.9375 4178034.75 311.100006104
576510.9375 4178035 311.109985352
576510.9375 4178035.25 311.130004883
576510.9375 4178035.5 311.160003662
576510.9375 4178035.75 311.179992676
576510.9375 4178036.5 311.170013428
576510.9375 4178037.75 311.130004883
576510.9375 4178038.25 311.190002441
576510.9375 4178038.5 311.220001221
576510.9375 4178038.75 311.239990234
576510.9375 4178039 311.160003662
576510.9375 4178039.25 311.209991455
576510.9375 4178039.75 311.089996338
576510.9375 4178040 311.200012207
576510.9375 4178040.25 311.160003662
576510.9375 4178045.25 311.420013428
576510.9375 4178045.75 311.459991455
576510.9375 4178047.5 311.579986572
576510.9375 4178047.75 311.549987793
576510.9375 4178048 311.529998779
576510.9375 4178048.25 311.510009766
576510.9375 4178048.5 311.489990234
576510.9375 4178048.75 311.459991455
576510.9375 4178049 311.440002441
576510.9375 4178049.25 311.420013428
576510.9375 4178049.5 311.420013428
576510.9375 4178049.75 311.429992676
576510.9375 4178050 311.450012207
576510.9375 4178050.5 311.549987793
576510.9375 4178050.75 311.609985352
576510.9375 4178051 311.670013428
576510.9375 4178051.25 311.720001221
576510.9375 4178051.5 311.75
576510.9375 4178052 311.760009766
576510.9375 4178052.75 311.700012207
576510.9375 4178053.25 311.670013428
576510.9375 4178053.75 311.670013428
576510.9375 4178054.25 311.690002441
576510.9375 4178055 311.700012207
576510.9375 4178055.25 311.769989014
576510.9375 4178055.5 311.739990234
576510.9375 4178055.75 311.839996338
576510.9375 4178056 311.820007324
576510.9375 4178056.25 311.950012207
576510.9375 4178056.5 311.920013428
576510.9375 4178056.75 311.920013428
576510.9375 4178057 312
576510.9375 4178057.25 312.010009766
576510.9375 4178057.5 312.010009766
576510.9375 4178057.75 311.980010986
576510.9375 4178058 311.950012207
576510.9375 4178058.25 311.910003662
576510.9375 4178058.5 312.079986572
576510.9375 4178058.75 311.869995117
576510.9375 4178059 311.829986572
576510.9375 4178059.25 311.940002441
576510.9375 4178059.5 311.890014648
576510.9375 4178060 312.049987793
576510.9375 4178060.25 311.799987793
576511.1875 4178019 310.130004883
576511.1875 4178020.25 310.269989014
576511.1875 4178020.5 310.140014648
576511.1875 4178020.75 310.339996338
576511.1875 4178021 310.279998779
576511.1875 4178021.25 310.339996338
576511.1875 4178021.5 310.329986572
576511.1875 4178021.75 310.299987793
576511.1875 4178022 310.269989014
576511.1875 4178022.25 310.279998779
576511.1875 4178022.5 310.230010986
576511.1875 4178022.75 310.239990234
576511.1875 4178023 310.279998779
576511.1875 4178023.25 310.329986572
576511.1875 4178023.5 310.399993896
576511.1875 4178023.75 310.470001221
576511.1875 4178024 310.529998779
576511.1875 4178024.25 310.559997559
576511.1875 4178024.5 310.570007324
576511.1875 4178024.75 310.549987793
576511.1875 4178025 310.470001221
576511.1875 4178025.5 310.480010986
576511.1875 4178025.75 310.630004883
576511.1875 4178026 310.540008545
576511.1875 4178026.25 310.5
576511.1875 4178026.5 310.700012207
576511.1875 4178026.75 310.959991455
576511.1875 4178027 310.859985352
576511.1875 4178028.25 310.769989014
576511.1875 4178029.75 310.809997559
576511.1875 4178030 310.869995117
576511.1875 4178030.25 310.920013428
576511.1875 4178030.5 310.959991455
576511.1875 4178030.75 310.989990234
576511.1875 4178031 311.010009766
576511.1875 4178031.25 311.019989014
576511.1875 4178031.5 311.029998779
576511.1875 4178031.75 311.040008545
576511.1875 4178032 311.049987793
576511.1875 4178032.25 311.070007324
576511.1875 4178032.5 311.089996338
576511.1875 4178033 311.119995117
576511.1875 4178033.25 311.130004883
576511.1875 4178033.5 311.130004883
576511.1875 4178034.25 311.140014648
576511.1875 4178034.75 311.140014648
576511.1875 4178036 311.160003662
576511.1875 4178036.25 311.179992676
576511.1875 4178036.5 311.149993896
576511.1875 4178036.75 311.119995117
576511.1875 4178037.5 311.079986572
576511.1875 4178037.75 311.170013428
576511.1875 4178038 311.119995117
576511.1875 4178038.25 311.209991455
576511.1875 4178038.5 311.209991455
576511.1875 4178038.75 311.200012207
576511.1875 4178039 311.170013428
576511.1875 4178039.25 311.140014648
576511.1875 4178039.5 311.109985352
576511.1875 4178039.75 311.130004883
576511.1875 4178040 311.200012207
576511.1875 4178040.25 311.25
576511.1875 4178045 311.480010986
576511.1875 4178045.25 311.420013428
576511.1875 4178045.5 311.420013428
576511.1875 4178045.75 311.450012207
576511.1875 4178046 311.5
576511.1875 4178046.25 311.540008545
576511.1875 4178046.5 311.579986572
576511.1875 4178046.75 311.589996338
576511.1875 4178047 311.600006104
576511.1875 4178047.25 311.589996338
576511.1875 4178047.5 311.579986572
576511.1875 4178047.75 311.570007324
576511.1875 4178048 311.549987793
576511.1875 4178048.25 311.529998779
576511.1875 4178048.75 311.489990234
576511.1875 4178049 311.470001221
576511.1875 4178049.25 311.459991455
576511.1875 4178049.5 311.450012207
576511.1875 4178049.75 311.459991455
576511.1875 4178050.5 311.540008545
576511.1875 4178051 311.609985352
576511.1875 4178051.5 311.649993896
576511.1875 4178052.5 311.619995117
576511.1875 4178052.75 311.649993896
576511.1875 4178053 311.579986572
576511.1875 4178053.25 311.660003662
576511.1875 4178053.5 311.829986572
576511.1875 4178053.75 311.679992676
576511.1875 4178054 311.730010986
576511.1875 4178054.25 311.690002441
576511.1875 4178054.5 311.890014648
576511.1875 4178054.75 311.700012207
576511.1875 4178055 311.700012207
576511.1875 4178055.25 311.709991455
576511.1875 4178055.5 311.730010986
576511.1875 4178055.75 311.75
576511.1875 4178056 311.760009766
576511.1875 4178056.25 311.829986572
576511.1875 4178056.5 311.869995117
576511.1875 4178056.75 311.929992676
576511.1875 4178057 311.950012207
576511.1875 4178057.25 311.910003662
576511.1875 4178057.5 311.959991455
576511.1875 4178057.75 312.010009766
576511.1875 4178058.25 311.880004883
576511.1875 4178058.75 311.869995117
576511.1875 4178059.25 311.940002441
576511.4375 4178018.75 310.220001221
576511.4375 4178019 310.130004883
576511.4375 4178019.25 310.200012207
576511.4375 4178019.75 310.190002441
576511.4375 4178020 310.079986572
576511.4375 4178020.25 310.290008545
576511.4375 4178020.5 310.329986572
576511.4375 4178020.75 310.359985352
576511.4375 4178021 310.359985352
576511.4375 4178021.25 310.350006104
576511.4375 4178021.5 310.329986572
576511.4375 4178021.75 310.290008545
576511.4375 4178022 310.25
576511.4375 4178022.25 310.119995117
576511.4375 4178022.5 310.200012207
576511.4375 4178022.75 310.119995117
576511.4375 4178023.5 310.320007324
576511.4375 4178023.75 310.470001221
576511.4375 4178024 310.609985352
576511.4375 4178024.25 310.579986572
576511.4375 4178024.5 310.690002441
576511.4375 4178024.75 310.579986572
576511.4375 4178026 310.559997559
576511.4375 4178026.5 310.700012207
576511.4375 4178027.25 310.859985352
576511.4375 4178027.5 310.859985352
576511.4375 4178027.75 310.829986572
576511.4375 4178028 310.790008545
576511.4375 4178028.25 310.739990234
576511.4375 4178028.5 310.709991455
576511.4375 4178028.75 310.690002441
576511.4375 4178029 310.700012207
576511.4375 4178029.25 310.730010986
576511.4375 4178029.5 310.769989014
576511.4375 4178029.75 310.809997559
576511.4375 4178030 310.859985352
576511.4375 4178030.25 310.899993896
576511.4375 4178030.5 310.929992676
576511.4375 4178030.75 310.959991455
576511.4375 4178031 310.980010986
576511.4375 4178031.25 311
576511.4375 4178032 311.059997559
576511.4375 4178032.5 311.089996338
576511.4375 4178033.75 311.170013428
576511.4375 4178034 311.119995117
576511.4375 4178034.25 311.179992676
576511.4375 4178034.5 311.209991455
576511.4375 4178034.75 311.170013428
576511.4375 4178035 311.109985352
576511.4375 4178035.5 311.140014648
576511.4375 4178035.75 311.079986572
576511.4375 4178036 311.140014648
576511.4375 4178036.25 311.140014648
576511.4375 4178036.5 311.140014648
576511.4375 4178036.75 311.149993896
576511.4375 4178037 311.160003662
576511.4375 4178037.25 311.179992676
576511.4375 4178037.5 311.200012207
576511.4375 4178037.75 311.220001221
576511.4375 4178038 311.119995117
576511.4375 4178038.25 311.239990234
576511.4375 4178038.5 311.190002441
576511.4375 4178038.75 311.179992676
576511.4375 4178039.25 311.269989014
576511.4375 4178039.5 311.059997559
576511.4375 4178039.75 311.279998779
576511.4375 4178040 311.220001221
576511.4375 4178044.75 311.549987793
576511.4375 4178045 311.459991455
576511.4375 4178045.25 311.420013428
576511.4375 4178045.5 311.429992676
576511.4375 4178045.75 311.459991455
576511.4375 4178046 311.489990234
576511.4375 4178046.25 311.529998779
576511.4375 4178046.5 311.559997559
576511.4375 4178046.75 311.570007324
576511.4375 4178047 311.589996338
576511.4375 4178047.25 311.589996338
576511.4375 4178047.5 311.589996338
576511.4375 4178048.25 311.559997559
576511.4375 4178048.75 311.529998779
576511.4375 4178049.75 311.519989014
576511.4375 4178050 311.519989014
576511.4375 4178050.25 311.589996338
576511.4375 4178050.5 311.540008545
576511.4375 4178050.75 311.679992676
576511.4375 4178051 311.540008545
576511.4375 4178051.25 311.350006104
576511.4375 4178051.5 311.549987793
576511.4375 4178051.75 311.609985352
576511.4375 4178052 311.559997559
576511.4375 4178052.25 311.570007324
576511.4375 4178052.5 311.589996338
576511.4375 4178052.75 311.609985352
576511.4375 4178053 311.630004883
576511.4375 4178053.25 311.649993896
576511.4375 4178053.5 311.660003662
576511.4375 4178053.75 311.5
576511.4375 4178054 311.690002441
576511.4375 4178054.25 311.690002441
576511.4375 4178054.5 311.700012207
576511.4375 4178054.75 311.709991455
576511.4375 4178055 311.589996338
576511.4375 4178055.25 311.709991455
576511.4375 4178055.5 311.570007324
576511.4375 4178055.75 311.739990234
576511.4375 4178057 311.890014648
576511.4375 4178057.5 311.910003662
576511.4375 4178058.25 311.859985352
576511.4375 4178058.5 311.850006104
576511.4375 4178058.75 311.859985352
576511.4375 4178059 311.890014648
576511.4375 4178059.25 311.940002441
576511.4375 4178059.75 312.029998779
576511.4375 4178060 312.029998779
576511.4375 4178060.25 311.959991455
576511.6875 4178018.75 310.200012207
576511.6875 4178019 310.140014648
576511.6875 4178019.25 310.130004883
576511.6875 4178019.5 310.160003662
576511.6875 4178019.75 310.209991455
576511.6875 4178020 310.399993896
576511.6875 4178020.25 310.320007324
576511.6875 4178020.5 310.309997559
576511.6875 4178020.75 310.369995117
576511.6875 4178021 310.519989014
576511.6875 4178021.75 310.480010986
576511.6875 4178022.5 310.179992676
576511.6875 4178023.75 310.450012207
576511.6875 4178024.25 310.570007324
576511.6875 4178025.25 310.540008545
576511.6875 4178025.5 310.540008545
576511.6875 4178026 310.589996338
576511.6875 4178026.25 310.640014648
576511.6875 4178026.5 310.700012207
576511.6875 4178026.75 310.75
576511.6875 4178027 310.779998779
576511.6875 4178027.5 310.779998779
576511.6875 4178027.75 310.760009766
576511.6875 4178028 310.730010986
576511.6875 4178028.25 310.709991455
576511.6875 4178028.5 310.690002441
576511.6875 4178029.25 310.739990234
576511.6875 4178029.75 310.809997559
576511.6875 4178031 310.950012207
576511.6875 4178031.5 311
576511.6875 4178031.75 311.109985352
576511.6875 4178032 311.049987793
576511.6875 4178032.25 311.179992676
576511.6875 4178032.5 311.089996338
576511.6875 4178032.75 311.170013428
576511.6875 4178033.25 311.149993896
576511.6875 4178033.5 311.190002441
576511.6875 4178033.75 311.190002441
576511.6875 4178034 311.200012207
576511.6875 4178034.25 311.209991455
576511.6875 4178034.5 311.209991455
576511.6875 4178034.75 311.200012207
576511.6875 4178035 311.179992676
576511.6875 4178035.25 311.160003662
576511.6875 4178035.5 311.140014648
576511.6875 4178035.75 311.119995117
576511.6875 4178036 311.119995117
576511.6875 4178036.25 311.109985352
576511.6875 4178036.5 311.130004883
576511.6875 4178036.75 311.279998779
576511.6875 4178037.5 311.339996338
576511.6875 4178037.75 311.279998779
576511.6875 4178038.25 311.260009766
576511.6875 4178039.5 311.019989014
576511.6875 4178046 311.510009766
576511.6875 4178046.5 311.549987793
576511.6875 4178046.75 311.570007324
576511.6875 4178047 311.579986572
576511.6875 4178047.5 311.589996338
576511.6875 4178048 311.640014648
576511.6875 4178048.25 311.579986572
576511.6875 4178048.5 311.559997559
576511.6875 4178048.75 311.579986572
576511.6875 4178049 311.540008545
576511.6875 4178049.25 311.579986572
576511.6875 4178049.5 311.579986572
576511.6875 4178049.75 311.470001221
576511.6875 4178050 311.570007324
576511.6875 4178050.25 311.559997559
576511.6875 4178050.5 311.540008545
576511.6875 4178050.75 311.510009766
576511.6875 4178051 311.489990234
576511.6875 4178051.25 311.470001221
576511.6875 4178051.5 311.350006104
576511.6875 4178051.75 311.459991455
576511.6875 4178052 311.570007324
576511.6875 4178052.25 311.5
576511.6875 4178052.5 311.589996338
576511.6875 4178053.25 311.600006104
576511.6875 4178053.5 311.660003662
576511.6875 4178054 311.690002441
576511.6875 4178055.25 311.720001221
576511.6875 4178056 311.739990234
576511.6875 4178056.25 311.760009766
576511.6875 4178056.5 311.790008545
576511.6875 4178056.75 311.820007324
576511.6875 4178057 311.839996338
576511.6875 4178057.25 311.859985352
576511.6875 4178057.5 311.859985352
576511.6875 4178058 311.850006104
576511.6875 4178058.25 311.839996338
576511.6875 4178058.5 311.839996338
576511.6875 4178058.75 311.859985352
576511.6875 4178059 311.899993896
576511.6875 4178059.5 312.010009766
576511.6875 4178059.75 312.040008545
576511.6875 4178060 312.029998779
576511.6875 4178060.25 311.959991455
576511.9375 4178018.75 310.420013428
576511.9375 4178019.25 310.320007324
576511.9375 4178020.25 310.339996338
576511.9375 4178020.75 310.380004883
576511.9375 4178022.25 310.190002441
576511.9375 4178022.5 310.179992676
576511.9375 4178022.75 310.190002441
576511.9375 4178023 310.230010986
576511.9375 4178023.25 310.290008545
576511.9375 4178023.5 310.359985352
576511.9375 4178023.75 310.440002441
576511.9375 4178024 310.5
576511.9375 4178024.25 310.540008545
576511.9375 4178024.5 310.559997559
576511.9375 4178024.75 310.559997559
576511.9375 4178025 310.559997559
576511.9375 4178025.25 310.549987793
576511.9375 4178025.75 310.579986572
576511.9375 4178026 310.619995117
576511.9375 4178027 310.720001221
576511.9375 4178027.5 310.700012207
576511.9375 4178028.5 310.679992676
576511.9375 4178028.75 310.700012207
576511.9375 4178029 310.850006104
576511.9375 4178029.25 310.75
576511.9375 4178029.5 310.779998779
576511.9375 4178029.75 310.799987793
576511.9375 4178030 310.769989014
576511.9375 4178030.5 310.850006104
576511.9375 4178030.75 310.799987793
576511.9375 4178031 310.899993896
576511.9375 4178031.25 310.950012207
576511.9375 4178031.5 310.980010986
576511.9375 4178031.75 311.010009766
576511.9375 4178032 311.029998779
576511.9375 4178032.25 311.059997559
576511.9375 4178032.5 311.079986572
576511.9375 4178032.75 311.100006104
576511.9375 4178033 311.119995117
576511.9375 4178033.25 311.149993896
576511.9375 4178033.5 311.130004883
576511.9375 4178033.75 311.209991455
576511.9375 4178034 311.269989014
576511.9375 4178034.25 311.239990234
576511.9375 4178034.5 311.339996338
576511.9375 4178034.75 311.220001221
576511.9375 4178035.25 311.089996338
576511.9375 4178035.5 311.130004883
576511.9375 4178036 311.109985352
576511.9375 4178036.5 311.130004883
576511.9375 4178038 311.309997559
576511.9375 4178038.25 311.279998779
576511.9375 4178038.5 311.220001221
576511.9375 4178038.75 311.140014648
576511.9375 4178039 311.059997559
576511.9375 4178039.25 311.010009766
576511.9375 4178039.5 311.010009766
576511.9375 4178039.75 311.100006104
576511.9375 4178040 311.299987793
576511.9375 4178044.75 311.420013428
576511.9375 4178045 311.619995117
576511.9375 4178045.75 311.480010986
576511.9375 4178046 311.529998779
576511.9375 4178046.25 311.459991455
576511.9375 4178046.5 311.570007324
576511.9375 4178046.75 311.5
576511.9375 4178047 311.579986572
576511.9375 4178047.25 311.799987793
576511.9375 4178047.5 311.579986572
576511.9375 4178047.75 311.589996338
576511.9375 4178048 311.600006104
576511.9375 4178048.25 311.600006104
576511.9375 4178048.5 311.609985352
576511.9375 4178048.75 311.619995117
576511.9375 4178049 311.75
576511.9375 4178049.25 311.640014648
576511.9375 4178049.5 311.640014648
576511.9375 4178049.75 311.589996338
576511.9375 4178050 311.619995117
576511.9375 4178050.25 311.619995117
576511.9375 4178051 311.429992676
576511.9375 4178051.25 311.420013428
576511.9375 4178051.75 311.399993896
576511.9375 4178052.25 311.459991455
576511.9375 4178053.75 311.670013428
576511.9375 4178054 311.679992676
576511.9375 4178054.25 311.700012207
576511.9375 4178054.5 311.709991455
576511.9375 4178054.75 311.720001221
576511.9375 4178055 311.730010986
576511.9375 4178055.25 311.739990234
576511.9375 4178055.5 311.739990234
576511.9375 4178055.75 311.739990234
576511.9375 4178056 311.739990234
576511.9375 4178056.25 311.75
576511.9375 4178056.5 311.760009766
576511.9375 4178056.75 311.779998779
576511.9375 4178057 311.799987793
576511.9375 4178057.25 311.820007324
576511.9375 4178057.75 311.829986572
576511.9375 4178058 311.829986572
576511.9375 4178058.25 311.829986572
576511.9375 4178058.5 311.839996338
576511.9375 4178058.75 311.859985352
576511.9375 4178059.5 312.019989014
576511.9375 4178060 312.040008545
576511.9375 4178060.5 311.820007324
576512.1875 4178019 310.190002441
576512.1875 4178019.75 310.279998779
576512.1875 4178020 310.320007324
576512.1875 4178020.25 310.359985352
576512.1875 4178020.5 310.369995117
576512.1875 4178020.75 310.369995117
576512.1875 4178021.25 310.320007324
576512.1875 4178021.5 310.279998779
576512.1875 4178022 310.220001221
576512.1875 4178022.25 310.200012207
576512.1875 4178022.5 310.200012207
576512.1875 4178022.75 310.220001221
576512.1875 4178023 310.25
576512.1875 4178023.25 310.299987793
576512.1875 4178023.5 310.359985352
576512.1875 4178023.75 310.420013428
576512.1875 4178024 310.459991455
576512.1875 4178024.75 310.529998779
576512.1875 4178025.25 310.559997559
576512.1875 4178026.5 310.679992676
576512.1875 4178026.75 310.709991455
576512.1875 4178027 310.670013428
576512.1875 4178027.25 310.589996338
576512.1875 4178027.5 310.630004883
576512.1875 4178027.75 310.549987793
576512.1875 4178028.5 310.519989014
576512.1875 4178028.75 310.700012207
576512.1875 4178029 310.739990234
576512.1875 4178029.25 310.760009766
576512.1875 4178029.5 310.779998779
576512.1875 4178029.75 310.779998779
576512.1875 4178030 310.790008545
576512.1875 4178030.25 310.790008545
576512.1875 4178030.5 310.809997559
576512.1875 4178030.75 310.829986572
576512.1875 4178031 310.910003662
576512.1875 4178031.25 310.910003662
576512.1875 4178031.5 310.950012207
576512.1875 4178031.75 310.920013428
576512.1875 4178032 311.010009766
576512.1875 4178032.25 310.920013428
576512.1875 4178032.5 311.059997559
576512.1875 4178032.75 310.980010986
576512.1875 4178033.5 311.190002441
576512.1875 4178033.75 311.220001221
576512.1875 4178034.25 311.260009766
576512.1875 4178036 311.100006104
576512.1875 4178036.25 311.109985352
576512.1875 4178036.5 311.140014648
576512.1875 4178036.75 311.179992676
576512.1875 4178037 311.220001221
576512.1875 4178037.25 311.269989014
576512.1875 4178037.5 311.299987793
576512.1875 4178037.75 311.320007324
576512.1875 4178038 311.320007324
576512.1875 4178038.25 311.279998779
576512.1875 4178038.5 311.209991455
576512.1875 4178038.75 311.130004883
576512.1875 4178039 311.059997559
576512.1875 4178039.25 311.010009766
576512.1875 4178039.5 311.029998779
576512.1875 4178039.75 311.149993896
576512.1875 4178040 311.369995117
576512.1875 4178044.5 311.420013428
576512.1875 4178044.75 311.369995117
576512.1875 4178045 311.380004883
576512.1875 4178045.25 311.429992676
576512.1875 4178045.5 311.489990234
576512.1875 4178045.75 311.540008545
576512.1875 4178046 311.579986572
576512.1875 4178046.25 311.589996338
576512.1875 4178046.5 311.589996338
576512.1875 4178046.75 311.519989014
576512.1875 4178047 311.579986572
576512.1875 4178047.25 311.570007324
576512.1875 4178047.5 311.570007324
576512.1875 4178047.75 311.579986572
576512.1875 4178048 311.559997559
576512.1875 4178048.25 311.609985352
576512.1875 4178048.5 311.589996338
576512.1875 4178048.75 311.649993896
576512.1875 4178049 311.670013428
576512.1875 4178049.75 311.679992676
576512.1875 4178050 311.649993896
576512.1875 4178051.5 311.390014648
576512.1875 4178051.75 311.390014648
576512.1875 4178052 311.420013428
576512.1875 4178052.25 311.459991455
576512.1875 4178052.5 311.5
576512.1875 4178052.75 311.549987793
576512.1875 4178053 311.579986572
576512.1875 4178053.25 311.619995117
576512.1875 4178053.5 311.640014648
576512.1875 4178053.75 311.660003662
576512.1875 4178054 311.679992676
576512.1875 4178054.25 311.700012207
576512.1875 4178054.5 311.720001221
576512.1875 4178054.75 311.739990234
576512.1875 4178055 311.75
576512.1875 4178055.25 311.760009766
576512.1875 4178055.5 311.760009766
576512.1875 4178055.75 311.760009766
576512.1875 4178056 311.75
576512.1875 4178056.75 311.760009766
576512.1875 4178057.25 311.790008545
576512.1875 4178057.75 311.809997559
576512.1875 4178058.75 311.869995117
576512.1875 4178059 311.920013428
576512.1875 4178059.25 311.839996338
576512.1875 4178059.5 312.029998779
576512.1875 4178059.75 311.989990234
576512.1875 4178060 312.059997559
576512.1875 4178060.25 311.959991455
576512.1875 4178060.5 311.829986572
576512.4375 4178018.75 310.269989014
576512.4375 4178019 310.220001221
576512.4375 4178019.5 310.260009766
576512.4375 4178019.75 310.299987793
576512.4375 4178020 310.339996338
576512.4375 4178020.25 310.359985352
576512.4375 4178020.75 310.350006104
576512.4375 4178021 310.320007324
576512.4375 4178021.25 310.290008545
576512.4375 4178021.5 310.260009766
576512.4375 4178021.75 310.239990234
576512.4375 4178022.5 310.239990234
576512.4375 4178023 310.290008545
576512.4375 4178023.5 310.369995117
576512.4375 4178023.75 310.399993896
576512.4375 4178024.5 310.480010986
576512.4375 4178024.75 310.489990234
576512.4375 4178025 310.399993896
576512.4375 4178025.25 310.549987793
576512.4375 4178025.5 310.589996338
576512.4375 4178026 310.660003662
576512.4375 4178026.25 310.630004883
576512.4375 4178026.5 310.670013428
576512.4375 4178026.75 310.649993896
576512.4375 4178027 310.619995117
576512.4375 4178027.25 310.589996338
576512.4375 4178027.5 310.570007324
576512.4375 4178027.75 310.570007324
576512.4375 4178028 310.579986572
576512.4375 4178028.25 310.619995117
576512.4375 4178028.5 310.660003662
576512.4375 4178028.75 310.660003662
576512.4375 4178029 310.739990234
576512.4375 4178029.25 310.839996338
576512.4375 4178030 310.799987793
576512.4375 4178030.25 310.769989014
576512.4375 4178030.5 310.679992676
576512.4375 4178030.75 310.809997559
576512.4375 4178032 310.980010986
576512.4375 4178032.5 311.029998779
576512.4375 4178033.25 311.140014648
576512.4375 4178033.5 311.190002441
576512.4375 4178033.75 311.220001221
576512.4375 4178034.25 311.260009766
576512.4375 4178034.5 311.25
576512.4375 4178034.75 311.230010986
576512.4375 4178035 311.190002441
576512.4375 4178035.25 311.160003662
576512.4375 4178035.5 311.130004883
576512.4375 4178035.75 311.109985352
576512.4375 4178036 311.100006104
576512.4375 4178036.5 311.140014648
576512.4375 4178036.75 311.179992676
576512.4375 4178037 311.220001221
576512.4375 4178037.25 311.260009766
576512.4375 4178037.5 311.290008545
576512.4375 4178038 311.299987793
576512.4375 4178038.75 311.140014648
576512.4375 4178039.25 311.049987793
576512.4375 4178039.75 311.220001221
576512.4375 4178044.25 311.440002441
576512.4375 4178044.5 311.480010986
576512.4375 4178044.75 311.320007324
576512.4375 4178045 311.410003662
576512.4375 4178045.25 311.440002441
576512.4375 4178045.5 311.540008545
576512.4375 4178045.75 311.589996338
576512.4375 4178046 311.619995117
576512.4375 4178046.25 311.619995117
576512.4375 4178046.5 311.630004883
576512.4375 4178046.75 311.609985352
576512.4375 4178047.25 311.570007324
576512.4375 4178047.75 311.570007324
576512.4375 4178048.25 311.609985352
576512.4375 4178049 311.700012207
576512.4375 4178049.25 311.720001221
576512.4375 4178049.5 311.720001221
576512.4375 4178049.75 311.709991455
576512.4375 4178050 311.670013428
576512.4375 4178050.25 311.630004883
576512.4375 4178050.5 311.570007324
576512.4375 4178050.75 311.510009766
576512.4375 4178051 311.459991455
576512.4375 4178051.25 311.429992676
576512.4375 4178051.5 311.410003662
576512.4375 4178051.75 311.420013428
576512.4375 4178052 311.450012207
576512.4375 4178052.25 311.489990234
576512.4375 4178052.75 311.559997559
576512.4375 4178053 311.600006104
576512.4375 4178053.25 311.619995117
576512.4375 4178053.5 311.640014648
576512.4375 4178053.75 311.649993896
576512.4375 4178054.5 311.720001221
576512.4375 4178055 311.769989014
576512.4375 4178055.5 311.790008545
576512.4375 4178055.75 311.779998779
576512.4375 4178056.5 311.760009766
576512.4375 4178056.75 311.769989014
576512.4375 4178057 311.75
576512.4375 4178057.25 311.790008545
576512.4375 4178057.5 311.679992676
576512.4375 4178057.75 311.809997559
576512.4375 4178058 311.700012207
576512.4375 4178058.25 311.820007324
576512.4375 4178058.5 311.829986572
576512.4375 4178058.75 311.760009766
576512.4375 4178059 311.910003662
576512.4375 4178059.25 311.980010986
576512.4375 4178059.5 312.040008545
576512.4375 4178059.75 312.070007324
576512.4375 4178060 312.059997559
576512.4375 4178060.25 311.989990234
576512.4375 4178060.5 311.910003662
576512.6875 4178019 310.25
576512.6875 4178019.25 310.25
576512.6875 4178019.5 310.269989014
576512.6875 4178020.25 310.339996338
576512.6875 4178020.75 310.309997559
576512.6875 4178021.75 310.239990234
576512.6875 4178022 310.25
576512.6875 4178022.25 310.239990234
576512.6875 4178022.5 310.290008545
576512.6875 4178022.75 310.260009766
576512.6875 4178023 310.339996338
576512.6875 4178023.25 310.339996338
576512.6875 4178023.5 310.390014648
576512.6875 4178023.75 310.489990234
576512.6875 4178024 310.410003662
576512.6875 4178024.25 310.420013428
576512.6875 4178024.5 310.429992676
576512.6875 4178024.75 310.459991455
576512.6875 4178025 310.5
576512.6875 4178025.25 310.549987793
576512.6875 4178025.5 310.589996338
576512.6875 4178025.75 310.640014648
576512.6875 4178026 310.660003662
576512.6875 4178026.25 310.670013428
576512.6875 4178026.5 310.799987793
576512.6875 4178026.75 310.619995117
576512.6875 4178027 310.519989014
576512.6875 4178027.25 310.549987793
576512.6875 4178027.75 310.510009766
576512.6875 4178028 310.559997559
576512.6875 4178028.25 310.769989014
576512.6875 4178028.5 310.660003662
576512.6875 4178029 310.739990234
576512.6875 4178030.25 310.760009766
576512.6875 4178031 310.820007324
576512.6875 4178031.25 310.859985352
576512.6875 4178031.5 310.890014648
576512.6875 4178031.75 310.920013428
576512.6875 4178032 310.950012207
576512.6875 4178032.25 310.980010986
576512.6875 4178032.5 311.010009766
576512.6875 4178032.75 311.049987793
576512.6875 4178033 311.089996338
576512.6875 4178033.25 311.140014648
576512.6875 4178033.5 311.179992676
576512.6875 4178033.75 311.220001221
576512.6875 4178034 311.239990234
576512.6875 4178034.25 311.25
576512.6875 4178034.5 311.239990234
576512.6875 4178034.75 311.209991455
576512.6875 4178035 311.179992676
576512.6875 4178036.5 311.140014648
576512.6875 4178037 311.200012207
576512.6875 4178037.5 311.260009766
576512.6875 4178038.5 311.359985352
576512.6875 4178038.75 311.160003662
576512.6875 4178039 311.390014648
576512.6875 4178039.5 311.329986572
576512.6875 4178039.75 311.309997559
576512.6875 4178044.25 311.359985352
576512.6875 4178044.75 311.290008545
576512.6875 4178045.25 311.459991455
576512.6875 4178046.75 311.630004883
576512.6875 4178047 311.589996338
576512.6875 4178047.25 311.559997559
576512.6875 4178047.5 311.549987793
576512.6875 4178047.75 311.549987793
576512.6875 4178048 311.570007324
576512.6875 4178048.25 311.600006104
576512.6875 4178048.5 311.640014648
576512.6875 4178048.75 311.670013428
576512.6875 4178049 311.700012207
576512.6875 4178049.5 311.720001221
576512.6875 4178049.75 311.709991455
576512.6875 4178050 311.679992676
576512.6875 4178050.25 311.630004883
576512.6875 4178050.5 311.579986572
576512.6875 4178051 311.5
576512.6875 4178051.25 311.480010986
576512.6875 4178052.25 311.540008545
576512.6875 4178052.75 311.600006104
576512.6875 4178054 311.679992676
576512.6875 4178054.25 311.589996338
576512.6875 4178054.5 311.730010986
576512.6875 4178054.75 311.809997559
576512.6875 4178055 311.790008545
576512.6875 4178055.25 311.970001221
576512.6875 4178055.5 311.809997559
576512.6875 4178055.75 311.809997559
576512.6875 4178056 311.799987793
576512.6875 4178056.25 311.790008545
576512.6875 4178056.5 311.790008545
576512.6875 4178056.75 311.790008545
576512.6875 4178057 311.790008545
576512.6875 4178057.25 311.799987793
576512.6875 4178057.5 311.809997559
576512.6875 4178057.75 311.809997559
576512.6875 4178058 312.059997559
576512.6875 4178058.25 311.809997559
576512.6875 4178058.5 311.829986572
576512.6875 4178058.75 312.029998779
576512.6875 4178059 311.910003662
576512.6875 4178059.25 311.899993896
576512.6875 4178059.5 312.029998779
576512.6875 4178059.75 312.119995117
576512.9375 4178019 310.269989014
576512.9375 4178020 310.200012207
576512.9375 4178020.25 310.309997559
576512.9375 4178020.5 310.109985352
576512.9375 4178020.75 310.279998779
576512.9375 4178021 310.140014648
576512.9375 4178021.25 310.230010986
576512.9375 4178021.5 310.230010986
576512.9375 4178021.75 310.170013428
576512.9375 4178022 310.269989014
576512.9375 4178022.25 310.299987793
576512.9375 4178022.5 310.339996338
576512.9375 4178022.75 310.369995117
576512.9375 4178023 310.399993896
576512.9375 4178023.25 310.410003662
576512.9375 4178023.5 310.410003662
576512.9375 4178023.75 310.279998779
576512.9375 4178024 310.399993896
576512.9375 4178024.25 310.429992676
576512.9375 4178024.5 310.410003662
576512.9375 4178024.75 310.510009766
576512.9375 4178025.25 310.540008545
576512.9375 4178025.5 310.410003662
576512.9375 4178025.75 310.630004883
576512.9375 4178026 310.779998779
576512.9375 4178026.25 310.660003662
576512.9375 4178026.75 310.609985352
576512.9375 4178028 310.570007324
576512.9375 4178028.75 310.709991455
576512.9375 4178029 310.75
576512.9375 4178029.25 310.769989014
576512.9375 4178029.5 310.769989014
576512.9375 4178029.75 310.769989014
576512.9375 4178030.25 310.760009766
576512.9375 4178030.5 310.769989014
576512.9375 4178030.75 310.790008545
576512.9375 4178031 310.820007324
576512.9375 4178031.25 310.850006104
576512.9375 4178031.5 310.880004883
576512.9375 4178031.75 310.899993896
576512.9375 4178032 310.929992676
576512.9375 4178032.25 310.959991455
576512.9375 4178032.5 310.989990234
576512.9375 4178032.75 311.029998779
576512.9375 4178034.25 311.230010986
576512.9375 4178034.75 311.190002441
576512.9375 4178035.25 311.130004883
576512.9375 4178035.5 311.089996338
576512.9375 4178035.75 311.109985352
576512.9375 4178036.25 311.109985352
576512.9375 4178036.5 311.130004883
576512.9375 4178036.75 311.25
576512.9375 4178037 311.170013428
576512.9375 4178037.25 311.109985352
576512.9375 4178037.5 311.220001221
576512.9375 4178037.75 311.359985352
576512.9375 4178038 311.25
576512.9375 4178038.25 311.239990234
576512.9375 4178038.5 311.220001221
576512.9375 4178038.75 311.200012207
576512.9375 4178039 311.190002441
576512.9375 4178039.25 311.200012207
576512.9375 4178039.5 311.269989014
576512.9375 4178039.75 311.329986572
576512.9375 4178044.25 311.320007324
576512.9375 4178044.5 311.260009766
576512.9375 4178044.75 311.279998779
576512.9375 4178045 311.369995117
576512.9375 4178045.25 311.470001221
576512.9375 4178045.75 311.649993896
576512.9375 4178046 311.690002441
576512.9375 4178046.5 311.670013428
576512.9375 4178046.75 311.630004883
576512.9375 4178047 311.589996338
576512.9375 4178047.25 311.559997559
576512.9375 4178047.5 311.540008545
576512.9375 4178047.75 311.540008545
576512.9375 4178048 311.559997559
576512.9375 4178048.25 311.579986572
576512.9375 4178048.5 311.619995117
576512.9375 4178048.75 311.660003662
