# .PCD v.7 - Point Cloud Data file format
VERSION .7
FIELDS x y z
SIZE 4 4 4
TYPE F F F
COUNT 1 1 1
WIDTH 980
HEIGHT 1
VIEWPOINT 0 0 0 1 0 0 0
POINTS 980
DATA ascii	
-0.959758713245  -0.120195667365  -0.830822711472
-0.903428960044  -0.14255765198  -0.821552723059
-0.890535651764  -0.14255765198  -0.776361529548
-0.824556038005  -0.122990915446  -0.84472769409
-0.809248252518  -0.13556953181  -0.834298957126
-0.750495973856  -0.127882599571  -0.842410196987
-0.737626810355  -0.151642208259  -0.821552723059
-0.68210188289  -0.132774283729  -0.765932792584
-0.661981239512  -0.129979035648  -0.813441483198
-0.604838612323  -0.146750524101  -0.830822711472
-0.589530826835  -0.144654088057  -0.821552723059
-0.50985307906  -0.125786163527  -0.843568945539
-0.454328151596  -0.124388539486  -0.813441483198
-0.347278280567  -0.146750524101  -0.221320973349
-0.331189814122  -0.145352900061  -0.216685979143
-0.268405358528  -0.14395527602  -0.194669756663
-0.246675063679  -0.122292103442  -0.209733487833
-0.184703482084  -0.155136268344  -0.199304750869
-0.16780214164  -0.140461215935  -0.177288528389
-0.101822527881  -0.157931516425  -0.146002317497
-0.0800922330317  -0.122990915446  -0.1483198146
-0.0092595200795  -0.143256464016  -0.183082271147
0.0124788230229  -0.124388539486  -0.178447276941
0.0816777397255  -0.122292103442  -0.19235225956
0.096180699477  -0.158630328429  -0.195828505214
0.166192490168  -0.13556953181  -0.215527230591
0.184703482074  -0.148148148142  -0.238702201622
0.31589812516  -0.155136268344  -0.865585168019
0.376260055293  -0.138364779891  -0.849362688297
0.395575872934  -0.127882599571  -0.853997682503
0.461555486693  -0.130677847652  -0.926998841251
0.477668097917  -0.149545772182  -0.943221320973
0.536420376578  -0.157232704421  -0.946697566628
0.55573619422  -0.15583508038  -0.967555040556
0.615285250364  -0.132075471693  -0.973348783314
0.632991416534  -0.133473095733  -0.97798377752
0.703808032961  -0.131376659689  -0.960602549247
0.76016193094  -0.128581411608  -0.972190034762
0.773031094442  -0.149545772182  -0.951332560834
0.830173721631  -0.146051712097  -0.973348783314
0.847871839548  -0.13696715585  -0.971031286211
0.901006434583  -0.15583508038  -0.972190034762
0.917094901029  -0.158630328429  -0.974507531866
0.977456831162  -0.124388539486  -0.96292004635
0.991138868653  -0.140461215935  -0.973348783314
-0.954124933094  -0.0831586303418  -0.856315179606
-0.899396783112  -0.101327742835  -0.825028968714
-0.883308316666  -0.109713487078  -0.831981460023
-0.806045046099  -0.0950384346694  -0.822711471611
-0.748081496658  -0.0845562543823  -0.822711471611
-0.731984981951  -0.114605171203  -0.84472769409
-0.674850403014  -0.0964360587099  -0.812282734647
-0.654729759636  -0.0957372466734  -0.856315179606
-0.600814483643  -0.103424178912  -0.822711471611
-0.587116349637  -0.100628930831  -0.791425260718
-0.528364070966  -0.117400419284  -0.82966396292
-0.50582895039  -0.0852550663862  -0.838933951333
-0.43581715969  -0.118798043325  -0.818076477404
-0.42053351898  -0.0901467505116  -0.22943221321
-0.405225733502  -0.114605171203  -0.236384704519
-0.343270248413  -0.104122990916  -0.214368482039
-0.32715763719  -0.104821802953  -0.212050984936
-0.266795707057  -0.0971348707138  -0.158748551564
-0.183109927128  -0.107617051001  -0.159907300116
-0.164582838706  -0.100628930831  -0.17033603708
-0.0977983992017  -0.116002795244  -0.141367323291
-0.0768648818352  -0.0824598183053  -0.135573580533
-0.00845469434364  -0.0950384346694  -0.130938586327
0.100993557367  -0.119496855361  -0.198146002317
0.171021444584  -0.093640810629  -0.214368482039
0.186313133546  -0.104122990916  -0.206257242178
0.249089540887  -0.0824598183053  -0.159907300116
0.380268087447  -0.0943396226329  -0.838933951333
0.398795175868  -0.0859538784227  -0.840092699884
0.467197315098  -0.091544374552  -0.944380069525
0.484090607279  -0.113207547163  -0.975666280417
0.539639679512  -0.114605171203  -0.935110081112
0.55976032289  -0.116002795244  -0.964078794902
0.619317427296  -0.0901467505116  -0.968713789108
0.635405893741  -0.0894479385076  -0.94785631518
0.689329217988  -0.117400419284  -0.966396292005
0.706222510169  -0.0887491264711  -0.94090382387
0.764169963094  -0.0852550663862  -0.957126303592
0.777063271374  -0.108315863037  -0.942062572422
0.834197850311  -0.104821802953  -0.979142526072
0.850294365009  -0.093640810629  -0.949015063731
0.905014466738  -0.112508735159  -0.959443800695
0.921931903688  -0.119496855361  -0.980301274623
0.983098659556  -0.0859538784227  -0.986095017381
0.995162997332  -0.0999301187947  -0.969872537659
-0.974245576471  -0.0803633822609  -0.823870220162
-0.950092756161  -0.0433263452052  -0.852838933951
-0.896177480168  -0.0573025856097  -0.80764774044
-0.881690616942  -0.0635918937755  -0.785631517961
-0.819719035337  -0.0803633822609  -0.842410196987
-0.799598391959  -0.0593990216541  -0.856315179606
-0.744073464494  -0.0426275332013  -0.815758980301
-0.727156027545  -0.0761705101396  -0.855156431054
-0.66920857461  -0.0580013976137  -0.840092699884
-0.6539249339  -0.048916841367  -0.804171494786
-0.595977480975  -0.0628930817715  -0.831981460023
-0.579880966277  -0.0670859538929  -0.836616454229
-0.523551213076  -0.0761705101396  -0.838933951333
-0.501820918227  -0.0454227812822  -0.842410196987
-0.41811099352  -0.0447239692457  -0.194669756663
-0.40282735281  -0.0719776380182  -0.215527230591
-0.340855771205  -0.0587002096502  -0.188876013905
-0.323954430771  -0.0635918937755  -0.201622247972
-0.262787674902  -0.0566037735732  -0.161066048667
-0.245870237943  -0.0768693221435  -0.169177288528
-0.181500275656  -0.0614954577311  -0.123986095017
-0.164582838706  -0.0531097134884  -0.106604866744
-0.0945710480053  -0.0719776380182  -0.122827346466
-0.00603216888303  -0.048916841367  -0.103128621089
0.0132836487588  -0.0789657582205  -0.127462340672
0.0841002651861  -0.0761705101396  -0.159907300116
0.103408034575  -0.0768693221435  -0.174971031286
0.172631096055  -0.0482180293631  -0.180764774044
0.190337262225  -0.064290705812  -0.203939745075
0.254731369291  -0.0447239692457  -0.188876013905
0.384292216126  -0.0531097134884  -0.840092699884
0.401998382296  -0.0426275332013  -0.815758980301
0.471221443777  -0.048916841367  -0.94090382387
0.488122784211  -0.0733752620587  -0.972190034762
0.546062188883  -0.0754716981031  -0.96292004635
0.564573180789  -0.078266946184  -0.979142526072
0.622520633715  -0.0468204053226  -0.959443800695
0.641047722136  -0.0531097134884  -0.976825028969
0.694158172403  -0.07756813418  -0.983777520278
0.713473990045  -0.0545073375288  -0.986095017381
0.768202140027  -0.0440251572417  -0.961761297798
0.784290606472  -0.0740740740626  -0.990730011587
0.836612327518  -0.0593990216541  -0.951332560834
0.85592814516  -0.0566037735732  -0.973348783314
0.90904664367  -0.0705800139778  -0.960602549247
0.926744761587  -0.0803633822609  -0.989571263036
0.986301865984  -0.0433263452052  -0.979142526072
0.998390348528  -0.0580013976137  -0.952491309386
-0.970213399539  -0.0391334730839  -0.825028968714
-0.888926000302  -0.0195667365501  -0.84472769409
-0.875252011055  -0.0279524807928  -0.820393974508
-0.816499732393  -0.036338225003  -0.82966396292
-0.798793566223  -0.0146750524248  -0.812282734647
-0.723147995381  -0.034940600995  -0.847045191194
-0.666794097412  -0.0125786163478  -0.812282734647
-0.65150240844  -0.00628930818204  -0.780996523754
-0.590335652571  -0.0251572327119  -0.859791425261
-0.576661663333  -0.0265548567523  -0.831981460023
-0.520331910133  -0.0328441649181  -0.826187717265
-0.497788741294  -0.00628930818204  -0.840092699884
-0.487317958475  -0.0104821803034  -0.256083429896
-0.398795175878  -0.0328441649181  -0.214368482039
-0.339246119734  -0.0132774283843  -0.157589803013
-0.323149605035  -0.0174703005057  -0.147161066049
-0.260373197695  -0.0118798043438  -0.129779837775
-0.245065412217  -0.0307477288737  -0.114716106605
-0.179085798448  -0.0160726764652  -0.0961761297798
-0.162184458014  -0.0104821803034  -0.0811123986095
-0.096180699477  -0.020265548554  -0.0382387022016
-0.0760600560993  -0.0370370370394  -0.0915411355736
0.0148933002305  -0.034940600995  -0.090382387022
0.0873195681295  -0.0342417889585  -0.15527230591
0.105830560035  -0.0342417889585  -0.150637311703
0.175858447252  -0.00419287210509  -0.166859791425
0.194369439158  -0.0251572327119  -0.20741599073
0.258755497961  -0.00349406010113  -0.186558516802
0.278876141338  -0.035639412999  -0.239860950174
0.387519567323  -0.00838574422644  -0.819235225956
0.4076402107  -0.00698812018599  -0.841251448436
0.476058446445  -0.00908455626294  -0.950173812283
0.490537261419  -0.0300489168372  -0.944380069525
0.550094365816  -0.034940600995  -0.969872537659
0.569410183458  -0.0384346610799  -0.987253765933
0.626544762394  -0.00489168414158  -0.958285052144
0.645860580036  -0.0139762403883  -0.982618771727
0.698190349335  -0.034940600995  -0.981460023175
0.716701341241  -0.0132774283843  -0.972190034762
0.783485780736  -0.0251572327119  -0.917728852839
0.835002676046  -0.00628930818204  -0.862108922364
0.855123319424  -0.00698812018599  -0.894553881808
0.915485249557  -0.0335429769546  -0.993047508691
0.93077693852  -0.0405310971243  -0.990730011587
0.991943694388  -0.00349406010113  -0.991888760139
-0.964595715913  -1.62705404705e-11  -0.843568945539
-0.946889549743  -0.00139762402418  -0.841251448436
-0.887332445346  0.0265548567523  -0.812282734647
-0.870415008387  0.0097833682669  -0.834298957126
-0.81328042945  0.00698812018599  -0.818076477404
-0.792346912083  0.0195667365501  -0.8516801854
-0.740041287562  -0.00139762402418  -0.820393974508
-0.719115818449  0.00419287210509  -0.850521436848
-0.661176413776  0.0272536687563  -0.82966396292
-0.645079899078  0.0300489168372  -0.812282734647
-0.587116349637  0.0195667365501  -0.841251448436
-0.57344236039  0.0146750524248  -0.819235225956
-0.5162997332  0.0097833682669  -0.823870220162
-0.485708307013  0.035639412999  -0.216685979143
-0.473643969237  0.00139762402418  -0.188876013905
-0.415696516312  -0.000698812020226  -0.178447276941
-0.39638069867  0.0097833682669  -0.188876013905
-0.336018768537  0.0300489168372  -0.143684820394
-0.319930302092  0.0230607966349  -0.140208574739
-0.257950672234  0.0328441649181  -0.105446118192
-0.241862205789  0.00908455626294  -0.105446118192
-0.178280972712  0.0321453529141  -0.0475086906141
-0.161379632278  0.0349406009625  -0.0336037079954
-0.0937662222694  0.0244584206754  -0.00811123986095
-0.0744504046276  0.00838574422644  -0.045191193511
-0.00522734314717  -1.62705404705e-11  -0.0475086906141
0.0189013323849  0.00419287210509  -0.098493626883
0.0897340453371  0.0111809923073  -0.123986095017
0.107440211507  0.00838574422644  -0.121668597914
0.195174264894  0.0216631725945  -0.149478563152
0.28127452203  0.00698812018599  -0.220162224797
0.393153347474  0.0300489168372  -0.837775202781
0.412469165116  0.0314465408776  -0.852838933951
0.480871304335  0.0293501048332  -0.965237543453
0.492951738626  0.0111809923073  -0.929316338355
0.554118494495  0.00838574422644  -0.959443800695
0.572629486401  0.00349406010113  -0.973348783314
0.632186590798  0.0349406009625  -0.975666280417
0.649892756968  0.0272536687563  -0.975666280417
0.703003207225  0.00628930818204  -0.98493626883
0.720725469911  0.0258560447158  -0.975666280417
0.768202140027  0.00838574422644  -0.886442641947
0.782680955  0.0244584206754  -0.840092699884
0.841449330177  0.0321453529141  -0.886442641947
0.861569973555  0.0286512927967  -0.923522595597
0.919517426489  0.00838574422644  -0.993047508691
0.933996241463  0.000698812020226  -0.981460023175
-0.960563538981  0.0419287211648  -0.847045191194
-0.942865421063  0.0377358490434  -0.843568945539
-0.880885791206  0.0635918937755  -0.845886442642
-0.867211801968  0.051013277444  -0.822711471611
-0.810857903989  0.0517120894479  -0.797219003476
-0.78912760914  0.0614954577311  -0.835457705678
-0.735212333147  0.0391334730839  -0.833140208575
-0.715896515505  0.0461215932861  -0.833140208575
-0.657144236844  0.0691823899373  -0.831981460023
-0.641055770399  0.0691823899373  -0.812282734647
-0.587116349637  0.0684835779334  -0.784472769409
-0.569410183458  0.0552061495328  -0.816917728853
-0.513080430257  0.0531097134884  -0.811123986095
-0.496179089823  0.0377358490434  -0.80764774044
-0.489732435683  0.0733752620587  -0.837775202781
-0.481700274849  0.0754716981031  -0.2224797219
-0.470416618041  0.0412299091608  -0.183082271147
-0.411672387633  0.0426275332013  -0.168018539977
-0.392356569991  0.0503144654075  -0.188876013905
-0.331994639858  0.0733752620587  -0.13325608343
-0.316702950895  0.064290705812  -0.129779837775
-0.238642902845  0.0503144654075  -0.0950173812283
-0.0929613965336  0.0733752620587  0.0428736964079
-0.0760600560993  0.0587002096502  0.0417149478563
0.000390340478986  0.0377358490434  -0.0683661645423
0.0213158095925  0.0468204053226  -0.0683661645423
0.0929613965336  0.0552061495328  -0.103128621089
0.110659514451  0.051013277444  -0.0996523754345
0.179866479406  0.0384346610799  -0.157589803013
0.199987122784  0.0587002096502  -0.168018539977
0.261958704389  0.0405310971243  -0.17033603708
0.285306698963  0.0468204053226  -0.219003476246
0.397185524406  0.0719776380182  -0.838933951333
0.49859356703  0.0496156534035  -0.943221320973
0.556541019956  0.0531097134884  -0.936268829664
0.576661663333  0.0440251572417  -0.966396292005
0.653916885647  0.0670859538929  -0.979142526072
0.707027335905  0.048916841367  -0.975666280417
0.724733502075  0.0663871418564  -0.973348783314
0.77142144297  0.0503144654075  -0.878331402086
0.78912760914  0.0587002096502  -0.882966396292
0.849489539273  0.0663871418564  -0.944380069525
0.868805356915  0.0628930817715  -0.972190034762
0.921931903688  0.0545073375288  -0.957126303592
0.938028418395  0.0419287211648  -0.969872537659
0.994358171596  0.0433263452052  -0.961761297798
-0.957344236037  0.0859538784227  -0.831981460023
-0.941247721339  0.0831586303418  -0.803012746234
-0.877666488262  0.10621942696  -0.834298957126
-0.862382847553  0.0901467505116  -0.831981460023
-0.805240220363  0.0922431865885  -0.812282734647
-0.785119576986  0.101327742835  -0.838933951333
-0.730375330479  0.0796645702244  -0.840092699884
-0.713482038298  0.0873515024307  -0.819235225956
-0.653120108165  0.111809923122  -0.828505214368
-0.637023593466  0.107617051001  -0.820393974508
-0.579076140541  0.103424178912  -0.833140208575
-0.563792499831  0.0908455625481  -0.838933951333
-0.508243427589  0.093640810629  -0.820393974508
-0.466392489371  0.0810621942649  -0.176129779838
-0.405225733502  0.0796645702244  -0.202780996524
-0.389129218794  0.0908455625481  -0.181923522596
-0.327962462926  0.114605171203  -0.137891077636
-0.313483647952  0.106918238997  -0.11123986095
-0.254731369291  0.0768693221435  -0.0845886442642
-0.236220377385  0.093640810629  -0.0625724217845
-0.175858447252  0.0761705101396  -0.0150637311703
-0.158160329335  0.0761705101396  -0.0173812282735
-0.0881243938654  0.111809923122  0.026651216686
-0.0736455788918  0.101327742835  0.0614136732329
0.0019999919507  0.0838574423458  -0.026651216686
0.0213158095925  0.093640810629  -0.0104287369641
0.096180699477  0.0978336827503  -0.0950173812283
0.114691691383  0.0901467505116  -0.103128621089
0.18308578235  0.0803633822609  -0.147161066049
0.205628951188  0.0964360587099  -0.184241019699
0.269210184264  0.0761705101396  -0.214368482039
0.289330827642  0.0873515024307  -0.212050984936
0.414078816587  0.0761705101396  -0.813441483198
0.419720644982  0.111809923122  -0.848203939745
0.482480955807  0.0761705101396  -0.921205098494
0.489732435683  0.111809923122  -0.971031286211
0.502601599185  0.0894479385076  -0.945538818076
0.562158703582  0.0922431865885  -0.959443800695
0.579880966267  0.0852550663862  -0.958285052144
0.635405893741  0.0789657582205  -0.964078794902
0.657144236844  0.109014675041  -0.96292004635
0.709449861365  0.0929419985925  -0.959443800695
0.729570504743  0.10482180292  -0.98493626883
0.780282574317  0.0838574423458  -0.949015063731
0.797183914752  0.0908455625481  -0.943221320973
0.85592814516  0.104122990916  -0.98493626883
0.872829485594  0.102026554872  -0.97798377752
0.928354413059  0.0922431865885  -0.993047508691
0.942052547065  0.0817610063014  -0.973348783314
1  0.0817610063014  -0.989571263036
-0.953312059105  0.127183787567  -0.833140208575
-0.937223592659  0.122292103409  -0.809965237543
-0.874447185319  0.150244584218  -0.815758980301
-0.857545844885  0.127882599571  -0.84472769409
-0.797988740488  0.129979035648  -0.852838933951
-0.781087400053  0.141858839976  -0.838933951333
-0.726367298324  0.122292103409  -0.838933951333
-0.707035384167  0.12368972745  -0.850521436848
-0.648283105496  0.152341020263  -0.831981460023
-0.631381765062  0.145352900061  -0.835457705678
-0.575052011862  0.14395527602  -0.841251448436
-0.560573196888  0.132075471693  -0.823870220162
-0.502625743963  0.132075471693  -0.842410196987
-0.487317958475  0.11670160728  -0.81460023175
-0.481700274849  0.153738644303  -0.836616454229
-0.480895449113  0.12368972745  -0.169177288528
-0.460774805735  0.11670160728  -0.209733487833
-0.40282735281  0.126484975531  -0.171494785632
-0.386714741587  0.133473095733  -0.156431054461
-0.30945147102  0.146750524101  -0.107763615295
-0.251512066347  0.120195667365  -0.0764774044032
-0.232196248705  0.133473095733  -0.0648899188876
-0.170224667101  0.11530398324  -0.0359212050985
-0.155737803874  0.118798043325  0.00926998841251
-0.0825067102392  0.151642208259  0.00579374275782
-0.0704262759483  0.141858839976  0.0764774044032
0.00522734314717  0.127882599571  -0.0127462340672
0.0237383350531  0.136268343814  0.0127462340672
0.100188731631  0.140461215935  -0.0880648899189
0.119504549273  0.127882599571  -0.11819235226
0.187922785018  0.121593291405  -0.15527230591
0.208848254131  0.136268343814  -0.180764774044
0.272429487208  0.119496855361  -0.203939745075
0.292550130585  0.127882599571  -0.205098493627
0.400388730825  0.116002795244  -0.823870220162
0.42292385141  0.153738644303  -0.833140208575
0.506633776117  0.129979035648  -0.942062572422
0.566182832261  0.13556953181  -0.94785631518
0.583084172695  0.127183787567  -0.949015063731
0.6402428964  0.119496855361  -0.968713789108
0.660363539778  0.150244584218  -0.957126303592
0.713473990045  0.13556953181  -0.949015063731
0.731180156215  0.150244584218  -0.94785631518
0.784290606472  0.12508735149  -0.949015063731
0.803606424114  0.127183787567  -0.975666280417
0.859960322092  0.148148148142  -0.973348783314
0.876048788538  0.143256464016  -0.966396292005
0.932386589991  0.134870719773  -0.988412514484
0.947670230701  0.119496855361  -0.990730011587
-0.950092756161  0.171907756829  -0.81460023175
-0.93077693852  0.157232704388  -0.84472769409
-0.870415008387  0.192872117403  -0.818076477404
-0.855131367677  0.171208944793  -0.820393974508
-0.793964611808  0.170510132789  -0.8516801854
-0.778672922846  0.185883997201  -0.809965237543
-0.721538343909  0.163522012586  -0.842410196987
-0.703832177739  0.164919636627  -0.842410196987
-0.64266542187  0.190076869323  -0.860950173812
-0.626552810656  0.183787561157  -0.847045191194
-0.571832708918  0.187980433278  -0.821552723059
-0.558150671427  0.174703004878  -0.804171494786
-0.499398392766  0.175401816914  -0.831981460023
-0.477668097917  0.167016072671  -0.15527230591
-0.476863272181  0.192173305367  -0.849362688297
-0.457547454539  0.157931516425  -0.196987253766
-0.397185524406  0.165618448631  -0.191193511008
-0.381901883697  0.171208944793  -0.166859791425
-0.323954430771  0.157232704388  -0.129779837775
-0.304622516614  0.184486373161  -0.126303592121
-0.245870237943  0.158630328429  -0.0926998841251
-0.226554420301  0.169112508748  -0.0915411355736
-0.165387664433  0.15583508038  -0.045191193511
-0.152518500931  0.160027952469  0.0196987253766
-0.145267021055  0.192872117403  -0.0278099652375
-0.0768648818352  0.190775681359  -0.0127462340672
-0.0607764153899  0.171208944793  -0.00695249130939
0.011665949034  0.16422082459  -0.0567786790267
0.03017694094  0.17330538087  -0.0104287369641
0.105830560035  0.178197064995  -0.117033603708
0.123528677953  0.168413696712  -0.115874855156
0.191946913697  0.16282320055  -0.157589803013
0.2136852568  0.175401816914  -0.190034762457
0.277266489876  0.160027952469  -0.208574739282
0.297387133254  0.167714884708  -0.205098493627
0.346473454832  0.167016072671  -0.835457705678
0.404412859504  0.156533892384  -0.825028968714
0.428565679814  0.190775681359  -0.8516801854
0.490537261419  0.159329140465  -0.91888760139
0.512267556268  0.166317260667  -0.969872537659
0.571019834929  0.174703004878  -0.964078794902
0.587116349628  0.168413696712  -0.943221320973
0.644250928564  0.160726764506  -0.968713789108
0.665981223413  0.187980433278  -0.972190034762
0.718310992713  0.176100628918  -0.960602549247
0.73600911063  0.189378057319  -0.952491309386
0.789932434876  0.164919636627  -0.961761297798
0.807630552793  0.168413696712  -0.971031286211
0.864773179983  0.187281621242  -0.986095017381
0.880885791206  0.18308874912  -0.968713789108
0.933996241463  0.180293501039  -0.953650057937
0.950092756161  0.162124388546  -0.972190034762
-0.944475072535  0.211041229897  -0.838933951333
-0.928362461321  0.20055904961  -0.811123986095
-0.851099190745  0.211041229897  -0.820393974508
-0.790737260612  0.212438853937  -0.84472769409
-0.774648794166  0.225716282338  -0.804171494786
-0.716701341241  0.204053109727  -0.852838933951
-0.698190349335  0.202655485687  -0.857473928158
-0.624154429964  0.226415094342  -0.830822711472
-0.566190880523  0.227113906346  -0.842410196987
-0.553321717012  0.213836477978  -0.808806488992
-0.493764612615  0.214535290014  -0.845886442642
-0.472839143502  0.207547169812  -0.162224797219
-0.455132977331  0.201257861646  -0.169177288528
-0.392356569991  0.204053109727  -0.205098493627
-0.377064881028  0.208944793852  -0.184241019699
-0.320735127828  0.199161425569  -0.11819235226
-0.299004832978  0.22222222222  -0.143684820394
-0.241057380053  0.199161425569  -0.103128621089
-0.222546388147  0.208944793852  -0.0926998841251
-0.160574806542  0.194269741444  -0.0625724217845
-0.154932978138  0.232005590504  -0.0869061413673
-0.138039685957  0.226415094342  -0.0753186558517
-0.0696214502125  0.225017470301  -0.0625724217845
-0.0535249355141  0.204053109727  -0.063731170336
0.0173077774287  0.204053109727  -0.0683661645423
0.0398268014985  0.20195667365  -0.101969872538
0.112269165922  0.215932914055  -0.141367323291
0.129975332092  0.203354297691  -0.151796060255
0.197588742092  0.201257861646  -0.178447276941
0.218514211205  0.214535290014  -0.194669756663
0.282884173502  0.198462613565  -0.235225955968
0.300590339672  0.208944793852  -0.193511008111
0.331181765869  0.207547169812  -0.833140208575
0.352107234983  0.204751921731  -0.8516801854
0.409249862172  0.197064989525  -0.834298957126
0.432589808493  0.231306778467  -0.84472769409
0.496179089823  0.197763801529  -0.945538818076
0.5162997332  0.206848357808  -0.968713789108
0.575043963609  0.217330538095  -0.96292004635
0.591140478307  0.208245981848  -0.944380069525
0.648283105496  0.203354297691  -0.967555040556
0.668403748874  0.230607966463  -0.953650057937
0.723123850603  0.218029350099  -0.961761297798
0.740846113289  0.228511530386  -0.961761297798
0.794761389291  0.204751921731  -0.981460023175
0.810857903989  0.209643605856  -0.96292004635
0.88489382336  0.223619846261  -0.964078794902
0.938028418395  0.224318658297  -0.944380069525
0.952507233369  0.205450733768  -0.946697566628
-0.940442895603  0.253668763114  -0.834298957126
-0.924354429158  0.240391334746  -0.811123986095
-0.865602150496  0.234102026548  -0.818076477404
-0.846286332854  0.248078266953  -0.836616454229
-0.787517957678  0.256464011195  -0.826187717265
-0.769811791498  0.262753319361  -0.826187717265
-0.713482038298  0.248078266953  -0.836616454229
-0.694971046392  0.243885394831  -0.848203939745
-0.641055770399  0.238294898669  -0.818076477404
-0.619317427296  0.264849755405  -0.837775202781
-0.56218284836  0.269741439563  -0.836616454229
-0.547679888608  0.250873515033  -0.833140208575
-0.490537261419  0.257861635236  -0.834298957126
-0.475253620709  0.235499650588  -0.815758980301
-0.468806966569  0.249475890993  -0.156431054461
-0.451108848652  0.264849755405  -0.361529548088
-0.450295974663  0.23969252271  -0.177288528389
-0.389129218794  0.247379454916  -0.188876013905
-0.372235926613  0.248078266953  -0.186558516802
-0.313483647952  0.234800838584  -0.164542294322
-0.294972656046  0.262054507324  -0.1483198146
-0.237025203121  0.240391334746  -0.103128621089
-0.217709385479  0.248777078956  -0.0950173812283
-0.132397857553  0.262753319361  -0.0996523754345
-0.0615812411257  0.260656883317  -0.114716106605
-0.0470782813742  0.24109014675  -0.090382387022
0.0229254610642  0.24109014675  -0.0996523754345
0.0430461044419  0.243885394831  -0.0834298957126
0.115496517119  0.259259259276  -0.129779837775
0.134007509025  0.242487770791  -0.151796060255
0.203206425727  0.240391334746  -0.199304750869
0.223327069105  0.252271139074  -0.20741599073
0.289330827642  0.237596086665  -0.264194669757
0.335213942801  0.248078266953  -0.837775202781
0.353716886454  0.248078266953  -0.822711471611
0.415696516312  0.234800838584  -0.863267670915
0.500203218493  0.23969252271  -0.94090382387
0.519519036134  0.248777078956  -0.949015063731
0.579076140541  0.259259259276  -0.955967555041
0.595164606986  0.248777078956  -0.943221320973
0.652307234176  0.245981830876  -0.96292004635
0.674842354761  0.268343815523  -0.97798377752
0.727147979282  0.261355695321  -0.958285052144
0.746463796924  0.264849755405  -0.989571263036
0.799598391959  0.245981830876  -0.983777520278
0.814882032669  0.250174702997  -0.960602549247
0.866382831454  0.234102026548  -0.950173812283
0.888113126304  0.264849755405  -0.954808806489
0.942052547065  0.265548567442  -0.946697566628
0.958149061773  0.243186582827  -0.966396292005
-0.997585522792  0.307477288623  -0.786790266512
-0.936418766924  0.295597484295  -0.82966396292
-0.917102949282  0.275331935725  -0.857473928158
-0.860765147828  0.273934311685  -0.828505214368
-0.845481507119  0.294898672259  -0.782155272306
-0.783509925514  0.296995108303  -0.831981460023
-0.764998933608  0.303284416502  -0.827346465817
-0.709449861365  0.288609364093  -0.838933951333
-0.691743695195  0.285115303976  -0.837775202781
-0.637023593466  0.279524807814  -0.816917728853
-0.616902950089  0.307477288623  -0.816917728853
-0.543671856454  0.290006988134  -0.836616454229
-0.486513132749  0.299790356384  -0.833140208575
-0.470416618041  0.273934311685  -0.82966396292
-0.445467020258  0.301886792461  -0.39281575898
-0.44226381383  0.272536687644  -0.232908458864
-0.426151202616  0.288609364093  -0.419466975666
-0.413282039104  0.291404612174  -0.804171494786
-0.38590991586  0.289308176097  -0.183082271147
-0.367398923945  0.285814116012  -0.203939745075
-0.307841819548  0.273934311685  -0.186558516802
-0.288526001906  0.29769392034  -0.173812282735
-0.232196248705  0.280922431854  -0.110081112399
-0.212075605328  0.283717679935  -0.126303592121
-0.149299197987  0.271837875608  -0.0996523754345
-0.142063814636  0.306778476586  -0.1483198146
-0.125951203413  0.298392732344  -0.135573580533
-0.0575571124464  0.302585604465  -0.11819235226
-0.041460597748  0.275331935725  -0.122827346466
0.0277624637324  0.281621243891  -0.104287369641
0.0478831071101  0.28022361985  -0.105446118192
0.121919026481  0.296296296299  -0.163383545771
0.139625192651  0.279524807814  -0.177288528389
0.208043428395  0.28022361985  -0.210892236385
0.228968897509  0.289308176097  -0.228273464658
0.257145846498  0.287910552057  -0.821552723059
0.27646166414  0.294199860255  -0.833140208575
0.339238071471  0.290705800137  -0.828505214368
0.358553889113  0.287211740053  -0.826187717265
0.418915819246  0.278127183806  -0.850521436848
0.43581715969  0.273235499648  -0.830822711472
0.505016076392  0.279524807814  -0.950173812283
0.52513671977  0.285115303976  -0.979142526072
0.581474521224  0.303284416502  -0.935110081112
0.598391958183  0.292103424178  -0.9258400927
0.65794906258  0.286512928016  -0.97798377752
0.678874531693  0.308176100627  -0.986095017381
0.730375330479  0.303983228506  -0.952491309386
0.749691148121  0.306778476586  -0.97798377752
0.802801598378  0.288609364093  -0.971031286211
0.820523861073  0.287211740053  -0.983777520278
0.871219834122  0.275331935725  -0.955967555041
0.892145303236  0.305380852546  -0.953650057937
0.948475056437  0.303983228506  -0.972190034762
0.964571571135  0.279524807814  -0.995365005794
-0.99355334586  0.347309573727  -0.789107763615
-0.932386589991  0.337526205444  -0.828505214368
-0.91549329781  0.319357092951  -0.827346465817
-0.856741019149  0.315863032833  -0.826187717265
-0.841449330186  0.334730957363  -0.784472769409
-0.781900274042  0.344514325646  -0.785631517961
-0.76016193094  0.341020265561  -0.840092699884
-0.704637003475  0.328441649197  -0.850521436848
-0.687719566525  0.324248777076  -0.838933951333
-0.632194639051  0.319357092951  -0.830822711472
-0.558955497163  0.313067784785  -0.822711471611
-0.538834853786  0.328441649197  -0.8516801854
-0.482505100585  0.341719077565  -0.828505214368
-0.465587663635  0.313766596789  -0.833140208575
-0.418915819255  0.322851153035  -0.463499420626
-0.406835384965  0.327044025157  -0.847045191194
-0.391551744255  0.318658280914  -0.819235225956
-0.3786745325  0.324248777076  -0.230590961761
-0.364984446747  0.348707197767  -0.367323290846
-0.361781240319  0.323549965072  -0.220162224797
-0.303028961658  0.313067784785  -0.201622247972
-0.285306698972  0.33822501748  -0.171494785632
-0.226554420301  0.319357092951  -0.137891077636
-0.205628951188  0.318658280914  -0.165701042874
-0.136421986232  0.345213137683  -0.177288528389
-0.121943171259  0.33822501748  -0.130938586327
-0.0503056325707  0.337526205444  -0.162224797219
-0.0350139436082  0.311670160744  -0.152954808806
0.035818769344  0.317260656874  -0.157589803013
0.05432976125  0.317260656874  -0.128621089224
0.125951203413  0.337526205444  -0.168018539977
0.146071846791  0.315164220829  -0.208574739282
0.212872382811  0.321453528995  -0.219003476246
0.239423583803  0.317260656874  -0.330243337196
0.262763530124  0.327044025157  -0.84472769409
0.282079347766  0.331236897278  -0.853997682503
0.343246103635  0.332634521319  -0.833140208575
0.363366747013  0.326345213153  -0.836616454229
0.422119025674  0.321453528995  -0.840092699884
0.439036462624  0.315164220829  -0.820393974508
0.510657904796  0.319357092951  -0.965237543453
0.526754419495  0.330538085274  -0.939745075319
0.585498649903  0.346610761723  -0.926998841251
0.604814467545  0.327742837193  -0.96292004635
0.661168365514  0.329140461234  -0.967555040556
0.683687389584  0.348008385764  -0.988412514484
0.734399459158  0.346610761723  -0.944380069525
0.754520102536  0.346610761723  -0.980301274623
0.80441124985  0.336128581403  -0.926998841251
0.822133512535  0.334032145359  -0.936268829664
0.872024659858  0.324248777076  -0.896871378911
0.952507233369  0.346610761723  -0.968713789108
0.966986048343  0.322152341031  -0.976825028969
-0.928362461321  0.379454926625  -0.825028968714
-0.910656295142  0.357791754014  -0.836616454229
-0.851904016481  0.356394129974  -0.836616454229
-0.833401072828  0.366876310261  -0.843568945539
-0.777063271374  0.385045422787  -0.796060254925
-0.756942627996  0.381551362702  -0.835457705678
-0.701417700532  0.372466806423  -0.836616454229
-0.682906708626  0.364081062212  -0.842410196987
-0.627357636392  0.361285814132  -0.831981460023
-0.614488472881  0.350803633812  -0.789107763615
-0.608846644477  0.387141858831  -0.813441483198
-0.554931368484  0.354297693929  -0.825028968714
-0.535615550842  0.370370370378  -0.836616454229
-0.479277749388  0.385045422787  -0.81460023175
-0.462384457207  0.354297693929  -0.826187717265
-0.403632178546  0.371069182382  -0.830822711472
-0.38590991586  0.35569531797  -0.838933951333
-0.357749063387  0.362683438172  -0.220162224797
-0.352920108971  0.376659678544  -0.480880648899
-0.342465422677  0.381551362702  -0.389339513326
-0.326352811454  0.3745632425  -0.828505214368
-0.298191958989  0.352900069889  -0.212050984936
-0.279689015337  0.37596086654  -0.186558516802
-0.220131910939  0.356394129974  -0.176129779838
-0.199206441826  0.353598881893  -0.199304750869
-0.131593031817  0.385744234791  -0.184241019699
-0.115496517119  0.373165618459  -0.166859791425
-0.0454686299025  0.378057302584  -0.173812282735
-0.0317946406647  0.352900069889  -0.136732329085
0.0430461044419  0.351502445848  -0.212050984936
0.060752270612  0.352201257852  -0.166859791425
0.133202683289  0.3745632425  -0.203939745075
0.150900801206  0.354297693929  -0.214368482039
0.179866479406  0.386443046827  -0.785631517961
0.265990881321  0.369671558342  -0.834298957126
0.285306698963  0.373165618459  -0.838933951333
0.344855755107  0.37735849058  -0.794901506373
0.367398923945  0.366177498257  -0.836616454229
0.426956028342  0.363382250176  -0.840092699884
0.443044494788  0.354996505933  -0.825028968714
0.512267556268  0.365478686253  -0.930475086906
0.529973722438  0.373165618459  -0.921205098494
0.591945304043  0.385045422787  -0.954808806489
0.606424119016  0.372466806423  -0.923522595597
0.663566746206  0.373864430463  -0.936268829664
0.740846113289  0.385744234791  -0.971031286211
0.758552279468  0.386443046827  -0.982618771727
0.806020901321  0.382250174706  -0.891077636153
0.823727067491  0.378756114621  -0.895712630359
0.876048788538  0.365478686253  -0.899188876014
0.893754954708  0.350803633812  -0.91077636153
0.957336187784  0.386443046827  -0.983777520278
0.971823051011  0.361984626135  -0.979142526072
-0.924354429158  0.421383647806  -0.822711471611
-0.907453088723  0.399720475195  -0.826187717265
-0.84709115859  0.396925227114  -0.845886442642
-0.830978547367  0.410202655482  -0.819235225956
-0.770616617234  0.422781271846  -0.831981460023
-0.753723325053  0.42348008385  -0.823870220162
-0.698995175071  0.417190775685  -0.812282734647
-0.679679357429  0.406009783361  -0.82966396292
-0.623349604228  0.40181691124  -0.835457705678
-0.550899191552  0.396925227114  -0.819235225956
-0.529973722438  0.407407407401  -0.856315179606
-0.473643969237  0.424178895887  -0.833140208575
-0.459157106011  0.395527603074  -0.812282734647
-0.399608049867  0.4136967156  -0.821552723059
-0.381901883697  0.39622641511  -0.838933951333
-0.33360429133  0.411600279523  -0.468134414832
-0.322344779299  0.415793151644  -0.826187717265
-0.306232168076  0.410202655482  -0.809965237543
-0.293363004574  0.394129979033  -0.220162224797
-0.275656838404  0.414395527604  -0.191193511008
-0.274047186933  0.407407407401  -0.444959443801
-0.243471857261  0.400419287232  -0.834298957126
-0.224139943103  0.414395527604  -0.843568945539
-0.215294908271  0.395527603074  -0.184241019699
-0.194369439158  0.393431167029  -0.202780996524
-0.124341551951  0.42208245981  -0.225955967555
-0.108245037243  0.406708595397  -0.219003476246
-0.0382412948046  0.412299091559  -0.221320973349
-0.0261528122607  0.389937106912  -0.161066048667
-0.0197303028987  0.424877707891  -0.201622247972
0.0100562975623  0.422781271846  -0.818076477404
0.03017694094  0.426974143968  -0.830822711472
0.0470782813742  0.393431167029  -0.202780996524
0.066394099016  0.388539482872  -0.19235225956
0.0728407531559  0.424178895887  -0.22943221321
0.0969855252035  0.399720475195  -0.830822711472
0.116301342855  0.391334730952  -0.818076477404
0.146876672527  0.397624039151  -0.35573580533
0.154932978138  0.39482879107  -0.212050984936
0.176663272988  0.401118099236  -0.477404403244
0.187117959282  0.42348008385  -0.827346465817
0.203206425727  0.397624039151  -0.823870220162
0.27001501  0.411600279523  -0.831981460023
0.28772117617  0.41509433964  -0.816917728853
0.346473454832  0.42348008385  -0.75550405562
0.364976398484  0.417889587721  -0.742757821553
0.427760854078  0.409503843478  -0.798377752028
0.449491148927  0.391334730952  -0.859791425261
0.517104558936  0.405310971357  -0.94090382387
0.535615550842  0.409503843478  -0.950173812283
0.61206594742  0.409503843478  -0.943221320973
0.670818226082  0.411600279523  -0.976825028969
0.686906692527  0.389937106912  -0.980301274623
0.745658971188  0.424178895887  -0.990730011587
0.812467555461  0.421383647806  -0.91888760139
0.82856407016  0.417889587721  -0.906141367323
0.880885791206  0.406708595397  -0.90382387022
0.896974257651  0.392732354993  -0.901506373117
0.905014466738  0.426275331931  -0.957126303592
0.97584717969  0.400419287232  -0.982618771727
-0.979074530886  0.463312368987  -0.825028968714
-0.920322252225  0.463312368987  -0.820393974508
-0.90423378578  0.441649196376  -0.812282734647
-0.843871855647  0.440251572336  -0.837775202781
-0.826970515213  0.449336128582  -0.823870220162
-0.764998933608  0.46261355695  -0.848203939745
-0.748886322385  0.46261355695  -0.831981460023
-0.694166220656  0.45981830887  -0.813441483198
-0.67565522875  0.445842068498  -0.830822711472
-0.617707775824  0.44095038434  -0.852838933951
-0.604838612323  0.427672955972  -0.80764774044
-0.546070237146  0.436757512218  -0.831981460023
-0.52755924523  0.450034940619  -0.837775202781
-0.45352332586  0.43256464013  -0.840092699884
-0.397185524406  0.457023060789  -0.805330243337
-0.377064881028  0.43535988821  -0.843568945539
-0.31589812516  0.453529000704  -0.859791425261
-0.302224135922  0.450733752623  -0.80764774044
-0.257950672234  0.429769392049  -0.39281575898
-0.241057380053  0.443745632421  -0.818076477404
-0.219327085204  0.453529000704  -0.852838933951
-0.208043428395  0.43256464013  -0.2224797219
-0.192759787686  0.436757512218  -0.174971031286
-0.187117959282  0.443745632421  -0.476245654693
-0.175053621516  0.451432564659  -0.378910776362
-0.158965155071  0.44095038434  -0.831981460023
-0.1412589889  0.436757512218  -0.821552723059
-0.110667562704  0.445842068498  -0.371958285052
-0.104220908573  0.446540880502  -0.219003476246
-0.0768648818352  0.43256464013  -0.815758980301
-0.0551345869858  0.450034940619  -0.831981460023
-0.035818769344  0.458420684829  -0.187717265353
-0.0124788230229  0.459119496866  -0.249130938586
0.0156981259663  0.461914744946  -0.838933951333
0.0350139436082  0.464709993027  -0.843568945539
0.0535249355141  0.431167016089  -0.242178447277
0.100993557367  0.44095038434  -0.836616454229
0.121114200745  0.429070580012  -0.835457705678
0.191142087961  0.463312368987  -0.835457705678
0.208043428395  0.436757512218  -0.834298957126
0.275656838404  0.451432564659  -0.84472769409
0.290940479114  0.456324248785  -0.804171494786
0.350497583511  0.466107617068  -0.745075318656
0.369813401153  0.456324248785  -0.756662804171
0.431784982757  0.4528301887  -0.790266512167
0.451905626135  0.43535988821  -0.826187717265
0.52032386187  0.448637316578  -0.929316338355
0.536420376578  0.456324248785  -0.896871378911
0.59435978125  0.429070580012  -0.936268829664
0.614480424628  0.4528301887  -0.91888760139
0.670818226082  0.46121593291  -0.914252607184
0.690938869459  0.431167016089  -0.973348783314
0.761771582402  0.428371768008  -0.968713789108
0.818109383865  0.459119496866  -0.949015063731
0.836612327518  0.449336128582  -0.971031286211
0.888113126304  0.441649196376  -0.954808806489
0.90904664367  0.464709993027  -0.961761297798
0.960563538981  0.430468204053  -0.961761297798
0.979074530886  0.441649196376  -0.974507531866
-0.995975871321  0.477987421395  -0.825028968714
-0.972627876747  0.50034940601  -0.850521436848
-0.900201608848  0.48148148148  -0.806488991889
-0.839839678715  0.483577917557  -0.827346465817
-0.821328686809  0.487071977642  -0.84472769409
-0.743268638759  0.499650594006  -0.8516801854
-0.687719566525  0.497554157929  -0.843568945539
-0.671623051818  0.484975541598  -0.835457705678
-0.614488472881  0.484276729561  -0.84472769409
-0.601619309379  0.468204053112  -0.805330243337
-0.594367829503  0.503843466128  -0.84472769409
-0.542062204982  0.479385045436  -0.823870220162
-0.521136735868  0.487071977642  -0.864426419467
-0.472034317766  0.469601677153  -0.797219003476
-0.448686323192  0.471698113197  -0.847045191194
-0.390746918519  0.495457721885  -0.830822711472
-0.372235926613  0.474493361278  -0.855156431054
-0.314288473688  0.499650594006  -0.819235225956
-0.297387133254  0.487770789679  -0.825028968714
-0.234610725913  0.482879105521  -0.842410196987
-0.216099734007  0.496156533889  -0.834298957126
-0.155737803874  0.484975541598  -0.820393974508
-0.137226811968  0.476589797355  -0.819235225956
-0.0913517450619  0.468902865149  -0.35573580533
-0.0728407531559  0.475890985318  -0.811123986095
-0.0519152840424  0.491963661767  -0.816917728853
0.0205109838566  0.503144654091  -0.84472769409
0.105830560035  0.48148148148  -0.838933951333
0.123528677953  0.472396925234  -0.811123986095
0.209653079867  0.480782669476  -0.801853997683
0.278876141338  0.494060097844  -0.837775202781
0.297387133254  0.492662473804  -0.837775202781
0.356139411915  0.505241090168  -0.774044032445
0.378674532491  0.487770789679  -0.827346465817
0.44063001758  0.485674353602  -0.859791425261
0.456742628803  0.474493361278  -0.836616454229
0.524331894034  0.489867225723  -0.924681344148
0.543647711676  0.490566037727  -0.945538818076
0.599196783919  0.471698113197  -0.933951332561
0.617707775824  0.494060097844  -0.907300115875
0.674037529025  0.503843466128  -0.900347624565
0.696580697863  0.467505241108  -0.998841251448
0.748886322385  0.468204053112  -0.971031286211
0.766584440302  0.466806429072  -0.981460023175
0.823727067491  0.499650594006  -0.960602549247
0.839839678715  0.491264849763  -0.958285052144
0.892145303236  0.483577917557  -0.953650057937
0.914680423821  0.503843466128  -0.976825028969
0.966181222607  0.469601677153  -0.986095017381
0.983098659556  0.482180293517  -0.971031286211
-0.991943694388  0.518518518536  -0.826187717265
-0.969408573813  0.541579315155  -0.842410196987
-0.917102949282  0.506638714176  -0.812282734647
-0.910656295142  0.543675751232  -0.841251448436
-0.896177480168  0.52061495458  -0.812282734647
-0.835010724299  0.523410202661  -0.845886442642
-0.817304558129  0.529000698823  -0.835457705678
-0.761779630665  0.505939902172  -0.834298957126
-0.739236461826  0.53948287911  -0.855156431054
-0.684516360097  0.53948287911  -0.838933951333
-0.666005368191  0.522711390657  -0.850521436848
-0.609651470213  0.524109014665  -0.857473928158
-0.590335652571  0.543675751232  -0.84472769409
-0.539639679521  0.524109014665  -0.801853997683
-0.518714210408  0.530398322864  -0.84472769409
-0.464798934415  0.505939902172  -0.841251448436
-0.444678291037  0.511530398334  -0.850521436848
-0.387519567323  0.53808525507  -0.820393974508
-0.368203749681  0.513626834378  -0.858632676709
-0.310264345009  0.540880503151  -0.818076477404
-0.291753353103  0.525506638706  -0.842410196987
-0.232196248705  0.527603074783  -0.821552723059
-0.212880431064  0.536687631029  -0.82966396292
-0.149299197987  0.522711390657  -0.852838933951
-0.133202683289  0.516422082459  -0.820393974508
-0.066394099016  0.511530398334  -0.8516801854
-0.0478831071101  0.531795946904  -0.823870220162
0.0390219757626  0.505939902172  -0.837775202781
0.109854688715  0.522711390657  -0.842410196987
0.129170506357  0.509433962257  -0.835457705678
0.195174264894  0.505939902172  -0.823870220162
0.215294908271  0.518518518536  -0.815758980301
0.283688999238  0.535290006989  -0.842410196987
0.300590339672  0.533892382948  -0.820393974508
0.363366747013  0.542278127191  -0.81460023175
0.382682564655  0.528301886787  -0.826187717265
0.443849320523  0.527603074783  -0.850521436848
0.459961931737  0.514325646415  -0.833140208575
0.52755924523  0.532494758908  -0.914252607184
0.546875062872  0.531795946904  -0.929316338355
0.601595164601  0.515024458419  -0.911935110081
0.622520633715  0.533892382948  -0.91077636153
0.678874531693  0.543675751232  -0.917728852839
0.695767823874  0.517120894496  -0.922363847045
0.752910451064  0.511530398334  -0.96292004635
0.770616617234  0.508036338216  -0.974507531866
0.82856407016  0.53948287911  -0.979142526072
0.843042885133  0.533193570944  -0.945538818076
0.89778713164  0.523410202661  -0.975666280417
0.971018225275  0.510132774293  -0.998841251448
0.987911517456  0.521313766617  -0.97798377752
-0.987935662234  0.561146051721  -0.816917728853
-0.8913404775  0.559748427681  -0.818076477404
-0.830978547367  0.566037735846  -0.837775202781
-0.812467555461  0.566736547883  -0.849362688297
-0.757747453732  0.547169811316  -0.837775202781
-0.737626810355  0.583508036336  -0.821552723059
-0.679679357429  0.580013976251  -0.843568945539
-0.663590890984  0.565338923842  -0.835457705678
-0.608041818741  0.571628232008  -0.812282734647
-0.534810725106  0.563941299802  -0.816917728853
-0.514690081729  0.570230607968  -0.84472769409
-0.462384457207  0.549266247393  -0.825028968714
-0.441458988094  0.553459119515  -0.833140208575
-0.382706709432  0.57861635221  -0.827346465817
-0.366594098209  0.557651991636  -0.825028968714
-0.306232168076  0.582809224332  -0.818076477404
-0.289330827642  0.568134171923  -0.820393974508
-0.227359246037  0.568134171923  -0.830822711472
-0.208848254131  0.577917540174  -0.820393974508
-0.146876672527  0.566736547883  -0.830822711472
-0.129983380345  0.55835080364  -0.80764774044
-0.0615812411257  0.552061495474  -0.858632676709
-0.0406557720122  0.567435359887  -0.860950173812
0.0237383350531  0.546470999313  -0.837775202781
0.042241278706  0.547169811316  -0.823870220162
0.113082039911  0.565338923842  -0.828505214368
0.134007509025  0.548567435357  -0.836616454229
0.199182297048  0.548567435357  -0.822711471611
0.222522243369  0.552760307478  -0.862108922364
0.286916350434  0.57861635221  -0.828505214368
0.30542734234  0.571628232008  -0.838933951333
0.369008575417  0.579315164214  -0.843568945539
0.387519567323  0.567435359887  -0.831981460023
0.449491148927  0.568134171923  -0.862108922364
0.463969963901  0.554856743555  -0.825028968714
0.605619293281  0.556254367596  -0.911935110081
0.626544762394  0.573025856049  -0.916570104287
0.698995175071  0.559748427681  -0.906141367323
0.750495973856  0.563242487765  -0.871378910776
0.77142144297  0.554157931519  -0.929316338355
0.848684713537  0.570230607968  -0.967555040556
0.90181126031  0.565338923842  -0.973348783314
0.915485249557  0.549965059397  -0.929316338355
0.973432702482  0.554856743555  -0.967555040556
0.99355334586  0.559748427681  -0.994206257242
-0.983106707819  0.599580712785  -0.836616454229
-0.96701019312  0.584206848372  -0.819235225956
-0.90904664368  0.589797344534  -0.804171494786
-0.885722793874  0.596785464704  -0.84472769409
-0.828564070169  0.610062893104  -0.809965237543
-0.809248252518  0.607966457027  -0.840092699884
-0.754528150789  0.589797344534  -0.828505214368
-0.732797855939  0.621942697432  -0.833140208575
-0.660363539787  0.607267645023  -0.815758980301
-0.604033786587  0.614255765193  -0.811123986095
-0.587116349637  0.585604472413  -0.827346465817
-0.529168896702  0.603773584906  -0.830822711472
-0.511470778785  0.612159329149  -0.831981460023
-0.459157106011  0.593291404619  -0.806488991889
-0.437426811161  0.594689028659  -0.826187717265
-0.379487406489  0.621942697432  -0.815758980301
-0.362586066055  0.598183088744  -0.819235225956
-0.299004832978  0.621243885395  -0.853997682503
-0.28290831828  0.605171208946  -0.855156431054
-0.223351213883  0.610062893104  -0.823870220162
-0.205628951188  0.619147449351  -0.811123986095
-0.144462195328  0.612159329149  -0.804171494786
-0.125146377677  0.59748427674  -0.813441483198
-0.0583619381823  0.5960866527  -0.838933951333
-0.0374364690688  0.609364081068  -0.848203939745
0.0285672894683  0.587002096453  -0.840092699884
0.0478831071101  0.584905660376  -0.849362688297
0.116301342855  0.609364081068  -0.806488991889
