# .PCD v.7 - Point Cloud Data file format
VERSION .7
FIELDS x y z
SIZE 4 4 4
TYPE F F F
COUNT 1 1 1
WIDTH 628
HEIGHT 1
VIEWPOINT 0 0 0 1 0 0 0
POINTS 628
DATA ascii	
-0.925038167941  -0.992289899797  -0.567567567568
-0.140874392786  -1  -0.740540540541
0.242192921583  -0.992289899797  -0.809009009009
0.863983344901  -0.986121819606  -0.81981981982
-0.915350451086  -0.905936777196  -0.614414414414
-0.866759195008  -0.916730917495  -0.527927927928
-0.77239417072  -0.922898997685  -0.581981981982
-0.722414989589  -0.958365458747  -0.571171171171
-0.629424011112  -0.932151117972  -0.574774774775
-0.571145038179  -0.910562837304  -0.628828828829
-0.476738376129  -0.927525057865  -0.711711711712
-0.421235253303  -0.927525057865  -0.72972972973
-0.32961832062  -0.91981495759  -0.733333333333
-0.288008327554  -0.958365458747  -0.56036036036
-0.190825815414  -0.978411719332  -0.715315315315
-0.132546842465  -0.912104857387  -0.744144144144
-0.0451214434446  -0.970701619129  -0.783783783784
0.00346981263337  -0.949113338461  -0.675675675676
0.0978487161641  -0.978411719332  -0.776576576577
0.149215822349  -0.984579799523  -0.783783783784
0.24913254685  -0.901310717017  -0.776576576577
0.292172102714  -0.978411719332  -0.787387387387
0.392102706458  -0.915188897483  -0.841441441441
0.43374045801  -0.981495759427  -0.787387387387
0.532283136717  -0.929067077876  -0.841441441441
0.582220680087  -0.932151117972  -0.812612612613
0.671075641923  -0.910562837304  -0.718918918919
0.723802914642  -0.950655358545  -0.823423423423
0.81816793893  -0.929067077876  -0.837837837838
0.956960444135  -0.950655358545  -0.776576576577
-1  -0.8164996145  -0.56036036036
-0.905621096469  -0.819583654595  -0.646846846847
-0.857029840391  -0.828835774882  -0.556756756757
-0.758501040944  -0.838087895168  -0.700900900901
-0.715461485079  -0.876638396325  -0.574774774775
-0.615530881335  -0.851966075562  -0.726126126126
-0.560027758509  -0.822667694691  -0.672072072072
-0.472574600969  -0.836545875084  -0.628828828829
-0.41151977793  -0.83962991518  -0.762162162162
-0.321318528802  -0.830377794894  -0.72972972973
-0.278278972938  -0.870470316134  -0.603603603604
-0.179736294247  -0.893600616814  -0.776576576577
-0.124205412902  -0.824209714703  -0.747747747748
-0.0353920888281  -0.882806476516  -0.805405405405
0.0145870923033  -0.86276021586  -0.718918918919
0.107564191538  -0.892058596803  -0.827027027027
0.15751561415  -0.89668465691  -0.809009009009
0.299083969463  -0.888974556707  -0.754954954955
0.396266481618  -0.822667694691  -0.744144144144
0.440652324775  -0.892058596803  -0.744144144144
0.536446911861  -0.838087895168  -0.765765765766
0.59056210965  -0.842713955275  -0.787387387387
0.683539208884  -0.828835774882  -0.816216216216
0.732130464962  -0.861218195848  -0.805405405405
0.827897293546  -0.841171935264  -0.881081081081
0.872310895221  -0.89668465691  -0.816216216216
0.966689798752  -0.86276021586  -0.798198198198
-0.988882720346  -0.731688511983  -0.628828828829
-0.898681471203  -0.728604471887  -0.618018018018
-0.84456627343  -0.744024672364  -0.661261261261
-0.75015961138  -0.750192752484  -0.708108108108
-0.704385843171  -0.79336931382  -0.628828828829
-0.604455239427  -0.765612952961  -0.787387387387
-0.554476058295  -0.730146491899  -0.6
-0.467050659275  -0.745566692376  -0.563963963964
-0.400402498276  -0.754818812663  -0.834234234234
-0.310201249132  -0.745566692376  -0.809009009009
-0.268549618321  -0.784117193534  -0.632432432432
-0.17279666898  -0.801079414023  -0.751351351351
-0.110340041644  -0.737856592174  -0.859459459459
-0.0284524635613  -0.79336931382  -0.790990990991
0.0228868841048  -0.774865073247  -0.740540540541
0.114517696047  -0.802621434106  -0.776576576577
0.16584316447  -0.807247494214  -0.787387387387
0.25608605136  -0.811873554393  -0.769369369369
0.267161693268  -0.727062451804  -0.827027027027
0.306037473972  -0.797995373927  -0.715315315315
0.40873004858  -0.737856592174  -0.837837837838
0.450381679391  -0.802621434106  -0.772972972973
0.547522553786  -0.750192752484  -0.816216216216
0.597501734917  -0.753276792579  -0.772972972973
0.693268563501  -0.739398612185  -0.834234234234
0.740471894526  -0.773323053235  -0.823423423423
0.832061068706  -0.748650732472  -0.783783783784
0.880652324784  -0.807247494214  -0.827027027027
0.975017349072  -0.776407093331  -0.801801801802
-0.979195003475  -0.645335389382  -0.672072072072
-0.890340041639  -0.640709329203  -0.603603603604
-0.83344899376  -0.659213569775  -0.72972972973
-0.740471894526  -0.663839629954  -0.758558558559
-0.696044413608  -0.705474171207  -0.65045045045
-0.59751561416  -0.673091750169  -0.744144144144
-0.544746703679  -0.643793369298  -0.643243243243
-0.454545454551  -0.659213569775  -0.661261261261
-0.394878556565  -0.662297609871  -0.751351351351
-0.310201249132  -0.648419429477  -0.603603603604
-0.258861901466  -0.696222050921  -0.661261261261
-0.164455239417  -0.714726291422  -0.758558558559
-0.108952116591  -0.643793369298  -0.715315315315
-0.0201110339981  -0.703932151124  -0.78018018018
0.0284524635613  -0.688511950646  -0.682882882883
0.121457321298  -0.711642251326  -0.758558558559
0.175572519087  -0.719352351601  -0.823423423423
0.317140874399  -0.71318427141  -0.776576576577
0.414295628037  -0.645335389382  -0.78018018018
0.460111034008  -0.716268311505  -0.801801801802
0.557251908402  -0.663839629954  -0.866666666667
0.607231089517  -0.663839629954  -0.783783783784
0.701596113821  -0.651503469573  -0.845045045045
0.751547536434  -0.686969930634  -0.873873873874
0.840388619027  -0.659213569775  -0.765765765766
0.890340041639  -0.720894371613  -0.845045045045
0.983358778635  -0.686969930634  -0.812612612613
-0.970853573912  -0.555898226685  -0.679279279279
-0.826509368493  -0.569776407079  -0.69009009009
-0.733518390016  -0.571318427163  -0.711711711712
-0.687716863288  -0.611410948332  -0.63963963964
-0.593337959757  -0.582112567461  -0.668468468468
-0.530895211664  -0.562066306876  -0.798198198198
-0.440652324775  -0.577486507353  -0.801801801802
-0.383761276895  -0.577486507353  -0.81981981982
-0.297696044409  -0.565150346972  -0.715315315315
-0.253310201253  -0.605242868141  -0.589189189189
-0.156127689113  -0.623747108713  -0.754954954955
-0.0104233171432  -0.614494988427  -0.81981981982
0.0423317140948  -0.611410948332  -0.827027027027
0.133934767519  -0.628373168893  -0.852252252252
0.182526023597  -0.628373168893  -0.794594594595
0.275503122831  -0.637625289107  -0.816216216216
0.325482303962  -0.625289128797  -0.805405405405
0.42680083276  -0.562066306876  -0.87027027027
0.465662734221  -0.623747108713  -0.72972972973
0.564205412912  -0.574402467258  -0.816216216216
0.615530881335  -0.57594448727  -0.798198198198
0.709937543368  -0.560524286793  -0.845045045045
0.758501040944  -0.594448727843  -0.848648648649
0.847342123536  -0.569776407079  -0.751351351351
0.900069396256  -0.632999229  -0.877477477477
0.990270645383  -0.597532767938  -0.783783783784
-0.882040249838  -0.551272166578  -0.625225225225
-0.816780013893  -0.483423284478  -0.718918918919
-0.723802914642  -0.484965304562  -0.754954954955
-0.675239417083  -0.523515805719  -0.740540540541
-0.578056904927  -0.498843484955  -0.816216216216
-0.521165857047  -0.474171164263  -0.809009009009
-0.432352532973  -0.488049344657  -0.78018018018
-0.380985426789  -0.484965304562  -0.704504504505
-0.288008327554  -0.477255204287  -0.765765765766
-0.242192921583  -0.51888974554  -0.646846846847
-0.147827897295  -0.535851966101  -0.769369369369
-0.102012491324  -0.55281418659  -0.682882882883
-0.00346981263337  -0.526599845814  -0.805405405405
0.0478972935513  -0.517347725528  -0.754954954955
0.139486467732  -0.537393986113  -0.798198198198
0.192213740452  -0.542020046292  -0.837837837838
0.283830673151  -0.549730146494  -0.834234234234
0.335170020817  -0.535851966101  -0.81981981982
0.475350451076  -0.535851966101  -0.776576576577
0.568369188072  -0.481881264466  -0.736936936937
0.622484385845  -0.486507324573  -0.769369369369
0.715461485079  -0.468003084072  -0.765765765766
0.76960444137  -0.505011565146  -0.881081081081
0.859805690498  -0.486507324573  -0.841441441441
0.908396946576  -0.545104086387  -0.881081081081
1  -0.508095605242  -0.805405405405
-0.963913948645  -0.466461063989  -0.63963963964
-0.872310895221  -0.464919043977  -0.657657657658
-0.808480222075  -0.39244410177  -0.722522522523
-0.712685634989  -0.398612181961  -0.816216216216
-0.665510062466  -0.435620663106  -0.747747747748
-0.571145038179  -0.410948342342  -0.805405405405
-0.512838306727  -0.386276021579  -0.809009009009
-0.42680083276  -0.395528141865  -0.715315315315
-0.368480222065  -0.400154201972  -0.794594594595
-0.275503122831  -0.390902081758  -0.848648648649
-0.228299791806  -0.435620663106  -0.783783783784
-0.136710617626  -0.447956823416  -0.81981981982
-0.0936710617609  -0.463377023893  -0.661261261261
0.00624566274007  -0.440246723213  -0.827027027027
0.0589729354596  -0.427910562832  -0.816216216216
0.147827897295  -0.447956823416  -0.801801801802
0.200541290772  -0.452582883595  -0.816216216216
0.290784177661  -0.460292983798  -0.801801801802
0.340735600274  -0.447956823416  -0.758558558559
0.42401110341  -0.463377023893  -0.614414414414
0.486467730746  -0.4494988435  -0.823423423423
0.576668979874  -0.39244410177  -0.740540540541
0.632199861218  -0.397070161949  -0.78018018018
0.775170020827  -0.414032382438  -0.830630630631
0.866759195008  -0.395528141865  -0.809009009009
0.916738376139  -0.455666923691  -0.877477477477
-0.998612074947  -0.306090979169  -0.733333333333
-0.954184594045  -0.378565921376  -0.679279279279
-0.863983344901  -0.378565921376  -0.679279279279
-0.797362942405  -0.307632999252  -0.794594594595
-0.709937543384  -0.306090979169  -0.715315315315
-0.655794587093  -0.34618350041  -0.78018018018
-0.568369188072  -0.316885119539  -0.679279279279
-0.505884802217  -0.295296838871  -0.769369369369
-0.262997918108  -0.299922898978  0.25045045045
-0.170020818874  -0.313801079443  0.181981981982
-0.083983344906  -0.377023901292  -0.711711711712
-0.0284524635613  -0.306090979169  0.181981981982
0.114517696047  -0.315343099455  0.214414414414
0.206106870228  -0.361603700815  -0.769369369369
0.296308119356  -0.366229760994  -0.726126126126
0.346287300487  -0.356977640708  -0.693693693694
0.436488549615  -0.375481881281  -0.704504504505
0.492019430959  -0.358519660792  -0.765765765766
0.589174184597  -0.307632999252  -0.841441441441
0.64328938237  -0.310717039348  -0.848648648649
0.722414989589  -0.380107941388  -0.758558558559
0.783469812629  -0.332305319944  -0.834234234234
0.876488549624  -0.307632999252  -0.845045045045
0.926426092994  -0.370855821102  -0.917117117117
-0.99304649549  -0.213569776377  -0.668468468468
-0.945884802227  -0.290670778692  -0.657657657658
-0.852866065231  -0.293754818787  -0.744144144144
-0.790423317138  -0.216653816472  -0.751351351351
-0.701609993064  -0.218195836556  -0.718918918919
-0.64745315753  -0.258288357725  -0.776576576577
-0.555863983349  -0.23207401695  -0.762162162162
-0.460111034008  -0.264456437916  0.268468468468
-0.40456627342  -0.265998458  0.254054054054
-0.324094378909  -0.24286815732  0.517117117117
-0.175572519087  -0.212027756365  0.499099099099
-0.120069396261  -0.241326137236  0.354954954955
0.0173629423938  -0.279876638393  0.41981981982
0.111727966698  -0.216653816472  0.463063063063
0.167244968767  -0.224363916747  0.38018018018
0.254698126306  -0.225905936759  0.481081081081
0.310201249132  -0.219737856568  0.398198198198
0.399042331709  -0.239784117224  0.383783783784
0.462886884115  -0.230531996938  0.142342342342
0.598903539213  -0.218195836556  -0.848648648649
0.646065232476  -0.216653816472  -0.711711711712
0.730742539909  -0.290670778692  -0.751351351351
0.791811242192  -0.249036237439  -0.855855855856
0.884816099928  -0.219737856568  -0.859459459459
0.931991672451  -0.276792598298  -0.841441441441
-0.981970853582  -0.12875867386  -0.733333333333
-0.937543372664  -0.201233616067  -0.679279279279
-0.84456627343  -0.205859676174  -0.747747747748
-0.783469812629  -0.12875867386  -0.726126126126
-0.690492713394  -0.131842713955  -0.783783783784
-0.639153365728  -0.171935235124  -0.798198198198
-0.544746703679  -0.145720894349  -0.823423423423
-0.498972935469  -0.205859676174  -0.754954954955
-0.454545454551  -0.173477255208  0.318918918919
-0.403178348367  -0.170393215112  0.41981981982
-0.318528799452  -0.15188897454  0.56036036036
-0.261609993071  -0.205859676174  0.41981981982
-0.122817487865  -0.141094834241  0.628828828829
-0.0326162387214  -0.205859676174  0.477477477477
0.0201110339981  -0.18581341559  0.538738738739
0.167244968767  -0.125674633764  0.592792792793
0.25608605136  -0.131842713955  0.63963963964
0.310201249132  -0.124132613752  0.571171171171
0.40456627342  -0.150346954528  0.434234234234
0.468438584312  -0.138010794146  0.218018018018
0.604455239427  -0.12875867386  -0.798198198198
0.65440666204  -0.12875867386  -0.722522522523
0.740471894526  -0.204317656162  -0.794594594595
0.802914642618  -0.159599074814  -0.895495495496
0.893115891746  -0.130300693871  -0.855855855856
0.941707147824  -0.190439475697  -0.873873873874
-0.975017349072  -0.0408635312468  -0.722522522523
-0.926426092994  -0.116422513478  -0.72972972973
-0.836224843867  -0.116422513478  -0.736936936937
-0.77239417072  -0.0424055512587  -0.787387387387
-0.682151283831  -0.0439475713423  -0.783783783784
-0.632213740461  -0.0824980724996  -0.776576576577
-0.539195003482  -0.0562837316523  -0.769369369369
-0.493421235256  -0.114880493466  -0.700900900901
-0.444829979178  -0.0871241326069  0.275675675676
-0.397654406672  -0.0794140324041  0.477477477477
-0.315752949346  -0.0593677717478  0.69009009009
-0.262997918108  -0.108712413275  0.643243243243
-0.17696044414  -0.113338473382  0.733333333333
-0.128369188062  -0.0393215111632  0.942342342342
-0.031228313668  -0.108712413275  0.668468468468
0.0214989590515  -0.0932922127978  0.697297297297
0.110340041644  -0.117964533561  0.693693693694
0.260249826503  -0.0377794911514  0.726126126126
0.412907702983  -0.0609097918314  0.448648648649
0.515614156834  -0.0902081727023  -0.711711711712
0.612755031228  -0.0408635312468  -0.794594594595
0.664122137413  -0.0408635312468  -0.751351351351
0.75015961138  -0.117964533561  -0.834234234234
0.809868147128  -0.0639938319268  -0.852252252252
0.901457321309  -0.0424055512587  -0.837837837838
0.950048577387  -0.101002313001  -0.863063063063
-0.916738376139  -0.0300693908768  -0.787387387387
-0.8292852186  -0.0239013106859  -0.708108108108
-0.766828591264  0.0485736314496  -0.740540540541
-0.675239417083  0.0470316114377  -0.762162162162
-0.622484385845  0.005397070185  -0.801801801802
-0.530895211664  0.0346954510559  -0.765765765766
-0.482303955586  -0.0254433307696  -0.744144144144
-0.437876474668  0.00231303008954  0.318918918919
-0.387925052055  0.0100231302923  0.466666666667
-0.308813324079  0.0316114109605  0.72972972973
-0.261609993071  -0.0115651503759  0.812612612613
-0.174184594034  -0.0161912104832  0.873873873874
-0.113129770994  0.0424055512587  0.790990990991
-0.031228313668  -0.0131071703877  0.855855855856
0.0173629423938  0.0100231302923  1
0.111727966698  -0.0223592906741  0.87027027027
0.167244968767  -0.028527370865  0.798198198198
0.318528799452  -0.0362374710677  0.571171171171
0.329646079106  0.0485736314496  0.517117117117
0.42401110341  0.0239013107577  0.372972972973
0.525329632207  -0.00385505010137  -0.772972972973
0.622484385845  0.0470316114377  -0.834234234234
0.677987508671  0.0439475713423  -0.866666666667
0.76127689105  -0.0316114109605  -0.902702702703
0.81816793893  0.0254433307696  -0.87027027027
0.905621096469  0.0485736314496  -0.762162162162
0.956960444135  -0.0100231302923  -0.827027027027
-0.966689798752  0.0501156515332  -0.718918918919
-0.908396946576  0.0609097918314  -0.762162162162
-0.820943789037  0.0639938319268  -0.715315315315
-0.614142956282  0.0932922127978  -0.801801801802
-0.523941707154  0.124132613752  -0.751351351351
-0.471186675916  0.0593677718196  -0.81981981982
-0.43096460792  0.0932922127978  0.358558558559
-0.378209576682  0.0963762528932  0.437837837838
-0.294920194319  0.116422513478  0.610810810811
-0.247744621796  0.0717039321296  0.682882882883
-0.158903539204  0.0639938319268  0.693693693694
-0.0978487161641  0.124132613752  0.614414414414
-0.0173351839076  0.0670778720223  0.704504504505
0.0395558639881  0.0824980724996  0.657657657658
0.125593337956  0.0593677718196  0.715315315315
0.178348369194  0.0578257517359  0.72972972973
0.268549618321  0.0501156515332  0.726126126126
0.288008327554  0.125674633764  0.466666666667
0.437876474668  0.10562837318  0.254054054054
0.535058986824  0.0824980724996  -0.794594594595
0.630811936165  0.134926754051  -0.81981981982
0.686315058991  0.131842713955  -0.855855855856
0.768216516317  0.0593677718196  -0.848648648649
0.826509368493  0.114880493466  -0.837837837838
0.916738376139  0.134926754051  -0.834234234234
0.968077723805  0.0763299923087  -0.895495495496
-0.958348369189  0.138010794146  -0.726126126126
-0.902845246363  0.15188897454  -0.700900900901
-0.809868147128  0.150346954528  -0.794594594595
-0.76127689105  0.13955281423  -0.672072072072
-0.666911866763  0.136468774134  -0.744144144144
-0.604455239427  0.181187355411  -0.81981981982
-0.514226231781  0.210485736353  -0.776576576577
-0.462886884115  0.147262914432  -0.830630630631
-0.424024982653  0.181187355411  0.387387387387
-0.368480222065  0.184271395506  0.38018018018
-0.276891047884  0.195065535876  0.372972972973
-0.232463566966  0.15188897454  0.50990990991
-0.142262317839  0.142636854253  0.484684684685
-0.079819569746  0.202775636079  0.405405405405
-0.00346981263337  0.150346954528  0.567567567568
0.0589729354596  0.161141094826  0.405405405405
0.142262317839  0.141094834241  0.531531531532
0.158903539204  0.216653816544  0.304504504504
0.192213740452  0.13955281423  0.578378378378
0.210270645388  0.218195836556  0.358558558559
0.297696044409  0.212027756365  0.41981981982
0.336557945871  0.138010794146  0.542342342342
0.351839000701  0.218195836556  0.387387387387
0.446217904231  0.195065535876  0.232432432432
0.537834836915  0.176561295303  -0.661261261261
0.693268563501  0.221279876651  -0.834234234234
0.77239417072  0.15188897454  -0.765765765766
0.834836918813  0.204317656162  -0.837837837838
0.975017349072  0.165767155005  -0.863063063063
-0.948660652334  0.224363916747  -0.747747747748
-0.898681471203  0.24286815732  -0.625225225225
-0.802914642618  0.239784117224  -0.754954954955
-0.75015961138  0.225905936759  -0.722522522523
-0.6585704372  0.224363916747  -0.751351351351
-0.59751561416  0.272166538191  -0.805405405405
-0.510048577378  0.303006939073  -0.697297297297
-0.461498959061  0.244410177331  -0.643243243243
-0.408743927823  0.259830377809  0.185585585586
-0.360180430264  0.307632999252  -0.772972972973
-0.35462873005  0.267540478011  0.264864864865
-0.258861901466  0.272166538191  0.120720720721
-0.215836224845  0.23207401695  0.311711711712
-0.164455239417  0.278334618381  -0.722522522523
-0.124205412902  0.222821896663  0.264864864865
-0.0714781401828  0.269082498095  -0.790990990991
-0.0631505898627  0.281418658477  0.203603603604
0.0145870923033  0.228989976854  0.336936936937
0.064538514916  0.276792598298  -0.646846846847
0.0728660652361  0.24286815732  0.275675675676
0.125593337956  0.287586738668  -0.772972972973
0.217224149898  0.256746337713  -0.884684684685
0.269937543375  0.253662297618  -0.866666666667
0.356016655104  0.249036237511  -0.776576576577
0.407342123527  0.256746337713  -0.762162162162
0.457321304658  0.279876638393  0.171171171171
0.548924358082  0.262914417904  -0.733333333333
0.639153365728  0.225905936759  -0.81981981982
0.782081887575  0.238242097141  -0.783783783784
0.843178348376  0.290670778763  -0.87027027027
0.926426092994  0.222821896663  -0.855855855856
0.986134628742  0.250578257522  -0.924324324324
-0.943095072877  0.315343099455  -0.700900900901
-0.882040249838  0.324595219742  -0.81981981982
-0.794587092298  0.326137239825  -0.769369369369
-0.737696044419  0.310717039348  -0.827027027027
-0.651630811933  0.31225905936  -0.726126126126
-0.58639833449  0.361603700887  -0.841441441441
-0.498972935469  0.389360061674  -0.765765765766
-0.453157529498  0.332305320016  -0.664864864865
-0.304649548919  0.313801079443  -0.718918918919
-0.210270645388  0.321511179646  -0.834234234234
-0.178348369194  0.386276021579  -0.196396396396
-0.0895072866009  0.381649961472  -0.181981981982
-0.0145870923033  0.330763299932  -0.751351351351
0.0520610686952  0.387818041662  -0.145945945946
0.196377515612  0.377023901292  -0.167567567568
0.271339347671  0.349267540505  -0.704504504505
0.356016655104  0.347725520422  -0.567567567568
0.417071478143  0.34618350041  -0.769369369369
0.507272727271  0.326137239825  -0.830630630631
0.562803608616  0.34618350041  -0.845045045045
0.646065232476  0.315343099455  -0.798198198198
0.698820263714  0.313801079443  -0.769369369369
0.794587092298  0.32305319973  -0.881081081081
0.851478140178  0.378565921376  -0.866666666667
0.934767522557  0.31225905936  -0.845045045045
0.994434420544  0.340015420219  -0.920720720721
-0.931991672451  0.40323824214  -0.772972972973
-0.873698820275  0.414032382438  -0.812612612613
-0.787633587789  0.41557440245  -0.747747747748
-0.729354614856  0.400154202044  -0.823423423423
-0.641901457332  0.400154202044  -0.754954954955
-0.578056904927  0.4494988435  -0.841441441441
-0.487855655799  0.475713184275  -0.81981981982
-0.444829979178  0.421742482641  -0.63963963964
-0.351839000701  0.398612181961  -0.744144144144
-0.307425399026  0.412490362354  -0.473873873874
-0.204718945175  0.412490362354  -0.758558558559
-0.145038167946  0.451040863512  -0.787387387387
-0.0561970853529  0.446414803404  -0.78018018018
-0.0104233171432  0.423284502724  -0.654054054054
0.0867591949966  0.446414803404  -0.798198198198
0.108952116591  0.40323824214  -0.171171171171
0.136710617626  0.474171164263  -0.646846846847
0.231075641913  0.437162683118  -0.827027027027
0.285218598204  0.434078643022  -0.823423423423
0.371256072172  0.427910562832  -0.754954954955
0.42680083276  0.432536623011  -0.81981981982
0.515614156834  0.414032382438  -0.848648648649
0.568369188072  0.437162683118  -0.798198198198
0.657182512146  0.398612181961  -0.859459459459
0.708549618331  0.401696222056  -0.787387387387
0.804302567672  0.409406322331  -0.90990990991
0.861207494794  0.466461063989  -0.87027027027
0.944482997931  0.401696222056  -0.877477477477
1  0.432536623011  -0.87027027027
-0.930603747397  0.497301464943  -0.618018018018
-0.875100624571  0.511179645337  -0.585585585586
-0.77655794588  0.503469545134  -0.790990990991
-0.722414989589  0.489591364669  -0.816216216216
-0.634989590568  0.489591364669  -0.747747747748
-0.571145038179  0.540478026208  -0.812612612613
-0.483691880639  0.566692366983  -0.744144144144
-0.429576682866  0.503469545134  -0.798198198198
-0.33934767522  0.481881264466  -0.848648648649
-0.286620402501  0.491133384752  -0.744144144144
-0.194989590558  0.500385505039  -0.798198198198
-0.135322692572  0.538936006196  -0.827027027027
-0.0492852186046  0.535851966101  -0.726126126126
0.00346981263337  0.50655358523  -0.78018018018
0.0978487161641  0.534309946017  -0.848648648649
0.151991672455  0.555898226685  -0.801801801802
0.24080499653  0.523515805719  -0.848648648649
0.290784177661  0.523515805719  -0.78018018018
0.382373351842  0.514263685433  -0.812612612613
0.435100624561  0.520431765623  -0.81981981982
0.525329632207  0.501927525051  -0.855855855856
0.578056904927  0.525057825803  -0.812612612613
0.665510062466  0.484965304562  -0.888288288288
0.722414989589  0.48342328455  -0.924324324324
0.811256072182  0.498843484955  -0.881081081081
0.870922970168  0.554356206673  -0.899099099099
0.951436502441  0.489591364669  -0.87027027027
-0.918126301193  0.582112567461  -0.711711711712
-0.863983344901  0.597532767938  -0.654054054054
-0.771006245667  0.592906707831  -0.736936936937
-0.714073560026  0.579028527365  -0.805405405405
-0.623872310898  0.572860447174  -0.827027027027
-0.562817487859  0.629915188904  -0.812612612613
-0.472574600969  0.651503469573  -0.812612612613
-0.421235253303  0.591364687747  -0.816216216216
-0.333782095764  0.572860447174  -0.801801801802
-0.275503122831  0.574402467258  -0.841441441441
-0.186689798757  0.588280647652  -0.81981981982
-0.131158917412  0.631457208988  -0.722522522523
-0.0409437890414  0.625289128797  -0.72972972973
0.0104233171432  0.597532767938  -0.744144144144
0.104788341431  0.625289128797  -0.809009009009
0.15751561415  0.648419429477  -0.722522522523
0.24913254685  0.612952968415  -0.837837837838
0.300471894516  0.611410948332  -0.798198198198
0.390714781405  0.602158828117  -0.823423423423
0.442040249828  0.611410948332  -0.787387387387
0.533671061771  0.589822667735  -0.87027027027
0.585010409437  0.617579028523  -0.762162162162
0.671075641923  0.577486507353  -0.81981981982
0.729354614856  0.574402467258  -0.891891891892
0.819555863983  0.58673862764  -0.902702702703
0.880652324784  0.642251349286  -0.94954954955
0.961124219295  0.577486507353  -0.884684684685
-0.998612074947  0.700848111028  -0.69009009009
-0.908396946576  0.66692367005  -0.765765765766
-0.850090215141  0.682343870455  -0.776576576577
-0.76127689105  0.680801850443  -0.790990990991
-0.705773768224  0.668465690062  -0.801801801802
-0.618320610685  0.665381649966  -0.754954954955
-0.553088133242  0.716268311505  -0.859459459459
-0.412907702983  0.680801850443  -0.816216216216
-0.324094378909  0.660755589859  -0.830630630631
-0.265773768214  0.663839629954  -0.848648648649
-0.18391394865  0.682343870455  -0.69009009009
-0.118681471207  0.717810331589  -0.801801801802
-0.0298403886147  0.71318427141  -0.805405405405
0.0187231089448  0.683885890539  -0.765765765766
0.110340041644  0.714726291493  -0.754954954955
0.164455239417  0.73631457209  -0.700900900901
0.257473976413  0.700848111028  -0.848648648649
0.307425399026  0.699306091016  -0.783783783784
0.396266481618  0.694680030837  -0.762162162162
0.453157529498  0.697764070933  -0.834234234234
0.541970853572  0.679259830432  -0.877477477477
0.59472588481  0.703932151124  -0.801801801802
0.679375433724  0.66692367005  -0.812612612613
0.736294240122  0.663839629954  -0.863063063063
0.827897293546  0.676175790336  -0.891891891892
0.884816099928  0.737856592174  -0.841441441441
0.966689798752  0.668465690062  -0.837837837838
-0.986134628742  0.785659213617  -0.794594594595
-0.897293546149  0.753276792651  -0.827027027027
-0.841790423323  0.768696993056  -0.801801801802
-0.751547536434  0.77023901314  -0.809009009009
-0.697432338661  0.756360832746  -0.81981981982
-0.614142956282  0.756360832746  -0.664864864865
-0.547536433029  0.807247494214  -0.798198198198
-0.462886884115  0.740940632269  -0.834234234234
-0.403178348367  0.768696993056  -0.830630630631
-0.314365024292  0.748650732472  -0.866666666667
-0.261609993071  0.754818812663  -0.769369369369
-0.175572519087  0.771781033152  -0.675675675676
-0.108952116591  0.804163454118  -0.852252252252
-0.0228868841048  0.804163454118  -0.783783783784
0.0298403886147  0.771781033152  -0.805405405405
0.122817487849  0.799537394011  -0.848648648649
0.178348369194  0.821125674679  -0.830630630631
0.257473976413  0.797995373927  -0.65045045045
0.314365024292  0.790285273724  -0.736936936937
0.410131852877  0.776407093331  -0.888288288288
0.462886884115  0.785659213617  -0.863063063063
0.550312283135  0.767154973044  -0.881081081081
0.604455239427  0.790285273724  -0.834234234234
0.687716863288  0.754818812663  -0.823423423423
0.746023594723  0.750192752555  -0.895495495496
0.83761276892  0.762528912865  -0.935135135135
0.894503816799  0.824209714774  -0.873873873874
0.979181124232  0.750192752555  -0.927927927928
-0.979195003475  0.875096376242  -0.765765765766
-0.887564191533  0.83962991518  -0.863063063063
-0.832061068706  0.856592135741  -0.823423423423
-0.745995836237  0.859676175836  -0.747747747748
-0.690492713394  0.845797995371  -0.787387387387
-0.59751561416  0.836545875084  -0.859459459459
-0.537807078428  0.893600616814  -0.841441441441
-0.457321304658  0.830377794965  -0.78018018018
-0.399014573223  0.859676175836  -0.754954954955
-0.307425399026  0.836545875084  -0.855855855856
-0.250534351146  0.841171935264  -0.823423423423
-0.16167938931  0.855050115657  -0.812612612613
-0.100624566271  0.893600616814  -0.837837837838
-0.0145870923033  0.892058596803  -0.790990990991
0.0395558639881  0.858134155753  -0.848648648649
0.129757113116  0.890516576719  -0.834234234234
0.186689798757  0.909020817292  -0.827027027027
0.275503122831  0.875096376242  -0.895495495496
0.325482303962  0.876638396325  -0.809009009009
0.41568355309  0.868928296123  -0.812612612613
0.467050659258  0.876638396325  -0.787387387387
0.560027758509  0.855050115657  -0.906306306306
0.612755031228  0.879722436421  -0.830630630631
0.697432338661  0.842713955275  -0.830630630631
0.752935461487  0.841171935264  -0.866666666667
0.845954198483  0.85042405555  -0.945945945946
0.907009021523  0.910562837375  -0.978378378378
0.987522553779  0.83962991518  -0.927927927928
-0.973629424019  0.966075559022  -0.718918918919
-0.883428174891  0.93060909796  -0.772972972973
-0.823719639143  0.946029298437  -0.827027027027
-0.736308119366  0.946029298437  -0.798198198198
-0.680763358778  0.932151117972  -0.812612612613
-0.593337959757  0.929067077876  -0.78018018018
-0.526717557261  0.979953739415  -0.891891891892
-0.450381679391  0.91981495759  -0.747747747748
-0.387925052055  0.946029298437  -0.812612612613
-0.300471894516  0.925983037781  -0.812612612613
-0.243580846636  0.932151117972  -0.787387387387
-0.154767522562  0.946029298437  -0.772972972973
-0.0922831367076  0.983037779511  -0.837837837838
-0.00624566274007  0.981495759499  -0.776576576577
0.0465093684979  0.947571318449  -0.823423423423
0.129757113116  0.986121819606  -0.621621621622
0.197765440665  0.993831919809  -0.90990990991
0.282442748098  0.966075559022  -0.848648648649
0.335170020817  0.964533538938  -0.845045045045
0.41984732825  0.961449498843  -0.715315315315
0.479528105479  0.961449498843  -0.859459459459
0.568369188072  0.942945258342  -0.917117117117
0.622484385845  0.967617579034  -0.866666666667
0.708549618331  0.927525057865  -0.917117117117
0.766828591264  0.924441017769  -1
0.854253990285  0.941403238258  -0.927927927928
0.995822345597  0.929067077876  -0.935135135135
0.913962526032  1  -0.927927927928
0.913962526032  1  -0.927927927928
