# .PCD v.7 - Point Cloud Data file format
VERSION .7
FIELDS x y z
SIZE 4 4 4
TYPE F F F
COUNT 1 1 1
WIDTH 123
HEIGHT 1
VIEWPOINT 0 0 0 1 0 0 0
POINTS 123
DATA ascii
577171.875 4179842.5 318.260009766
577172 4179842.25 320.779998779
577172.0625 4179841.75 320.839996338
577172.125 4179841.25 321.119995117
577172.125 4179840.5 320.649993896
577172.1875 4179840 320.929992676
577172.25 4179839.5 321.899993896
577172.25 4179839 321.579986572
577172.25 4179838.25 320.369995117
577172.25 4179837.5 319.160003662
577172.3125 4179837 318.959991455
577171.9375 4179836.75 319.980010986
577171.9375 4179837.5 321.519989014
577171.875 4179838 321.299987793
577171.875 4179838.75 322.200012207
577171.8125 4179839.25 322.019989014
577171.875 4179840.25 323.679992676
577171.8125 4179840.5 322.820007324
577171.75 4179841 322.450012207
577171.6875 4179841.5 321.670013428
577171.625 4179842 321.609985352
577171.5 4179842.5 319.989990234
577171.4375 4179842.75 318.690002441
577170.3125 4179843.5 318.279998779
577170.4375 4179843 320.190002441
577170.5625 4179842.75 322.149993896
577170.625 4179842.25 322.570007324
577170.75 4179842 324.190002441
577170.75 4179841.25 323.339996338
577170.8125 4179841 324.609985352
577170.875 4179840.25 324.450012207
577170.9375 4179839.75 325.130004883
577170.9375 4179839.25 324.029998779
577170.9375 4179838.5 322.75
577170.9375 4179837.75 322.529998779
577170.9375 4179837 321.510009766
577170.9375 4179836.25 319.910003662
577170.5 4179836.25 320.209991455
577170.5 4179837 321.660003662
577170.5 4179837.5 321.940002441
577170.5 4179838.25 322.850006104
577170.5 4179839.25 324.869995117
577170.5 4179839.75 325.940002441
577170.5 4179840.5 326.200012207
577170.4375 4179841 325.369995117
577170.25 4179841.75 324.179992676
577170.1875 4179842.25 323.070007324
577170.125 4179842.75 322.720001221
577170 4179842.75 319.589996338
577169.875 4179843.25 318.429992676
577169.875 4179843.75 318.519989014
577168.875 4179844.25 319.429992676
577168.9375 4179843.5 319.559997559
577169 4179843.25 321.549987793
577169.0625 4179842.75 321.730010986
577169.125 4179842.25 321.75
577169.25 4179842 323.720001221
577169.3125 4179841.5 324.350006104
577169.375 4179841 325.839996338
577169.5 4179840.75 327.160003662
577169.5 4179840.25 327.200012207
577169.5 4179839.5 325.880004883
577169.5625 4179838.75 325.309997559
577169.5 4179837.75 323.200012207
577169.5 4179837.25 322.839996338
577169.5 4179836.5 320.869995117
577169.0625 4179836 320.010009766
577169.0625 4179837 322.109985352
577169.0625 4179837.5 322.940002441
577169.0625 4179838.25 323.390014648
577169.0625 4179839 324.579986572
577169.0625 4179839.75 325.209991455
577169.0625 4179840.5 326.609985352
577169 4179841 326.179992676
577168.9375 4179841.5 325.839996338
577168.875 4179841.75 324.890014648
577168.75 4179842.25 323.309997559
577168.6875 4179842.5 321.859985352
577168.625 4179843 321.269989014
577168.5 4179843.25 318.869995117
577168.4375 4179843.75 319.220001221
577167.625 4179842.75 321.179992676
577167.625 4179842.25 320.850006104
577167.75 4179841.75 322.130004883
577167.8125 4179841.25 323.339996338
577167.875 4179841 324.059997559
577167.9375 4179840.25 323.950012207
577167.9375 4179839.75 324.029998779
577168 4179839.25 324.200012207
577167.9375 4179838.25 322.089996338
577168 4179837.75 322.549987793
577168 4179837.25 321.809997559
577168 4179836.5 320.440002441
577167.625 4179836.25 320.839996338
577167.5625 4179837 321.070007324
577167.625 4179837.75 322.260009766
577167.5625 4179838.25 322.809997559
577167.5625 4179839 323.679992676
577167.5 4179839.5 323.5
577167.5 4179840 323.179992676
577167.4375 4179840.75 323.670013428
577167.375 4179841.25 323.149993896
577167.25 4179841.5 321.510009766
577167.25 4179842 321.079986572
577167.125 4179842.25 319.350006104
577167.0625 4179843 319.630004883
577166.125 4179842 319.769989014
577166.25 4179841.5 320.320007324
577166.3125 4179841 321.200012207
577166.3125 4179840.5 321.019989014
577166.375 4179840 320.829986572
577166.4375 4179839.5 322.329986572
577166.4375 4179838.75 320.630004883
577166.5 4179838.25 320.970001221
577166.5 4179837.75 321.149993896
577166.5 4179837 319.970001221
577166.0625 4179838.25 321.519989014
577166 4179838.75 320.700012207
577165.875 4179839.25 319.209991455
577165.875 4179839.75 319.989990234
577165.875 4179840.5 320.019989014
577165.75 4179840.75 318.739990234
577165.75 4179841.5 319.690002441
