# .PCD v.7 - Point Cloud Data file format
VERSION .7
FIELDS x y z
SIZE 4 4 4
TYPE F F F
COUNT 1 1 1
WIDTH 278
HEIGHT 1
VIEWPOINT 0 0 0 1 0 0 0
POINTS 278
DATA ascii
577165.1875 4179846 315.149993896
577165.0625 4179847.75 315.119995117
577165.0625 4179848.25 315.079986572
577163.5625 4179855.25 315.040008545
577163.625 4179854.25 315.119995117
577163.75 4179852.5 315.100006104
577163.8125 4179851.75 315.040008545
577163.875 4179850.75 315.059997559
577164 4179849 314.970001221
577164.0625 4179848.5 315.010009766
577164.0625 4179847.75 314.950012207
577164.125 4179847.25 314.899993896
577164.125 4179846.75 314.989990234
577164.1875 4179846 314.989990234
577164.25 4179845.5 314.980010986
577164.25 4179845 314.910003662
577164.3125 4179844.25 314.820007324
577164.375 4179843.75 315.049987793
577164.5625 4179841 315.119995117
577164.1875 4179840.25 315
577164.0625 4179842 314.940002441
577164 4179842.5 315.019989014
577164 4179843 315.109985352
577163.9375 4179843.5 314.880004883
577163.875 4179844.25 314.760009766
577163.8125 4179844.75 314.809997559
577163.8125 4179845.25 315.049987793
577163.75 4179846.5 314.940002441
577163.6875 4179847 314.989990234
577163.625 4179847.5 315.029998779
577163.625 4179848.25 315.040008545
577163.5625 4179848.75 315.079986572
577163.5 4179849.25 314.959991455
577163.5 4179849.75 314.859985352
577163.4375 4179850.5 315.029998779
577163.4375 4179851 315.029998779
577163.375 4179851.5 314.820007324
577163.3125 4179852.25 315.089996338
577163.25 4179852.75 314.910003662
577163.25 4179853.25 315.079986572
577163.0625 4179855.5 315.029998779
577162.125 4179855.5 315.070007324
577162.125 4179854.75 315.010009766
577162.25 4179853 315.049987793
577162.3125 4179852.5 314.950012207
577162.3125 4179852 315.010009766
577162.375 4179851.25 315.019989014
577162.4375 4179850.75 314.859985352
577162.4375 4179850.25 314.829986572
577162.5 4179849.75 314.859985352
577162.5 4179849 314.950012207
577162.5625 4179848.5 314.839996338
577162.625 4179848 314.929992676
577162.625 4179847.25 314.760009766
577162.6875 4179846.75 314.679992676
577162.6875 4179846.25 314.700012207
577162.75 4179845.75 314.839996338
577162.8125 4179845 314.929992676
577162.8125 4179844.5 314.709991455
577162.875 4179843.75 314.540008545
577162.9375 4179843.25 314.720001221
577162.9375 4179842.75 314.700012207
577163 4179842.25 314.829986572
577163 4179841.5 314.690002441
577163.0625 4179841 314.809997559
577163.125 4179840.5 314.779998779
577163.125 4179840 314.690002441
577162.75 4179839 314.899993896
577162.75 4179839.5 314.869995117
577162.6875 4179840.25 314.910003662
577162.6875 4179840.75 314.820007324
577162.625 4179841.25 314.579986572
577162.5625 4179841.75 314.730010986
577162.5 4179842.25 314.519989014
577162.5 4179843 314.459991455
577162.4375 4179843.5 314.670013428
577162.4375 4179844 314.799987793
577162.375 4179844.75 314.640014648
577162.3125 4179845.25 314.559997559
577162.3125 4179845.75 314.75
577162.25 4179846.25 314.820007324
577162.25 4179847 314.910003662
577162.1875 4179847.5 314.609985352
577162.125 4179848 314.799987793
577162.125 4179848.75 314.75
577162.0625 4179849.25 315.010009766
577162 4179849.75 314.709991455
577161.8125 4179853.25 314.989990234
577161.75 4179853.75 314.980010986
577161.6875 4179855 314.920013428
577161.625 4179856 314.989990234
577160.75 4179853.75 314.929992676
577160.75 4179853 314.880004883
577160.8125 4179852.5 314.880004883
577160.875 4179852 314.910003662
577160.875 4179851.5 314.850006104
577160.9375 4179850.75 314.829986572
577161 4179850.25 314.890014648
577161 4179849.75 314.859985352
577161.0625 4179849 314.660003662
577161.0625 4179848.5 314.809997559
577161.125 4179848 315.010009766
577161.1875 4179847.5 314.670013428
577161.1875 4179846.75 314.850006104
577161.25 4179846.25 314.609985352
577161.25 4179845.75 314.589996338
577161.3125 4179845 314.589996338
577161.375 4179844.5 314.649993896
577161.375 4179844 314.649993896
577161.4375 4179843.25 314.489990234
577161.5 4179842.75 314.640014648
577161.5 4179842.25 314.630004883
577161.5625 4179841.75 314.679992676
577161.5625 4179841 313.989990234
577161.625 4179840.5 314.399993896
577161.625 4179840 314.5
577161.6875 4179839.25 314.700012207
577161.75 4179838.75 314.709991455
577161.8125 4179837.75 314.880004883
577161.875 4179837 314.989990234
577161.4375 4179836.5 314.690002441
577161.4375 4179837.25 314.980010986
577161.375 4179837.75 314.799987793
577161.3125 4179838.25 314.820007324
577161.3125 4179838.75 314.640014648
577161.25 4179839.5 314.809997559
577161.1875 4179840 314.369995117
577161.1875 4179840.5 314.600006104
577161.125 4179841 314.019989014
577161.0625 4179841.75 314.440002441
577161.0625 4179842.25 314.380004883
577161 4179842.75 314.579986572
577160.9375 4179843.25 314.450012207
577160.9375 4179844 314.640014648
577160.875 4179844.5 314.75
577160.875 4179845.25 314.739990234
577160.8125 4179845.75 314.660003662
577160.75 4179846.25 314.619995117
577160.75 4179846.75 314.739990234
577160.6875 4179847.5 314.929992676
577160.625 4179848.5 314.809997559
577160.5625 4179849 314.950012207
577160.5625 4179849.75 314.630004883
577160.5 4179850.25 314.760009766
577160.5 4179850.75 314.839996338
577160.4375 4179851.5 314.989990234
577160.375 4179852 314.940002441
577160.375 4179852.5 314.929992676
577160.25 4179854.25 314.959991455
577159.375 4179852.5 314.959991455
577159.4375 4179851.5 314.950012207
577159.5 4179850.25 314.839996338
577159.5625 4179849.75 314.869995117
577159.625 4179849.25 314.75
577159.625 4179848.5 314.880004883
577159.6875 4179847.5 314.720001221
577159.75 4179846.75 314.720001221
577159.75 4179846.25 314.649993896
577159.8125 4179845.75 314.850006104
577159.875 4179845.25 314.720001221
577159.875 4179844.5 314.720001221
577159.9375 4179844 314.839996338
577160 4179843.5 314.720001221
577160 4179842.75 314.690002441
577160.0625 4179842.25 314.589996338
577160.0625 4179841.75 314.529998779
577160.125 4179841.25 314.790008545
577160.1875 4179840.5 314.559997559
577160.1875 4179840 314.660003662
577160.25 4179839.5 314.779998779
577160.25 4179838.75 314.700012207
577160.3125 4179838.25 314.609985352
577160.375 4179837.75 314.799987793
577160.375 4179837.25 314.75
577160.4375 4179836.5 314.829986572
577160.5 4179836 314.790008545
577160.5 4179835.5 314.899993896
577160.125 4179834.25 314.910003662
577160 4179836 314.700012207
577160 4179836.5 314.540008545
577159.9375 4179837 314.709991455
577159.875 4179837.5 314.579986572
577159.875 4179838.25 314.869995117
577159.8125 4179838.75 314.760009766
577159.75 4179839.25 314.709991455
577159.75 4179839.75 314.570007324
577159.6875 4179840.5 314.559997559
577159.6875 4179841 314.549987793
577159.625 4179841.5 314.559997559
577159.5625 4179842.25 314.549987793
577159.5 4179843.75 314.769989014
577159.4375 4179844.5 314.959991455
577159.375 4179845 314.799987793
577159.375 4179845.5 314.769989014
577159.3125 4179846 314.660003662
577159.25 4179846.75 314.829986572
577159.25 4179847.25 314.899993896
577159.1875 4179847.75 314.730010986
577159.0625 4179850.25 314.910003662
577159 4179850.75 314.929992676
577158.25 4179847 314.859985352
577158.3125 4179846 314.769989014
577158.375 4179845.25 314.720001221
577158.4375 4179844.25 314.850006104
577158.5 4179843.75 314.850006104
577158.5625 4179843 314.799987793
577158.5625 4179842.5 314.799987793
577158.625 4179842 314.760009766
577158.625 4179841.25 314.739990234
577158.6875 4179840.75 314.579986572
577158.75 4179840.25 314.640014648
577158.75 4179839.5 314.549987793
577158.8125 4179839 314.820007324
577158.875 4179837.75 314.690002441
577158.875 4179837.25 314.480010986
577158.9375 4179836.75 314.579986572
577159 4179836.25 314.679992676
577159 4179835.5 314.619995117
577159.0625 4179835 314.570007324
577159.125 4179834.5 314.799987793
577158.6875 4179834.25 314.619995117
577158.5625 4179835.75 314.549987793
577158.5 4179836.5 314.529998779
577158.5 4179837 314.510009766
577158.4375 4179837.5 314.619995117
577158.375 4179838.25 314.640014648
577158.375 4179838.75 314.450012207
577158.3125 4179839.25 314.720001221
577158.25 4179840.5 314.829986572
577158.1875 4179841 314.75
577157.8125 4179846.75 314.910003662
577157.25 4179840.75 314.880004883
577157.25 4179840 314.769989014
577157.3125 4179839.5 314.660003662
577157.3125 4179839 314.799987793
577157.4375 4179837.75 314.75
577157.4375 4179837.25 314.679992676
577157.5 4179836.5 314.640014648
577157.5 4179836 314.480010986
577157.5625 4179835.5 314.600006104
577157.5625 4179835 314.589996338
577157.625 4179834.25 314.670013428
577157.6875 4179833.75 314.820007324
577157.75 4179833.25 314.869995117
577157.75 4179832.5 314.529998779
577157.375 4179831.75 314.630004883
577157.3125 4179832.75 314.609985352
577157.25 4179833.25 314.700012207
577157.25 4179834 314.600006104
577157.1875 4179834.5 314.820007324
577157.125 4179835 314.510009766
577157.125 4179835.75 314.660003662
577157.0625 4179836.25 314.600006104
577157.0625 4179836.75 314.779998779
577157 4179837.25 314.760009766
577156.9375 4179838 314.809997559
577156.9375 4179838.5 314.75
577156.875 4179839 314.75
577156.75 4179840.75 314.820007324
577156.75 4179841.25 314.859985352
577156 4179837.25 314.730010986
577156 4179836.5 314.769989014
577156.0625 4179836 314.799987793
577156.1875 4179834.25 314.790008545
577156.1875 4179833.75 314.649993896
577156.25 4179833 314.820007324
577156.4375 4179830.25 314.769989014
577156.4375 4179829.75 314.790008545
577156.0625 4179829.25 314.760009766
577155.9375 4179831 314.799987793
577155.875 4179831.5 314.720001221
577155.8125 4179832.75 314.779998779
577155.75 4179833.25 314.760009766
577155.75 4179833.75 314.760009766
577155.6875 4179835 314.720001221
577155.625 4179835.5 314.709991455
577155.5625 4179836 314.760009766
577155.5 4179837.75 314.700012207
