# .PCD v.7 - Point Cloud Data file format
VERSION .7
FIELDS x y z
SIZE 4 4 4
TYPE F F F
COUNT 1 1 1
WIDTH 85
HEIGHT 1
VIEWPOINT 0 0 0 1 0 0 0
POINTS 85
DATA ascii
577172.75 4179855.25 324.440002441
577172.8125 4179854.75 324.910003662
577172.8125 4179854.25 324.869995117
577172.875 4179853.5 324.799987793
577172.875 4179853 324.049987793
577172.875 4179852.25 322.519989014
577172.4375 4179851.75 322.579986572
577172.4375 4179852.5 323.820007324
577172.375 4179853.25 324.179992676
577172.375 4179853.75 324.390014648
577172.375 4179854.5 324.940002441
577172.3125 4179855 324.519989014
577172.25 4179855.5 325.420013428
577172.25 4179856.25 326.079986572
577172.1875 4179857.5 326.480010986
577171.1875 4179857.75 326.480010986
577171.25 4179857.25 326.339996338
577171.25 4179856.75 326.380004883
577171.3125 4179856.25 326.859985352
577171.375 4179855.5 327.230010986
577171.4375 4179855 327.609985352
577171.5 4179854.5 327.440002441
577171.4375 4179853.75 326.410003662
577171.5 4179853.25 326.339996338
577171.5 4179852.5 324.940002441
577171.5 4179851.75 324.019989014
577171.0625 4179851.5 324.029998779
577171.0625 4179852.25 325.119995117
577171.0625 4179852.75 326.220001221
577171.0625 4179853.5 326.920013428
577171 4179854 327.079986572
577171 4179854.75 327.369995117
577170.9375 4179855.25 327.420013428
577170.9375 4179855.75 327.510009766
577170.875 4179856.25 327.239990234
577170.75 4179856.75 325.950012207
577170.75 4179857.25 325.730010986
577170.6875 4179858 326.5
577169.75 4179857.5 326.279998779
577169.8125 4179857 326.559997559
577169.875 4179856.5 327.089996338
577169.9375 4179856 328.119995117
577169.9375 4179855.5 327.489990234
577170 4179854.75 327.559997559
577170 4179854.25 327.190002441
577170.0625 4179853.75 327.010009766
577170.0625 4179853 325.700012207
577170.0625 4179852.25 325.450012207
577170.125 4179851.75 325.220001221
577169.5 4179851.25 322.179992676
577169.625 4179852.25 325.589996338
577169.5625 4179852.75 325.429992676
577169.5625 4179853.5 326.390014648
577169.5625 4179854 327.429992676
577169.5 4179854.5 327.079986572
577169.375 4179855.5 325.920013428
577169.375 4179856.5 327.720001221
577168.3125 4179855.75 324.760009766
577168.4375 4179855.25 326.149993896
577168.5 4179854.75 326.109985352
577168.5625 4179854.25 327.160003662
577168.5625 4179853.75 326.760009766
577168.5 4179852.75 324.839996338
577168.5 4179852 323.359985352
577168.5 4179851.5 322.660003662
577168.0625 4179851.75 323.540008545
577168.0625 4179852.25 323.489990234
577168 4179853 323.480010986
577168.0625 4179853.75 325.359985352
577168 4179854.25 325.929992676
577167.9375 4179854.75 325.480010986
577167.9375 4179855.25 325.140014648
577167.8125 4179855.75 324.220001221
577167.75 4179856.25 324.019989014
577166.75 4179857.25 324.209991455
577166.75 4179856.75 324.059997559
577166.8125 4179856.25 324.049987793
577166.875 4179855.75 324.279998779
577166.875 4179855 324.179992676
577166.9375 4179854.5 324.299987793
577166.5 4179855 324.769989014
577166.4375 4179855.5 324.399993896
577166.375 4179856 324.329986572
577166.375 4179856.75 324.480010986
577166.3125 4179857.25 324.649993896
