# .PCD v.7 - Point Cloud Data file format
VERSION .7
FIELDS x y z
SIZE 4 4 4
TYPE F F F
COUNT 1 1 1
WIDTH 1381
HEIGHT 1
VIEWPOINT 0 0 0 1 0 0 0
POINTS 1381
DATA ascii
577128.5 4179872.25 315.079986572
577128.4375 4179873 314.880004883
577128.4375 4179873.5 314.970001221
577128.375 4179874 315.269989014
577128.375 4179874.75 315.850006104
577128.375 4179875.25 315.940002441
577128.3125 4179875.75 315.679992676
577128.25 4179876.5 315.890014648
577128.25 4179877 316.239990234
577128.25 4179877.5 316.25
577127.3125 4179878 316.220001221
577127.375 4179877.25 316.179992676
577127.375 4179876.75 316.010009766
577127.4375 4179876.25 315.799987793
577127.4375 4179875.5 315.75
577127.5 4179875 315.619995117
577127.5 4179874.5 315.420013428
577127.5 4179873.75 315.149993896
577127.5625 4179873.25 315.049987793
577127.5625 4179872.75 314.730010986
577127.625 4179872 314.869995117
577127.625 4179871.5 314.850006104
577127.6875 4179871 314.829986572
577127.75 4179870.5 314.839996338
577127.75 4179869.75 314.700012207
577127.8125 4179869.25 315.100006104
577127.8125 4179868.75 315.380004883
577127.875 4179868.25 315.450012207
577127.9375 4179867.75 315.5
577127.9375 4179867 315.489990234
577128 4179866.5 315.429992676
577128 4179866 315.299987793
577128.0625 4179865.25 315.290008545
577128.0625 4179864.75 315.369995117
577128.125 4179864.25 315.200012207
577128.125 4179863.5 314.899993896
577128.1875 4179863 315.100006104
577128.1875 4179862.5 315.059997559
577128.25 4179861.75 314.980010986
577128.25 4179861.5 315.529998779
577128.375 4179859 315.049987793
577128.4375 4179858.5 315.130004883
577128.4375 4179858 315.130004883
577128.5 4179857.25 315.149993896
577128.5625 4179856.75 315.320007324
577128.5625 4179856.25 315.100006104
577128.625 4179855.75 315.220001221
577128.625 4179855 315.079986572
577128.6875 4179854.5 315.160003662
577128.6875 4179854 315.160003662
577128.75 4179853.25 315.279998779
577128.75 4179852.75 315.279998779
577128.8125 4179852.25 315.5
577128.8125 4179851.75 315.420013428
577128.875 4179851 315.220001221
577128.875 4179850.5 315.239990234
577128.9375 4179850 315.260009766
577129 4179849.25 315.25
577129 4179848.75 315.230010986
577129.0625 4179848.25 315.350006104
577129.0625 4179847.75 315.399993896
577129.125 4179847 315.200012207
577129.125 4179846.5 315.399993896
577129.1875 4179846 315.329986572
577129.1875 4179845.25 315.320007324
577129.25 4179844.75 315.230010986
577129.25 4179844.25 315.269989014
577129.3125 4179843.75 315.410003662
577129.375 4179843 315.459991455
577129.375 4179842.5 315.489990234
577129.4375 4179842 315.299987793
577129.4375 4179841.25 315.299987793
577129.5 4179840.75 315.329986572
577129.5 4179840.25 315.350006104
577129.5625 4179839.75 315.320007324
577129.5625 4179839 315.369995117
577129.625 4179838.5 315.339996338
577129.6875 4179838 315.679992676
577129.6875 4179837.5 315.589996338
577129.6875 4179836.75 315.179992676
577129.75 4179836.25 315.299987793
577129.8125 4179835.75 315.429992676
577130.125 4179830.5 315.980010986
577130.125 4179830 315.609985352
577130.125 4179829.25 315.290008545
577130.1875 4179828.75 315.380004883
577130.25 4179828.25 315.589996338
577130.25 4179827.5 315.410003662
577130.3125 4179827 315.380004883
577130.3125 4179826.5 315.299987793
577130.375 4179826 315.790008545
577130.375 4179825.25 315.529998779
577130.4375 4179824.75 315.160003662
577130.4375 4179824 315.260009766
577130.5 4179823.5 315.369995117
577130.5 4179823 315.190002441
577130.5625 4179822.5 315.329986572
577130.5625 4179821.75 315.140014648
577130.625 4179821.25 315.200012207
577130.625 4179820.5 315.070007324
577130.6875 4179820 315.369995117
577130.75 4179819.5 315.190002441
577130.75 4179819 315.140014648
577130.8125 4179818.25 315.269989014
577130.8125 4179817.75 315.100006104
577130.875 4179817.25 315.079986572
577130.875 4179816.5 314.980010986
577130.9375 4179816 315.100006104
577130.9375 4179815.25 314.950012207
577131 4179814.75 315.130004883
577131 4179814.25 315.179992676
577131.0625 4179813.75 315.049987793
577131.0625 4179813 314.950012207
577131.125 4179812.5 314.989990234
577131.1875 4179812 315.059997559
577131.1875 4179811.25 314.940002441
577131.25 4179810.75 315.119995117
577131.25 4179810.25 314.910003662
577131.3125 4179809.5 314.880004883
577131.3125 4179809 314.869995117
577131.375 4179808.5 315.010009766
577131.375 4179807.75 315.040008545
577131.4375 4179807.25 314.769989014
577131.4375 4179806.75 314.640014648
577131.5 4179806.25 315.049987793
577131.5625 4179805.5 315.25
577131.5625 4179805 315.059997559
577131.625 4179804.25 314.950012207
577131.625 4179803.75 314.829986572
577131.6875 4179803.25 314.850006104
577131.6875 4179802.5 314.570007324
577131.75 4179802 314.839996338
577131.75 4179801.5 314.75
577131.75 4179800.75 314.290008545
577131.8125 4179800.25 314.059997559
577131.4375 4179800.5 313.980010986
577131.4375 4179801 314.190002441
577131.375 4179801.75 314.290008545
577131.375 4179802.25 314.519989014
577131.3125 4179802.75 314.649993896
577131.3125 4179803.5 314.739990234
577131.3125 4179804 315.049987793
577131.25 4179804.5 314.75
577131.25 4179805 314.850006104
577131.1875 4179805.75 314.880004883
577131.125 4179806.25 314.959991455
577131.125 4179806.75 315.029998779
577131.0625 4179807.5 315.019989014
577131.0625 4179808 315.070007324
577131 4179808.5 314.940002441
577131 4179809 315.029998779
577130.9375 4179809.75 315.049987793
577130.9375 4179810.25 314.869995117
577130.875 4179810.75 315.010009766
577130.875 4179811.5 315.109985352
577130.8125 4179812 314.880004883
577130.75 4179812.5 315.119995117
577130.75 4179813 315.130004883
577130.6875 4179813.5 314.959991455
577130.6875 4179814.25 314.989990234
577130.625 4179814.75 315.209991455
577130.625 4179815.25 315.140014648
577130.5625 4179815.75 314.959991455
577130.5625 4179816.5 315.089996338
577130.5 4179817 315.130004883
577130.5 4179817.5 315.130004883
577130.4375 4179818.25 314.980010986
577130.4375 4179818.75 315.290008545
577130.375 4179819.25 315.269989014
577130.3125 4179819.75 315.190002441
577130.3125 4179820.5 315.149993896
577130.25 4179821 315.109985352
577130.25 4179821.5 315.160003662
577130.1875 4179822 315.010009766
577130.1875 4179822.75 315.320007324
577130.125 4179823.25 315.239990234
577130.125 4179823.75 315.209991455
577130.0625 4179824.5 315.070007324
577130 4179825 315.269989014
577130 4179825.5 315.320007324
577129.9375 4179826 315.269989014
577129.9375 4179826.75 315.380004883
577129.875 4179827.25 315.260009766
577129.875 4179827.75 315.309997559
577129.8125 4179828.5 315.399993896
577129.8125 4179829 315.429992676
577129.75 4179829.5 315.540008545
577129.75 4179830.25 315.489990234
577129.6875 4179830.75 315.769989014
577129.4375 4179834.75 315.429992676
577129.4375 4179835.25 315.25
577129.375 4179835.75 315.410003662
577129.375 4179836.25 315.480010986
577129.3125 4179837 315.489990234
577129.25 4179837.5 315.410003662
577129.25 4179838 315.190002441
577129.1875 4179838.5 315.220001221
577129.1875 4179839.25 315.369995117
577129.125 4179839.75 315.260009766
577129.125 4179840.25 315.369995117
577129.0625 4179841 315.350006104
577129 4179841.5 315.279998779
577129 4179842 315.329986572
577129 4179842.5 315.540008545
577128.9375 4179843.25 315.279998779
577128.875 4179843.75 315.239990234
577128.875 4179844.25 315.279998779
577128.8125 4179845 315.420013428
577128.8125 4179845.5 315.380004883
577128.75 4179846 315.239990234
577128.75 4179846.5 315.179992676
577128.6875 4179847.25 315.350006104
577128.6875 4179847.75 315.529998779
577128.625 4179848.25 315.399993896
577128.625 4179849 315.630004883
577128.5625 4179849.5 315.5
577128.5 4179850 315.260009766
577128.5 4179850.5 315.839996338
577128.4375 4179851.25 315.649993896
577128.4375 4179851.75 315.200012207
577128.375 4179852.25 315.260009766
577128.3125 4179852.75 315.260009766
577128.3125 4179853.5 315.450012207
577128.25 4179854 315.200012207
577128.25 4179854.5 315.540008545
577128.25 4179855 315.510009766
577128.1875 4179855.5 315.140014648
577128.125 4179856.25 314.989990234
577128.125 4179856.75 315.160003662
577128.0625 4179857.25 315.239990234
577128.0625 4179858 315.410003662
577128 4179858.5 315.279998779
577127.9375 4179859 315.029998779
577127.8125 4179861.25 315.149993896
577127.8125 4179861.75 315.200012207
577127.75 4179862.5 315.059997559
577127.6875 4179863 315
577127.6875 4179863.5 314.970001221
577127.6875 4179864.25 315.440002441
577127.625 4179864.75 315.570007324
577127.5625 4179865.25 315.309997559
577127.5625 4179865.75 315.190002441
577127.5 4179866.5 315.079986572
577127.5 4179867 315.519989014
577127.4375 4179867.5 315.570007324
577127.4375 4179868.25 315.549987793
577127.375 4179868.75 315.130004883
577127.3125 4179869.25 315.160003662
577127.25 4179869.75 314.700012207
577127.25 4179870.25 314.929992676
577127.25 4179871 314.899993896
577127.1875 4179871.5 314.850006104
577127.1875 4179872 315.070007324
577127.125 4179872.5 314.929992676
577127.0625 4179873.25 314.880004883
577127.0625 4179873.75 315.040008545
577127 4179874.25 315.160003662
577127 4179875 315.339996338
577127 4179875.5 315.799987793
577126.9375 4179876 315.709991455
577126.9375 4179876.75 315.859985352
577126.875 4179877.25 316.140014648
577126.0625 4179877 316.049987793
577126.0625 4179876.5 315.839996338
577126.125 4179876 315.829986572
577126.125 4179875.25 315.5
577126.125 4179874.75 315.429992676
577126.1875 4179874.25 315.149993896
577126.1875 4179873.5 314.890014648
577126.25 4179873 315.070007324
577126.25 4179872.5 314.899993896
577126.3125 4179871.75 314.720001221
577126.3125 4179871.25 314.799987793
577126.375 4179870.75 314.850006104
577126.375 4179870 314.760009766
577126.4375 4179869.5 314.910003662
577126.5 4179869 315.299987793
577126.5 4179868.5 314.899993896
577126.5 4179868 315.029998779
577126.5625 4179867.25 315.119995117
577126.625 4179866.75 315
577126.625 4179866.25 315.149993896
577126.6875 4179865.5 315.079986572
577126.6875 4179865 314.880004883
577126.75 4179864.5 315.239990234
577126.75 4179863.75 314.910003662
577126.8125 4179863.25 315.070007324
577126.8125 4179862.75 314.950012207
577126.875 4179862.25 315.450012207
577126.9375 4179861.75 315.709991455
577127.0625 4179859.25 315.309997559
577127.0625 4179858.75 315.480010986
577127.125 4179858.25 315.640014648
577127.125 4179857.5 315.019989014
577127.1875 4179857 315
577127.1875 4179856.5 314.970001221
577127.25 4179856 315.279998779
577127.25 4179855.25 315.269989014
577127.3125 4179854.75 315.170013428
577127.3125 4179854.25 315.119995117
577127.375 4179853.5 315.109985352
577127.375 4179853 315.149993896
577127.4375 4179852.5 315.320007324
577127.5 4179852 315.130004883
577127.5 4179851.25 314.890014648
577127.625 4179849 315.220001221
577127.6875 4179848.5 315.279998779
577127.6875 4179848 315.329986572
577127.75 4179847.25 315.190002441
577127.75 4179846.75 315.109985352
577127.8125 4179846.25 315.309997559
577127.875 4179845.75 315.399993896
577127.875 4179845 315.160003662
577127.9375 4179844.5 315.309997559
577127.9375 4179844 315.359985352
577128 4179843.5 315.549987793
577128 4179842.75 315.75
577128.0625 4179842.25 315.619995117
577128.0625 4179841.5 315.130004883
577128.125 4179841 315.440002441
577128.125 4179840.5 315.260009766
577128.1875 4179840 315.420013428
577128.1875 4179839.25 315.290008545
577128.25 4179838.75 315.480010986
577128.25 4179838.25 315.299987793
577128.3125 4179837.5 315.239990234
577128.3125 4179837 315.299987793
577128.375 4179836.5 315.25
577128.4375 4179836 315.220001221
577128.4375 4179835.25 315.369995117
577128.5 4179834.75 315.200012207
577128.5 4179834.25 315.329986572
577128.5625 4179833.5 315.149993896
577128.5625 4179833 315.339996338
577128.625 4179832.5 315.309997559
577128.6875 4179831.25 315.320007324
577128.75 4179830.75 315.420013428
577128.75 4179830.25 315.269989014
577128.75 4179829.5 315.309997559
577128.8125 4179829 315.160003662
577128.875 4179828.5 315.320007324
577128.875 4179827.75 315.420013428
577128.9375 4179827.25 315.329986572
577128.9375 4179826.75 315.380004883
577129 4179826 315.279998779
577129 4179825.5 315.540008545
577129.0625 4179825 315.390014648
577129.0625 4179824.5 315.369995117
577129.125 4179823.75 315.239990234
577129.125 4179823.25 315.279998779
577129.1875 4179822.75 315.339996338
577129.1875 4179822 315.100006104
577129.25 4179821.5 315.170013428
577129.25 4179821 315.100006104
577129.3125 4179820.25 315.239990234
577129.375 4179819.75 315.410003662
577129.375 4179819.25 315.089996338
577129.4375 4179818.5 315.220001221
577129.4375 4179818 315.239990234
577129.5 4179817.5 315.140014648
577129.5 4179817 315.329986572
577129.5 4179816.25 314.869995117
577129.5625 4179815.75 315.089996338
577129.625 4179815 314.929992676
577129.625 4179814.5 315.309997559
577129.6875 4179814 315.049987793
577129.6875 4179813.25 314.890014648
577129.75 4179812.75 314.970001221
577129.75 4179812.25 314.940002441
577129.8125 4179811.5 314.940002441
577129.8125 4179811 314.940002441
577129.875 4179810.5 314.839996338
577129.9375 4179809.75 314.899993896
577129.9375 4179809.25 315.339996338
577130 4179808.75 315.5
577130 4179808.25 315.410003662
577130.0625 4179807.75 315.420013428
577130.125 4179807 315.410003662
577130.125 4179806.5 315.149993896
577130.125 4179805.75 314.920013428
577130.1875 4179805.25 314.940002441
577130.1875 4179804.5 314.579986572
577130.25 4179804 314.809997559
577130.25 4179803.5 314.839996338
577130.3125 4179802.75 314.790008545
577130.3125 4179802.25 314.640014648
577130.375 4179801.75 314.609985352
577130.375 4179801 314.489990234
577130.4375 4179800.5 314.070007324
577130.125 4179800 314.059997559
577130.0625 4179801.25 314.260009766
577130 4179801.75 314.470001221
577130 4179802.25 314.380004883
577129.9375 4179803 314.589996338
577129.9375 4179803.5 314.549987793
577129.875 4179804 314.540008545
577129.875 4179804.75 315.170013428
577129.875 4179805.25 315.480010986
577129.8125 4179806 315.380004883
577129.75 4179806.5 315.529998779
577129.75 4179807 315.390014648
577129.6875 4179807.5 314.869995117
577129.6875 4179808 314.869995117
577129.625 4179808.75 314.980010986
577129.5625 4179809.25 314.859985352
577129.5625 4179809.75 314.920013428
577129.5 4179810.25 314.910003662
577129.5 4179811 314.910003662
577129.4375 4179811.5 314.929992676
577129.4375 4179812 314.899993896
577129.375 4179812.75 315.179992676
577129.375 4179813.25 315.440002441
577129.3125 4179813.75 314.959991455
577129.3125 4179814.25 315.130004883
577129.25 4179815 315.100006104
577129.25 4179815.5 315.029998779
577129.1875 4179816 315.070007324
577129.1875 4179816.5 315.220001221
577129.125 4179817.25 315.029998779
577129.125 4179817.75 315.649993896
577129.0625 4179818.25 315.480010986
577129.0625 4179819 315.600006104
577129 4179819.5 315.010009766
577128.9375 4179820 315.049987793
577128.9375 4179820.5 315.140014648
577128.875 4179821.25 315.209991455
577128.8125 4179821.75 315.010009766
577128.8125 4179822.25 315.040008545
577128.75 4179822.75 315.25
577128.75 4179823.5 315.170013428
577128.6875 4179824 315.109985352
577128.6875 4179824.5 315.290008545
577128.625 4179825 315.200012207
577128.625 4179825.75 315.450012207
577128.5625 4179826.25 315.470001221
577128.5625 4179826.75 315.290008545
577128.5 4179827.5 315.660003662
577128.5 4179828 315.529998779
577128.4375 4179828.5 315.220001221
577128.4375 4179829 315.25
577128.375 4179829.75 315.339996338
577128.3125 4179830.25 315.359985352
577128.3125 4179830.75 315.359985352
577128.25 4179831.25 315.350006104
577128.25 4179832 315.540008545
577128.1875 4179832.5 315.260009766
577128.1875 4179833 315.320007324
577128.125 4179833.75 315.429992676
577128.125 4179834.25 315.339996338
577128.0625 4179834.75 315.200012207
577128.0625 4179835.25 315.390014648
577128 4179835.75 315.179992676
577128 4179836.5 315.320007324
577127.9375 4179837 315.440002441
577127.875 4179837.5 315.239990234
577127.875 4179838.25 315.130004883
577127.8125 4179838.75 315.170013428
577127.8125 4179839.25 315.179992676
577127.75 4179839.75 315.260009766
577127.75 4179840.5 315.339996338
577127.6875 4179841 315.75
577127.6875 4179841.5 315.660003662
577127.625 4179842.25 315.529998779
577127.5625 4179842.75 315.209991455
577127.5625 4179843.25 315.380004883
577127.5 4179843.75 315.420013428
577127.5 4179844.5 315.220001221
577127.4375 4179845 315.220001221
577127.4375 4179845.75 315.899993896
577127.375 4179846.25 315.679992676
577127.375 4179846.75 315.75
577127.3125 4179847.25 315.390014648
577127.25 4179847.75 315.149993896
577127.25 4179848.25 315.179992676
577127.1875 4179849 315.220001221
577127.1875 4179849.5 315
577127.0625 4179851.75 315.359985352
577127 4179852.25 315.260009766
577126.9375 4179852.75 314.920013428
577126.9375 4179853.5 315.160003662
577126.875 4179854 315.100006104
577126.875 4179854.5 315.25
577126.8125 4179855.25 315.320007324
577126.8125 4179855.75 315.950012207
577126.75 4179856.25 314.839996338
577126.75 4179856.75 315.040008545
577126.6875 4179857.5 315.049987793
577126.625 4179858 315.100006104
577126.625 4179858.5 315.220001221
577126.5625 4179859.25 315.010009766
577126.5625 4179859.75 315.239990234
577126.4375 4179861.5 315.220001221
577126.4375 4179862 315.170013428
577126.375 4179862.5 314.940002441
577126.375 4179863 315.179992676
577126.3125 4179863.75 315.079986572
577126.25 4179864.25 314.970001221
577126.25 4179864.75 314.910003662
577126.1875 4179865.5 315.079986572
577126.1875 4179866 314.980010986
577126.125 4179866.5 314.880004883
577126.125 4179867 314.950012207
577126.0625 4179867.75 315.130004883
577126 4179868.25 314.899993896
577126 4179868.75 314.799987793
577125.9375 4179869.25 314.959991455
577125.9375 4179870 314.779998779
577125.875 4179870.5 314.859985352
577125.875 4179871 314.709991455
577125.8125 4179871.5 314.820007324
577125.8125 4179872.25 314.929992676
577125.75 4179872.75 315
577125.75 4179873.25 314.850006104
577125.6875 4179874 315.059997559
577125.6875 4179874.5 315.160003662
577125.625 4179875 315.399993896
577125.625 4179875.75 315.630004883
577125.5625 4179876.25 315.730010986
577125.5625 4179876.75 315.929992676
577125.5 4179877.5 315.980010986
577125.5 4179878 316.200012207
577124.6875 4179877.5 316.109985352
577124.6875 4179877 315.709991455
577124.75 4179876.5 316
577124.75 4179875.75 315.609985352
577124.75 4179875.25 315.269989014
577124.75 4179874.5 315.049987793
577124.8125 4179874 315.109985352
577124.8125 4179873.5 315.029998779
577124.875 4179873 314.929992676
577124.875 4179872.25 314.739990234
577124.9375 4179871.75 314.730010986
577125 4179871.25 314.839996338
577125 4179870.75 315.010009766
577125 4179870 314.820007324
577125.0625 4179869.5 314.989990234
577125.125 4179869 314.940002441
577125.125 4179868.5 314.829986572
577125.1875 4179867.75 315.109985352
577125.1875 4179867.25 315.029998779
577125.25 4179866.75 315.179992676
577125.25 4179866.25 315.109985352
577125.3125 4179865.5 315.100006104
577125.3125 4179865 314.940002441
577125.375 4179864.5 315.109985352
577125.4375 4179863.75 315.109985352
577125.4375 4179863.25 315.140014648
577125.5 4179862.75 315.149993896
577125.5 4179862.25 315.130004883
577125.5625 4179861.75 315.329986572
577125.5625 4179861 315.179992676
577125.625 4179860.5 315.140014648
577125.625 4179860 314.910003662
577125.6875 4179859.25 314.910003662
577125.6875 4179858.75 315.019989014
577125.75 4179858.25 315.160003662
577125.75 4179857.75 315.040008545
577125.8125 4179857 315.119995117
577125.8125 4179856.5 315.269989014
577125.875 4179856 315.109985352
577125.875 4179855.25 315.089996338
577125.9375 4179854.75 315.299987793
577126 4179854.25 315.130004883
577126 4179853.75 315.130004883
577126 4179853 315.059997559
577126.0625 4179852.5 315.059997559
577126.125 4179852 315.239990234
577126.25 4179849.75 315.369995117
577126.25 4179849 315.230010986
577126.3125 4179848.5 315.160003662
577126.3125 4179848 315.309997559
577126.375 4179847.5 315.049987793
577126.375 4179846.75 315.179992676
577126.5625 4179844.5 315.339996338
577126.5625 4179844 315.140014648
577126.625 4179843.5 315.190002441
577126.625 4179842.75 315.119995117
577126.6875 4179842.25 315.489990234
577126.6875 4179841.75 315.220001221
577126.75 4179841.25 315.269989014
577126.75 4179840.5 315.399993896
577126.8125 4179840 315.390014648
577126.8125 4179839.5 315.320007324
577126.875 4179838.75 315.109985352
577126.9375 4179838.25 315.350006104
577126.9375 4179837.75 315.390014648
577127 4179837 315.279998779
577127 4179836.5 315.010009766
577127.0625 4179836 315.609985352
577127.0625 4179835.5 315.700012207
577127.125 4179835 315.760009766
577127.125 4179834.25 315.459991455
577127.1875 4179833.75 315.410003662
577127.1875 4179833.25 315.390014648
577127.25 4179832.5 315.269989014
577127.25 4179832 315.239990234
577127.3125 4179831.5 315.320007324
577127.3125 4179831 315.529998779
577127.375 4179830.25 315.239990234
577127.4375 4179829.75 315.470001221
577127.4375 4179829.25 315.339996338
577127.4375 4179828.5 315.130004883
577127.5 4179828 315.290008545
577127.5625 4179827.5 315.339996338
577127.5625 4179826.75 315.359985352
577127.625 4179826.25 315.440002441
577127.625 4179825.75 315.309997559
577127.6875 4179825 315.390014648
577127.6875 4179824.5 315.350006104
577127.75 4179823.25 315.130004883
577127.8125 4179822.75 315.290008545
577127.8125 4179822.25 315.279998779
577127.875 4179821.5 315.239990234
577127.875 4179821 315.179992676
577127.9375 4179820.5 315.359985352
577128 4179820 315.299987793
577128 4179819.25 315.089996338
577128 4179818.75 315.109985352
577128.0625 4179818.25 315.339996338
577128.125 4179817.5 315.140014648
577128.125 4179817 315.149993896
577128.1875 4179816.5 315.239990234
577128.1875 4179816 315.339996338
577128.25 4179815.25 315.130004883
577128.25 4179814.75 315.019989014
577128.3125 4179814 315.049987793
577128.3125 4179813.5 314.970001221
577128.375 4179813 315.160003662
577128.375 4179812.25 314.970001221
577128.4375 4179811.75 314.970001221
577128.5 4179811.25 315.140014648
577128.5 4179810.75 314.950012207
577128.5 4179810 314.970001221
577128.5625 4179809.5 315.190002441
577128.625 4179809 315.149993896
577128.625 4179808.25 315.230010986
577128.6875 4179807.75 315.100006104
577128.6875 4179807 314.820007324
577128.75 4179806.5 315.040008545
577128.75 4179806 314.940002441
577128.8125 4179805.5 314.829986572
577128.8125 4179804.75 314.910003662
577128.875 4179804.25 314.869995117
577128.875 4179803.5 314.660003662
577128.9375 4179803 314.959991455
577128.9375 4179802.5 314.929992676
577129 4179801.75 314.429992676
577129 4179801.25 314.079986572
577129.0625 4179800.75 314.369995117
577129.0625 4179800 314.160003662
577128.6875 4179800.75 313.890014648
577128.6875 4179801.25 314.149993896
577128.625 4179801.75 314.260009766
577128.625 4179802.5 314.440002441
577128.5625 4179803 314.790008545
577128.5625 4179803.75 314.859985352
577128.5 4179804.25 314.950012207
577128.5 4179804.75 314.709991455
577128.4375 4179805.25 314.839996338
577128.4375 4179806 315.109985352
577128.375 4179806.5 315.220001221
577128.375 4179807 315.119995117
577128.3125 4179807.5 314.920013428
577128.3125 4179808.25 314.980010986
577128.25 4179808.75 314.779998779
577128.25 4179809.25 314.839996338
577128.1875 4179809.75 314.779998779
577128.1875 4179810.5 315.059997559
577128.125 4179811 315.059997559
577128.0625 4179811.5 314.929992676
577128.0625 4179812.25 315
577128 4179812.75 315.059997559
577128 4179813.25 314.910003662
577127.9375 4179813.75 315.190002441
577127.9375 4179814.5 315.269989014
577127.875 4179815 315.279998779
577127.875 4179815.5 315.029998779
577127.8125 4179816 315.119995117
577127.8125 4179816.75 315.100006104
577127.75 4179817.25 315.029998779
577127.75 4179817.75 315.029998779
577127.6875 4179818.5 315.239990234
577127.625 4179819 315.010009766
577127.625 4179819.5 315.100006104
577127.5625 4179820 315.130004883
577127.5625 4179820.75 315.109985352
577127.5 4179821.25 315.200012207
577127.5 4179821.75 315.489990234
577127.4375 4179822.25 315.089996338
577127.375 4179824.25 316.140014648
577127.3125 4179824.75 315.660003662
577127.25 4179825.25 315.220001221
577127.25 4179825.75 315.220001221
577127.25 4179826.25 315.309997559
577127.1875 4179827 315.260009766
577127.125 4179827.5 315.239990234
577127.125 4179828 315.269989014
577127.0625 4179828.5 315.260009766
577127.0625 4179829.25 315.440002441
577127 4179829.75 315.429992676
577127 4179830.25 315.290008545
577126.9375 4179830.75 315.390014648
577126.9375 4179831.5 315.679992676
577126.875 4179832 315.649993896
577126.875 4179832.75 315.880004883
577126.8125 4179833.25 315.700012207
577126.8125 4179833.75 315.720001221
577126.75 4179834.25 315.269989014
577126.6875 4179834.75 315.200012207
577126.6875 4179835.5 315.309997559
577126.625 4179836 315.269989014
577126.625 4179836.5 315.239990234
577126.5625 4179837.25 315.570007324
577126.5625 4179837.75 315.429992676
577126.5 4179838.25 315.220001221
577126.5 4179838.75 315.269989014
577126.4375 4179839.25 315.239990234
577126.375 4179840 315.329986572
577126.375 4179840.5 315.179992676
577126.3125 4179841 315.450012207
577126.3125 4179841.75 315.260009766
577126.25 4179842.25 315.429992676
577126.25 4179842.75 315.440002441
577126.1875 4179843.25 315.320007324
577126.125 4179844 315.040008545
577126.125 4179844.5 315.260009766
577126.125 4179845.25 316.040008545
577126 4179846.75 315.230010986
577125.9375 4179847.25 315.25
577125.9375 4179848 315.239990234
577125.875 4179848.5 315.429992676
577125.8125 4179849 315.119995117
577125.8125 4179849.5 315.049987793
577125.6875 4179851.75 315.179992676
577125.625 4179852.5 315.049987793
577125.625 4179853 315.220001221
577125.5625 4179853.5 315.059997559
577125.5 4179854 314.970001221
577125.5 4179855.25 315.059997559
577125.4375 4179855.75 315.089996338
577125.4375 4179856.5 315.339996338
577125.375 4179857 315.130004883
577125.3125 4179857.5 315.089996338
577125.3125 4179858 315.170013428
577125.25 4179858.75 315
577125.25 4179859.25 314.989990234
577125.1875 4179859.75 315.309997559
577125.1875 4179860.5 315.299987793
577125.125 4179861 315.070007324
577125.0625 4179861.5 315.149993896
577125.0625 4179862 314.959991455
577125 4179862.75 315.059997559
577125 4179863.25 314.970001221
577124.9375 4179863.75 315.010009766
577124.9375 4179864.25 315
577124.875 4179865 315.029998779
577124.875 4179865.5 315.380004883
577124.8125 4179866 315.089996338
577124.8125 4179866.5 315.200012207
577124.75 4179867.25 315.100006104
577124.6875 4179867.75 314.980010986
577124.6875 4179868.25 314.940002441
577124.625 4179868.75 314.940002441
577124.625 4179869.5 315.510009766
577124.5625 4179870 315.279998779
577124.5625 4179870.5 315.220001221
577124.5 4179871 314.820007324
577124.4375 4179871.75 314.600006104
577124.4375 4179872.25 314.739990234
577124.4375 4179872.75 315.010009766
577124.375 4179873.5 315.049987793
577124.3125 4179874 314.859985352
577124.3125 4179874.5 315.149993896
577124.25 4179875 315.179992676
577124.25 4179875.75 315.890014648
577124.25 4179876.25 315.910003662
577124.1875 4179876.75 315.720001221
577124.1875 4179877.5 315.929992676
577124.125 4179878 316.100006104
577123.3125 4179877.5 315.989990234
577123.3125 4179877 315.959991455
577123.375 4179876.25 315.630004883
577123.375 4179875.75 315.359985352
577123.375 4179875 315.119995117
577123.4375 4179874.5 315.029998779
577123.4375 4179874 314.829986572
577123.5 4179873.5 314.790008545
577123.5 4179872.75 314.869995117
577123.5625 4179872.25 314.850006104
577123.5625 4179871.75 314.869995117
577123.625 4179871.25 314.799987793
577123.625 4179870.5 314.700012207
577123.6875 4179870 314.679992676
577123.6875 4179869.5 314.850006104
577123.75 4179868.75 314.760009766
577123.75 4179868.25 314.809997559
577123.8125 4179867.75 315.269989014
577123.875 4179867.25 315.059997559
577123.875 4179866.75 315.049987793
577123.9375 4179866 314.880004883
577123.9375 4179865.5 314.980010986
577124 4179865 315.040008545
577124 4179864.25 314.940002441
577124.0625 4179863.75 315
577124.0625 4179863.25 315.010009766
577124.125 4179862.75 315.019989014
577124.125 4179862 314.890014648
577124.1875 4179861.5 315.010009766
577124.1875 4179861 315.040008545
577124.25 4179860.5 314.880004883
577124.25 4179859.75 315.119995117
577124.3125 4179859.25 315.25
577124.3125 4179858.75 314.950012207
577124.375 4179858.25 314.959991455
577124.4375 4179857.5 315.049987793
577124.4375 4179857 315.040008545
577124.5 4179856.5 315.100006104
577124.5 4179855.75 315
577124.5 4179855.25 314.910003662
577124.5625 4179854.75 315.019989014
577124.625 4179854.25 314.910003662
577124.625 4179853.75 315.260009766
577124.6875 4179853 315.329986572
577124.6875 4179852.5 315.200012207
577124.75 4179852 315.230010986
577124.875 4179849.5 314.910003662
577124.9375 4179849 315.209991455
577124.9375 4179848.5 315.420013428
577125 4179848 315.260009766
577125 4179847.25 314.940002441
577125 4179846.75 314.940002441
577125.1875 4179844.5 315.200012207
577125.1875 4179844 315.339996338
577125.25 4179843.5 315.329986572
577125.25 4179842.75 315.279998779
577125.3125 4179842.25 315.220001221
577125.3125 4179841.75 315.059997559
577125.375 4179841 315.179992676
577125.375 4179840.5 315.170013428
577125.4375 4179840 315.5
577125.5 4179839.5 315.510009766
577125.5 4179838.75 315.170013428
577125.5 4179838.25 315.209991455
577125.5625 4179837.75 315.140014648
577125.625 4179837 315.160003662
577125.625 4179836.5 315.179992676
577125.6875 4179836 315.140014648
577125.6875 4179835.5 315.260009766
577125.75 4179834.75 315.089996338
577125.75 4179834.25 315.200012207
577125.8125 4179833.75 315.209991455
577125.8125 4179833 315.290008545
577125.9375 4179832 315.399993896
577125.9375 4179831.5 315.440002441
577126 4179830.75 315.279998779
577126 4179830.25 315.25
577126.0625 4179829.75 315.390014648
577126.0625 4179829 315.269989014
577126.125 4179828.5 315.309997559
577126.125 4179828 315.119995117
577126.1875 4179827.5 315.390014648
577126.1875 4179826.75 315.420013428
577126.25 4179826.25 315.429992676
577126.25 4179825.75 315.279998779
577126.3125 4179825 315.149993896
577126.375 4179824.75 316.100006104
577126.625 4179820 315.640014648
577126.625 4179819.25 315.279998779
577126.6875 4179818.75 315.429992676
577126.6875 4179818.25 314.970001221
577126.75 4179817.5 315.299987793
577126.75 4179817 315.059997559
577126.8125 4179816.5 315.119995117
577126.8125 4179815.75 315.209991455
577126.875 4179815.25 315.109985352
577126.875 4179814.75 315.089996338
577126.9375 4179814 315.119995117
577126.9375 4179813.5 315.079986572
577127 4179813 315.140014648
577127 4179812.25 315.010009766
577127.0625 4179811.75 315.220001221
577127.125 4179811.25 315.529998779
577127.125 4179810.75 315.079986572
577127.125 4179810 314.899993896
577127.1875 4179809.5 314.929992676
577127.25 4179809 315.029998779
577127.25 4179808.5 315.140014648
577127.3125 4179807.75 315.100006104
577127.3125 4179807.25 315.079986572
577127.375 4179806.5 314.950012207
577127.375 4179806 314.970001221
577127.4375 4179805.5 315
577127.4375 4179804.75 314.769989014
577127.5 4179804.25 314.660003662
577127.5 4179803.5 314.640014648
577127.5625 4179803 314.570007324
577127.5625 4179802.5 314.390014648
577127.625 4179801.75 314.570007324
577127.625 4179801.25 313.899993896
577127.625 4179800.5 313.920013428
577127.3125 4179801 313.820007324
577127.25 4179801.75 314.019989014
577127.25 4179802.25 314.320007324
577127.25 4179803 314.640014648
577127.1875 4179803.5 314.829986572
577127.1875 4179804 314.799987793
577127.125 4179804.5 314.640014648
577127.125 4179805.25 314.890014648
577127.0625 4179805.75 314.779998779
577127.0625 4179806.25 314.910003662
577127 4179807 314.760009766
577127 4179807.5 314.929992676
577126.9375 4179808 314.890014648
577126.875 4179808.75 315
577126.875 4179809.25 315.160003662
577126.8125 4179809.75 315.029998779
577126.8125 4179810.25 314.970001221
577126.75 4179811 314.950012207
577126.75 4179811.5 314.880004883
577126.6875 4179812 314.929992676
577126.6875 4179812.5 314.950012207
577126.625 4179813.25 315.049987793
577126.625 4179813.75 315.470001221
577126.5625 4179814.25 315.359985352
577126.5625 4179815 315.429992676
577126.5 4179815.5 315.399993896
577126.5 4179816 315.619995117
577126.4375 4179816.75 315.510009766
577126.375 4179817 315.100006104
577126.375 4179817.75 315.079986572
577126.3125 4179818.25 315.190002441
577126.3125 4179818.75 315.040008545
577126.25 4179819.25 314.899993896
577126.25 4179820 315.209991455
577125.9375 4179824.5 315.040008545
577125.9375 4179825 315.369995117
577125.875 4179825.75 315.290008545
577125.875 4179826.25 315.470001221
577125.8125 4179826.75 315.450012207
577125.8125 4179827.5 315.470001221
577125.75 4179828 315.309997559
577125.75 4179828.5 315.200012207
577125.6875 4179829 315.350006104
577125.6875 4179829.75 315.369995117
577125.625 4179830.25 315.329986572
577125.5625 4179830.75 315.25
577125.5625 4179831.25 315.040008545
577125.5 4179832 315.299987793
577125.5 4179832.5 315.329986572
577125.4375 4179833 315.25
577125.4375 4179833.5 315.25
577125.375 4179834.25 315.239990234
577125.375 4179834.75 315.209991455
577125.3125 4179835.25 315.079986572
577125.3125 4179835.75 315.190002441
577125.25 4179836.5 315.089996338
577125.25 4179837 315.230010986
577125.1875 4179837.5 315.149993896
577125.1875 4179838.25 315.410003662
577125.125 4179838.75 315.390014648
577125.0625 4179839.25 314.920013428
577125.0625 4179839.75 315.329986572
577125 4179840.5 315.279998779
577125 4179841 315.649993896
577124.9375 4179841.5 315.429992676
577124.9375 4179842.25 315.429992676
577124.875 4179842.75 315.010009766
577124.875 4179843.25 315.350006104
577124.8125 4179843.75 315.230010986
577124.75 4179844.5 315.25
577124.75 4179845 315.579986572
577124.5625 4179847.25 314.869995117
577124.5625 4179847.75 315.350006104
577124.5625 4179848.25 315.290008545
577124.5 4179848.75 314.890014648
577124.4375 4179849.5 315.070007324
577124.4375 4179850 314.920013428
577124.3125 4179852.25 315.209991455
577124.25 4179852.75 314.970001221
577124.25 4179853.5 314.929992676
577124.1875 4179854 315.429992676
577124.1875 4179854.5 315.410003662
577124.125 4179855.25 315.100006104
577124.0625 4179855.75 315.109985352
577124.0625 4179856.25 315.260009766
577124 4179856.75 315.160003662
577124 4179857.5 315.130004883
577123.9375 4179858 315.019989014
577123.9375 4179858.5 315.070007324
577123.875 4179859 314.989990234
577123.8125 4179859.75 314.880004883
577123.8125 4179860.25 314.820007324
577123.75 4179860.75 314.929992676
577123.75 4179861.5 314.970001221
577123.75 4179862 315.109985352
577123.6875 4179862.5 315.019989014
577123.625 4179863 315.149993896
577123.625 4179863.75 314.929992676
577123.5625 4179864.25 315.410003662
577123.5625 4179864.75 315.369995117
577123.5 4179865.5 315.260009766
577123.5 4179866 315.399993896
577123.4375 4179866.5 315.489990234
577123.4375 4179867 315
577123.375 4179867.5 314.799987793
577123.3125 4179868.25 314.920013428
577123.3125 4179868.75 315.010009766
577123.25 4179869.25 314.709991455
577123.25 4179870 315.260009766
577123.1875 4179870.5 314.920013428
577123.1875 4179871 314.700012207
577123.125 4179871.5 314.880004883
577123.0625 4179872.25 314.760009766
577123.0625 4179872.75 314.720001221
577123 4179873.25 314.839996338
577123 4179873.75 314.779998779
577123 4179874.5 315.359985352
577122.9375 4179875 315.119995117
577122.875 4179875.5 315.160003662
577122.875 4179876.25 315.589996338
577122.875 4179876.75 315.609985352
577122.8125 4179877.25 315.929992676
577121.9375 4179877.5 315.899993896
577122 4179877 315.779998779
577122 4179876.25 315.600006104
577122 4179875.75 315.309997559
577122.0625 4179875.25 315.309997559
577122.0625 4179874.5 314.970001221
577122.125 4179874 314.890014648
577122.125 4179873.25 314.769989014
577122.1875 4179872.75 314.720001221
577122.1875 4179872.25 314.760009766
577122.25 4179871.75 314.660003662
577122.25 4179871 314.660003662
577122.3125 4179870.5 314.690002441
577122.375 4179870 315.230010986
577122.375 4179869.5 314.880004883
577122.4375 4179868.75 315.200012207
577122.4375 4179868.25 315.329986572
577122.5 4179867.75 315.290008545
577122.5 4179867.25 314.940002441
577122.5625 4179866.5 315.059997559
577122.5625 4179866 314.950012207
577122.625 4179865.5 314.980010986
577122.625 4179865 315.320007324
577122.6875 4179864.25 315.059997559
577122.6875 4179863.75 315.220001221
577122.75 4179863.25 314.880004883
577122.75 4179862.5 315.149993896
577122.8125 4179862 315.089996338
577122.8125 4179861.5 314.950012207
577122.875 4179861 315.399993896
577122.875 4179860.25 315.049987793
577122.9375 4179859.75 314.970001221
577123 4179859.25 315.079986572
577123 4179858.5 314.839996338
577123 4179858 315.059997559
577123.0625 4179857.5 314.970001221
577123.125 4179857 315.170013428
577123.125 4179856.25 315.269989014
577123.1875 4179855.75 315.070007324
577123.1875 4179855.25 315.260009766
577123.25 4179854.5 315.089996338
577123.25 4179854 315.350006104
577123.3125 4179853.5 315.519989014
577123.3125 4179853 314.880004883
577123.375 4179852.25 315.070007324
577123.5 4179850 315.390014648
577123.5625 4179849.5 315.630004883
577123.5625 4179849 315.720001221
577123.625 4179848.25 315.309997559
577123.625 4179847.75 315.470001221
577123.6875 4179847.25 315.420013428
577123.8125 4179845 315.429992676
577123.8125 4179844.25 314.980010986
577123.875 4179843.75 315.200012207
577123.875 4179843.25 315.149993896
577123.9375 4179842.75 315.269989014
577123.9375 4179842 315.309997559
577124 4179841.5 315.119995117
577124 4179841 315.079986572
577124.0625 4179840.25 315.299987793
577124.0625 4179839.75 315.170013428
577124.125 4179839.25 315.269989014
577124.125 4179838.5 315.160003662
577124.1875 4179838 315.109985352
577124.1875 4179837.5 315.010009766
577124.25 4179837 314.950012207
577124.25 4179836.25 314.989990234
577124.3125 4179835.75 315.079986572
577124.375 4179835.25 315.279998779
577124.375 4179834.75 315.279998779
577124.4375 4179834 315.170013428
577124.4375 4179833.5 315.160003662
577124.5 4179833 315.029998779
577124.5 4179832.25 315.279998779
577124.5625 4179831.75 315.239990234
577124.625 4179831.25 315.549987793
577124.625 4179830.75 315.690002441
577124.6875 4179830.25 315.739990234
577124.6875 4179829.5 315.649993896
577124.75 4179829 315.570007324
577124.75 4179828.5 315.450012207
577124.8125 4179827.75 315.309997559
577124.8125 4179827.25 315.269989014
577124.875 4179826.75 315.299987793
577124.875 4179826 315.160003662
577124.9375 4179825.5 315.290008545
577124.9375 4179825 315.380004883
577125 4179823.75 315.239990234
577125.0625 4179823.25 315.279998779
577125.0625 4179822.5 315.079986572
577125.125 4179822 315.230010986
577125.125 4179821.5 315.149993896
577125.1875 4179820.75 315.170013428
577125.1875 4179820.25 315.220001221
577125.25 4179819.75 315.329986572
577125.25 4179819.25 315.010009766
577125.3125 4179818.5 314.989990234
577125.3125 4179818 315.220001221
577125.375 4179817.5 315.100006104
577125.4375 4179816.75 315.239990234
577125.4375 4179816.25 314.980010986
577125.5 4179815.75 315.239990234
577125.5 4179815 315.040008545
577125.5625 4179814.5 315.149993896
577125.5625 4179814 315.200012207
577125.625 4179813.5 315.049987793
577125.625 4179812.75 315.190002441
577125.6875 4179812.25 315.450012207
577125.6875 4179811.75 314.899993896
577125.75 4179811 314.970001221
577125.75 4179810.5 314.869995117
577125.8125 4179810 314.880004883
577125.8125 4179809.25 314.989990234
577125.875 4179808.75 315.029998779
577125.875 4179808.25 314.989990234
577125.9375 4179807.5 314.859985352
577125.9375 4179807 314.980010986
577126 4179806.5 315.010009766
577126 4179805.75 314.760009766
577126.0625 4179805.25 314.950012207
577126.0625 4179804.75 314.910003662
577126.125 4179804 314.679992676
577126.125 4179803.5 314.600006104
577126.1875 4179803 314.410003662
577126.1875 4179802.25 314.200012207
577126.1875 4179801.75 313.839996338
577126.25 4179801 313.880004883
577125.9375 4179801.25 313.829986572
577125.875 4179801.75 313.959991455
577125.875 4179802.5 314.179992676
577125.875 4179803 314.529998779
577125.8125 4179803.5 314.600006104
577125.8125 4179804.25 314.880004883
577125.75 4179804.75 314.989990234
577125.75 4179805.25 315.059997559
577125.6875 4179806 314.989990234
577125.6875 4179806.5 314.920013428
577125.625 4179807 315.010009766
577125.625 4179807.5 315.029998779
577125.5625 4179808.25 315.079986572
577125.5625 4179808.75 315.350006104
577125.5 4179809.25 315.369995117
577125.5 4179809.75 315.070007324
577125.4375 4179810.5 315.040008545
577125.4375 4179811 315.029998779
577125.375 4179811.5 314.839996338
577125.3125 4179812.25 315.140014648
577125.3125 4179812.75 315.109985352
577125.25 4179813.25 314.970001221
577125.25 4179813.75 315.010009766
577125.25 4179814.5 315.489990234
577125.1875 4179815 315.269989014
577125.1875 4179815.5 315.450012207
577125.125 4179816.25 315.529998779
577125.0625 4179816.75 315.589996338
577125.0625 4179817.25 315.559997559
577125 4179817.75 315.549987793
577125 4179818.5 315.649993896
577124.9375 4179819 314.970001221
577124.9375 4179819.5 315.160003662
577124.875 4179820 315.230010986
577124.8125 4179820.5 315.089996338
577124.8125 4179821.25 315.320007324
577124.75 4179821.75 315.089996338
577124.75 4179822.25 315.100006104
577124.75 4179823 315.609985352
577124.5625 4179825.25 315.579986572
577124.5625 4179825.75 315.600006104
577124.5 4179826.25 315.570007324
577124.5 4179827 315.529998779
577124.4375 4179827.5 315.540008545
577124.375 4179828 315.070007324
577124.375 4179828.5 315.109985352
577124.3125 4179829.25 315.279998779
577124.3125 4179829.75 315.200012207
577124.25 4179830.25 315.380004883
577124.25 4179830.75 315.109985352
577124.1875 4179831.5 315.410003662
577124.1875 4179832 315.25
577124.125 4179832.5 315.220001221
577124.125 4179833 315.190002441
577124.0625 4179833.75 315.239990234
577124 4179834.25 314.989990234
577124 4179834.75 315.079986572
577123.9375 4179835.25 315.019989014
577123.9375 4179836 315.089996338
577123.875 4179836.5 315.059997559
577123.875 4179837 314.980010986
577123.8125 4179837.75 315.109985352
577123.8125 4179838.25 315.299987793
577123.75 4179838.75 315.25
577123.75 4179839.25 315.190002441
577123.6875 4179840 315.309997559
577123.6875 4179840.5 315.149993896
577123.625 4179841 314.769989014
577123.625 4179841.5 315.239990234
577123.5625 4179842.25 315.279998779
577123.5 4179842.75 315.200012207
577123.5 4179843.25 315.160003662
577123.4375 4179843.75 315.070007324
577123.4375 4179844.5 315.079986572
577123.375 4179845 315.209991455
577123.25 4179847.25 315.079986572
577123.25 4179847.75 315.190002441
577123.1875 4179848.5 315.220001221
577123.125 4179849 315.079986572
577123.125 4179849.5 314.970001221
577123.0625 4179850 315.130004883
577122.9375 4179852.25 314.929992676
577122.9375 4179853 315.010009766
577122.875 4179853.5 315.059997559
577122.875 4179854.25 315.540008545
577122.8125 4179854.75 315.119995117
577122.75 4179855.25 315.070007324
577122.75 4179855.75 315.209991455
577122.75 4179856.5 315.25
577122.6875 4179857 314.890014648
577122.6875 4179857.5 315.459991455
577122.625 4179858 315.339996338
577122.625 4179858.75 315.529998779
577122.5625 4179859.25 315.269989014
577122.5 4179859.75 314.869995117
577122.5 4179860.25 315.029998779
577122.4375 4179861 315.029998779
577122.375 4179861.5 314.950012207
577122.375 4179862 314.970001221
577122.3125 4179862.5 314.920013428
577122.3125 4179863.25 315.089996338
577122.25 4179863.75 314.839996338
577122.25 4179864.25 315.029998779
577122.1875 4179864.75 314.929992676
577122.1875 4179865.5 315.200012207
577122.125 4179866 314.850006104
577122.125 4179866.5 315.279998779
577122.0625 4179867.25 315.209991455
577122.0625 4179867.75 315.390014648
577122 4179868.25 315.070007324
577121.9375 4179868.75 314.799987793
577121.9375 4179869.5 314.890014648
577121.875 4179870 314.670013428
577121.875 4179870.5 314.679992676
577121.8125 4179871 314.769989014
577121.8125 4179871.75 314.859985352
577121.75 4179872.25 314.700012207
577121.75 4179872.75 314.709991455
577121.6875 4179873.25 314.75
577121.625 4179874 314.769989014
577121.625 4179874.5 315.089996338
577121.625 4179875 315.079986572
577121.5625 4179875.75 315.470001221
577121.5625 4179876.25 315.410003662
577121.5 4179876.75 315.559997559
577121.5 4179877.5 315.75
577121.5 4179878 316.010009766
577120.625 4179877.75 315.910003662
577120.625 4179877.25 315.739990234
577120.6875 4179876.5 315.609985352
577120.6875 4179876 315.559997559
577120.6875 4179875.5 314.929992676
577120.75 4179874.75 315
577120.75 4179874.25 314.839996338
577120.8125 4179873.75 314.910003662
577120.8125 4179873 314.630004883
577120.875 4179872.5 314.75
577120.875 4179872 314.820007324
577120.9375 4179871.5 314.649993896
577120.9375 4179870.75 314.730010986
577121 4179870.25 315.230010986
577121 4179869.75 314.700012207
577121.0625 4179869.25 315.160003662
577121.125 4179868.5 315.140014648
577121.3125 4179865.25 315.820007324
577121.3125 4179864.5 314.940002441
577121.375 4179864 314.890014648
577121.375 4179863.5 314.869995117
577121.4375 4179862.75 314.829986572
577121.4375 4179862.25 314.920013428
577121.5 4179861.75 315.119995117
577121.5 4179861.25 314.910003662
577121.5625 4179860.5 314.929992676
577121.5625 4179860 314.980010986
577121.625 4179859.5 314.839996338
577121.6875 4179859 315.320007324
577121.6875 4179858.25 315.059997559
577121.75 4179857.75 314.890014648
577121.75 4179857.25 314.899993896
577121.8125 4179856.75 315.140014648
577121.8125 4179856 315.220001221
577121.875 4179855.5 315.519989014
577121.875 4179855 315.029998779
577121.9375 4179854.25 315.190002441
577122 4179853.75 315.290008545
577122 4179853.25 315.160003662
577122 4179852.75 315.040008545
577122.0625 4179852 315.570007324
577122.125 4179851.5 315.359985352
577122.125 4179851 315.109985352
577122.125 4179850.25 314.929992676
577122.1875 4179849.75 315.119995117
577122.25 4179849.25 314.940002441
577122.25 4179848.75 315.109985352
577122.3125 4179848 315.350006104
577122.3125 4179847.5 315.130004883
577122.375 4179847 315.200012207
577122.375 4179846.5 315.440002441
577122.4375 4179845.75 315.070007324
577122.4375 4179845.25 315.160003662
577122.5 4179844.5 315.010009766
577122.5 4179844 315.179992676
577122.5625 4179843.5 315.130004883
577122.625 4179843 315.670013428
577122.625 4179842.5 315.420013428
577122.6875 4179841.75 315.589996338
577122.6875 4179841.25 315.470001221
577122.6875 4179840.5 315.100006104
577122.75 4179840 314.970001221
577122.75 4179839.5 315.100006104
577122.8125 4179838.75 314.899993896
577122.875 4179838.25 315.220001221
577122.875 4179837.75 315.070007324
577122.9375 4179837.25 315.100006104
577122.9375 4179836.5 315.010009766
577123 4179836 315.049987793
577123 4179835.5 315.470001221
577123.0625 4179834.75 315.100006104
577123.0625 4179834.25 315.309997559
577123.125 4179833.75 315.25
577123.1875 4179832.5 315.010009766
577123.25 4179832 315.420013428
577123.25 4179831.5 315.209991455
577123.25 4179830.75 315.089996338
577123.3125 4179830.25 315.179992676
577123.3125 4179829.75 315.149993896
577123.375 4179829.25 315.220001221
577123.4375 4179828.5 315.359985352
577123.4375 4179828 315.399993896
577123.5 4179827.5 315.109985352
577123.5 4179826.75 315.279998779
577123.5625 4179826.25 315.100006104
577123.5625 4179825.75 315.230010986
577123.625 4179825 315.200012207
577123.875 4179820.5 315.149993896
577123.9375 4179820 315.320007324
577123.9375 4179819.25 315
577124 4179818.75 315.239990234
577124 4179818.25 315.119995117
577124 4179817.5 315
577124.0625 4179817 315.079986572
577124.125 4179816.5 315.109985352
577124.125 4179815.75 315.059997559
577124.1875 4179815.25 315.019989014
577124.1875 4179814.75 315.100006104
577124.25 4179814 315.109985352
577124.25 4179813.5 314.859985352
577124.3125 4179813 315
577124.3125 4179812.25 315.070007324
577124.375 4179812 315.950012207
577124.5 4179808.75 314.869995117
577124.5625 4179808.25 314.890014648
