# .PCD v.7 - Point Cloud Data file format
VERSION .7
FIELDS x y z
SIZE 4 4 4
TYPE F F F
COUNT 1 1 1
WIDTH 755
HEIGHT 1
VIEWPOINT 0 0 0 1 0 0 0
POINTS 755
DATA ascii
577135.375 4179880.25 317.109985352
577135.4375 4179879.75 317.329986572
577135.4375 4179879.25 317.380004883
577135.4375 4179878.75 316.950012207
577135.5 4179878 316.890014648
577135.5 4179877.5 316.859985352
577135 4179877.25 316.850006104
577135 4179878 316.899993896
577134.9375 4179878.5 316.799987793
577134.9375 4179879 316.899993896
577134.875 4179879.5 316.869995117
577134.875 4179880.25 317.390014648
577134 4179880.5 317.209991455
577134 4179880 317.029998779
577134.0625 4179879.5 317.010009766
577134.0625 4179878.75 316.880004883
577134.125 4179878.25 316.869995117
577134.125 4179877.75 316.779998779
577134.25 4179876.5 316.850006104
577133.5625 4179878.75 316.760009766
577133.5625 4179879.25 316.899993896
577133.5 4179879.75 317
577133.5 4179880.5 317.239990234
577133.4375 4179881 317.149993896
577132.5625 4179882 317.230010986
577132.5625 4179881.25 317.100006104
577132.625 4179880.75 317.100006104
577132.625 4179880.25 316.970001221
577132.6875 4179879.5 316.859985352
577132.75 4179879 317.119995117
577132.75 4179878.5 317.329986572
577132.8125 4179878 316.950012207
577132.25 4179878.5 317.160003662
577132.25 4179879 317.149993896
577132.1875 4179879.5 316.820007324
577132.1875 4179880 316.880004883
577132.1875 4179880.75 317.600006104
577132.125 4179881.25 317.369995117
577132.0625 4179881.75 317.100006104
577131.25 4179881.75 317.070007324
577131.25 4179881.25 317.109985352
577131.25 4179880.5 316.910003662
577131.3125 4179880 316.739990234
577131.3125 4179879.5 316.820007324
577131.375 4179878.75 316.880004883
577131.375 4179878.25 316.700012207
577131.4375 4179877.75 316.850006104
577130.9375 4179878 316.660003662
577130.875 4179878.5 316.730010986
577130.875 4179879.25 316.75
577130.8125 4179879.75 316.950012207
577130.8125 4179880.25 317.029998779
577130.75 4179881 317
577130.75 4179881.5 316.959991455
577130.6875 4179882 316.989990234
577129.875 4179881.75 316.970001221
577129.9375 4179881.25 316.959991455
577129.9375 4179880.75 317.260009766
577130 4179880 316.850006104
577130 4179879.5 316.820007324
577130 4179879 316.600006104
577130.0625 4179878.5 316.829986572
577130.125 4179877.75 316.880004883
577129.5 4179878.5 316.630004883
577129.5 4179879 316.630004883
577129.5 4179879.75 317.190002441
577129.4375 4179880.25 317.329986572
577129.4375 4179880.75 317.160003662
577129.375 4179881.5 316.940002441
577129.375 4179882 317.070007324
577128.5 4179882.25 317.010009766
577128.5 4179881.5 317.070007324
577128.5625 4179881 316.869995117
577128.5625 4179880.5 316.820007324
577128.625 4179879.75 316.920013428
577128.625 4179879.25 316.600006104
577128.6875 4179878.75 316.549987793
577128.1875 4179878.75 316.630004883
577128.125 4179879.25 316.720001221
577128.125 4179880 316.899993896
577128.0625 4179880.5 316.929992676
577128.0625 4179881 316.899993896
577128 4179881.75 316.940002441
577127.125 4179882 317.130004883
577127.1875 4179881.5 317.049987793
577127.25 4179880.75 317.100006104
577127.25 4179880.25 316.980010986
577127.25 4179879.75 317
577127.3125 4179879 316.559997559
577127.3125 4179878.5 316.649993896
577126.875 4179878.5 316.630004883
577126.8125 4179879 316.769989014
577126.8125 4179879.5 316.890014648
577126.75 4179880.25 316.880004883
577126.75 4179880.75 316.769989014
577126.6875 4179881.25 316.779998779
577126.6875 4179882 317.119995117
577125.8125 4179881.75 317.089996338
577125.875 4179881.25 316.989990234
577125.875 4179880.5 316.910003662
577125.9375 4179880 316.970001221
577125.9375 4179879.5 316.880004883
577126 4179878.75 316.769989014
577126 4179878.25 316.630004883
577126 4179877.75 316.450012207
577125.5 4179878.5 316.630004883
577125.4375 4179879.25 316.829986572
577125.4375 4179879.75 316.630004883
577125.4375 4179880.25 317.059997559
577125.375 4179881 317.190002441
577125.3125 4179881.5 317.049987793
577125.3125 4179882 317.029998779
577124.4375 4179882.25 316.869995117
577124.5 4179881.5 316.920013428
577124.5 4179881 316.779998779
577124.5625 4179880.5 317.059997559
577124.5625 4179880 317.220001221
577124.5625 4179879.25 316.600006104
577124.625 4179878.75 316.429992676
577124.625 4179878.25 316.640014648
577124.125 4179878.75 316.720001221
577124.125 4179879.25 316.820007324
577124.0625 4179879.75 316.790008545
577124.0625 4179880.5 316.75
577124 4179881 316.809997559
577124 4179881.5 316.799987793
577123.9375 4179882 317.119995117
577123.0625 4179882 316.859985352
577123.125 4179881.5 316.75
577123.125 4179881 316.839996338
577123.1875 4179880.25 316.739990234
577123.1875 4179879.75 316.790008545
577123.25 4179879.25 316.690002441
577123.25 4179878.5 316.399993896
577122.8125 4179878.5 316.399993896
577122.75 4179879 316.459991455
577122.75 4179879.75 316.489990234
577122.6875 4179880.25 316.700012207
577122.6875 4179880.75 317.040008545
577122.6875 4179881.5 317.230010986
577122.625 4179882 317.029998779
577121.75 4179882 316.890014648
577121.75 4179881.5 316.859985352
577121.8125 4179881 316.709991455
577121.8125 4179880.5 316.760009766
577121.875 4179879.75 316.660003662
577121.875 4179879.25 316.369995117
577121.4375 4179879.25 316.709991455
577121.375 4179879.75 316.630004883
577121.375 4179880.25 316.630004883
577121.3125 4179881 316.700012207
577121.3125 4179881.5 316.899993896
577121.25 4179882 316.75
577120.4375 4179881.75 316.910003662
577120.5 4179881.25 316.739990234
577120.5 4179880.75 316.769989014
577120.5 4179880 316.510009766
577120.5625 4179879.5 316.440002441
577120.5625 4179879 316.510009766
577120.0625 4179880 316.420013428
577120 4179880.5 316.589996338
577120 4179881 317.170013428
577120 4179881.75 317.019989014
577119.125 4179881.75 316.769989014
577119.125 4179881 316.679992676
577119.1875 4179880.5 316.529998779
577119.25 4179880 316.769989014
577119.25 4179879.5 316.720001221
577119.25 4179878.75 316.559997559
577119.3125 4179878.25 316.329986572
577119 4179876 317.709991455
577119 4179876.5 317.279998779
577118.875 4179877 316.320007324
577118.8125 4179878 316.220001221
577118.8125 4179878.75 316.470001221
577118.75 4179879.75 316.290008545
577118.6875 4179880.25 316.380004883
577118.6875 4179881 316.480010986
577118.625 4179881.5 316.799987793
577118.625 4179882 316.75
577117.8125 4179882.25 317.239990234
577117.8125 4179881.5 317.089996338
577117.8125 4179881 316.75
577117.875 4179880.25 316.380004883
577117.875 4179879.75 316.269989014
577117.9375 4179879.25 316.279998779
577118.0625 4179877 317.25
577118.1875 4179876.75 318.619995117
577118.1875 4179876 318.660003662
577118.1875 4179875.5 317.829986572
577118.1875 4179874.75 317.25
577118.25 4179874.25 318.040008545
577117.75 4179873.5 316.320007324
577117.75 4179874.25 316.910003662
577117.75 4179874.75 317.190002441
577117.6875 4179875.25 317.160003662
577117.6875 4179876 318.329986572
577117.6875 4179876.5 318.570007324
577117.625 4179877 317.179992676
577117.4375 4179879.25 316.149993896
577117.375 4179879.75 316.390014648
577117.375 4179880.25 316.470001221
577117.3125 4179881 316.549987793
577117.3125 4179881.5 316.589996338
577117.25 4179882 316.589996338
577116.4375 4179882 316.529998779
577116.5 4179881.5 316.799987793
577116.5 4179880.75 316.670013428
577116.5 4179880.25 316.339996338
577116.5625 4179879.75 316.559997559
577116.75 4179876.75 316.200012207
577116.8125 4179876.5 317.809997559
577116.875 4179875.75 317.929992676
577116.9375 4179874.75 318.25
577116.5 4179874.5 318.570007324
577116.375 4179875.5 317.25
577116.3125 4179876.25 317.25
577116.0625 4179879.5 316.309997559
577116.0625 4179880 316.559997559
577116 4179880.75 316.709991455
577116 4179881.25 316.820007324
577115.9375 4179881.75 316.450012207
577115.125 4179881.75 316.799987793
577115.1875 4179881.25 316.829986572
577115.1875 4179880.75 316.619995117
577115.25 4179880 316.309997559
577115.25 4179879.5 316.149993896
577115.25 4179879 316.079986572
577115.5625 4179875 317.619995117
577115.5625 4179874.5 317.480010986
577114.75 4179879.75 316.059997559
577114.75 4179880.25 316.679992676
577114.6875 4179881 316.510009766
577114.625 4179881.5 316.579986572
577114.625 4179882 316.609985352
577113.8125 4179882 316.559997559
577113.8125 4179881.25 316.579986572
577113.875 4179880.75 316.559997559
577113.875 4179880.25 316.309997559
577113.9375 4179879.75 316.239990234
577113.4375 4179879.75 316.309997559
577113.4375 4179880.25 316.359985352
577113.375 4179880.75 316.380004883
577113.375 4179881.5 316.570007324
577113.3125 4179882 316.709991455
577112.5 4179881.75 316.489990234
577112.5625 4179881 316.549987793
577112.5625 4179880.5 316.470001221
577112.625 4179880 316.359985352
577112.625 4179879.25 316.070007324
577112.1875 4179878.75 316.100006104
577112.125 4179879.25 316.130004883
577112.125 4179879.75 316.130004883
577112.125 4179880.5 316.570007324
577112.0625 4179881 316.549987793
577112 4179881.5 316.329986572
577111.1875 4179881.75 316.429992676
577111.25 4179881.25 316.720001221
577111.25 4179880.75 316.299987793
577111.3125 4179880.25 316.339996338
577111.3125 4179879.5 316.200012207
577111.3125 4179879 315.959991455
577111.375 4179878.5 315.929992676
577110.875 4179878.75 316.269989014
577110.8125 4179879.5 316.390014648
577110.8125 4179880 316.720001221
577110.8125 4179880.5 316.75
577110.75 4179881 316.829986572
577110.75 4179881.75 316.799987793
577109.875 4179882 316.690002441
577109.9375 4179881.5 316.510009766
577109.9375 4179881 316.589996338
577109.9375 4179880.25 316.369995117
577110 4179879.75 316.369995117
577110 4179879.25 316.140014648
577110.0625 4179878.5 316.190002441
577110.0625 4179878 315.890014648
577110.125 4179877.5 315.850006104
577109.625 4179877.25 316
577109.625 4179877.75 316.070007324
577109.5625 4179878.25 315.929992676
577109.5625 4179879 316.269989014
577109.5625 4179879.5 316.529998779
577109.5 4179880 316.170013428
577109.4375 4179880.75 316.160003662
577109.4375 4179881.25 316.510009766
577109.4375 4179881.75 316.329986572
577108.5625 4179882.25 316.559997559
577108.5625 4179881.5 316.480010986
577108.625 4179881 316.320007324
577108.625 4179880.5 316.279998779
577108.6875 4179879.75 316.339996338
577108.6875 4179879.25 316.160003662
577108.75 4179878.75 315.940002441
577108.75 4179878.25 315.890014648
577108.8125 4179877.5 316.299987793
577108.8125 4179877 316.040008545
577108.875 4179876.5 315.910003662
577108.375 4179876.75 315.790008545
577108.3125 4179877.5 315.839996338
577108.3125 4179878 316.029998779
577108.25 4179878.5 316.040008545
577108.25 4179879.25 316.070007324
577108.1875 4179879.75 316.239990234
577108.1875 4179880.25 316.609985352
577108.1875 4179881 316.739990234
577108.125 4179881.5 316.070007324
577108.0625 4179882 316.339996338
577107.25 4179882.25 316.450012207
577107.25 4179881.5 316.350006104
577107.3125 4179881 316.260009766
577107.375 4179880.5 316.510009766
577107.375 4179879.75 316.279998779
577107.375 4179879.25 316.079986572
577107.4375 4179878.75 316.109985352
577107.4375 4179878.25 316.089996338
577107.5 4179877.5 315.910003662
577107.5 4179877 315.760009766
577107 4179877.5 315.880004883
577107 4179878 316.149993896
577106.9375 4179878.5 315.989990234
577106.9375 4179879 316.079986572
577106.875 4179879.75 316.079986572
577106.875 4179880.25 316.119995117
577106.875 4179880.75 316.589996338
577106.8125 4179881.5 316.339996338
577106.75 4179882 316.200012207
577106 4179881.5 316.209991455
577106 4179881 316.079986572
577106 4179880.5 316.170013428
577106.0625 4179880 316.299987793
577106.0625 4179879.25 316.079986572
577106.125 4179878.75 315.970001221
577106.1875 4179878.25 316.119995117
577106.1875 4179877.5 315.809997559
577106.1875 4179877 315.910003662
577105.8125 4179875.75 315.679992676
577105.75 4179877 315.899993896
577105.75 4179877.5 315.869995117
577105.6875 4179878 315.869995117
577105.6875 4179878.5 316.119995117
577105.6875 4179879.25 316.410003662
577105.625 4179879.75 316.450012207
577105.5625 4179880.25 315.989990234
577105.5625 4179880.75 316.010009766
577105.5 4179881.5 316.100006104
577105.5 4179882 316.160003662
577104.6875 4179882 316.220001221
577104.6875 4179881.25 316.190002441
577104.75 4179880.75 316.160003662
577104.75 4179880.25 316.079986572
577104.8125 4179879.75 316.200012207
577104.8125 4179879 316.070007324
577104.875 4179878.5 316.160003662
577104.875 4179878 316.119995117
577104.9375 4179877.25 315.899993896
577104.9375 4179876.75 315.799987793
577105 4179876.25 315.730010986
577104.5625 4179875.5 315.679992676
577104.5 4179876.75 315.899993896
577104.5 4179877.25 315.700012207
577104.4375 4179877.75 315.929992676
577104.4375 4179878.5 316.040008545
577104.375 4179879 316.149993896
577104.375 4179879.5 316.559997559
577104.3125 4179880.25 316.410003662
577104.3125 4179880.75 316
577104.25 4179881.25 316.160003662
577104.25 4179881.75 316.149993896
577103.4375 4179882 316.200012207
577103.4375 4179881.5 316.489990234
577103.5 4179881 316.089996338
577103.5 4179880.25 316.119995117
577103.5 4179879.75 316.029998779
577103.5625 4179879.25 316.119995117
577103.625 4179878.75 316.049987793
577103.625 4179878 315.980010986
577103.625 4179877.5 315.769989014
577103.6875 4179876.25 315.679992676
577103.75 4179875.75 315.809997559
577103.75 4179875.25 315.609985352
577103.3125 4179875.25 315.570007324
577103.25 4179877 315.679992676
577103.1875 4179877.5 315.820007324
577103.1875 4179878 315.799987793
577103.125 4179878.75 315.959991455
577103.125 4179879.25 315.959991455
577103.0625 4179879.75 316.200012207
577103.0625 4179880.25 316.359985352
577103 4179881 316.029998779
577103 4179881.5 316.309997559
577102.9375 4179882 316.190002441
577102.1875 4179881.75 316.190002441
577102.1875 4179881.25 316.209991455
577102.25 4179880.75 316.010009766
577102.25 4179880 315.989990234
577102.25 4179879.5 316.089996338
577102.3125 4179879 315.940002441
577102.3125 4179878.5 315.790008545
577102.375 4179877.75 316.029998779
577102.375 4179877.25 315.929992676
577102.4375 4179876.75 315.739990234
577102.4375 4179876.25 315.739990234
577102.5 4179875.5 315.760009766
577102.5 4179875 315.739990234
577102.625 4179873.25 315.549987793
577102 4179876 315.570007324
577102 4179876.5 315.649993896
577101.9375 4179877 315.649993896
577101.9375 4179877.75 315.619995117
577101.875 4179878.25 316.059997559
577101.875 4179878.75 316.049987793
577101.8125 4179879.5 316.029998779
577101.8125 4179880 316.059997559
577101.75 4179880.5 316.070007324
577101.75 4179881 316.149993896
577101.75 4179881.75 316.410003662
577100.875 4179882 316.559997559
577100.9375 4179881.5 316.170013428
577100.9375 4179881 316.290008545
577100.9375 4179880.25 315.940002441
577101 4179879.75 316.119995117
577101 4179879.25 315.869995117
577101.0625 4179878.75 315.850006104
577101.0625 4179878 315.720001221
577101.125 4179877.5 315.709991455
577101.125 4179877 315.649993896
577101.1875 4179876.25 315.739990234
577101.1875 4179875.75 315.570007324
577101.25 4179875.25 315.600006104
577101.3125 4179874 315.619995117
577101.375 4179873 315.869995117
577101.375 4179872.5 315.700012207
577100.8125 4179875 315.529998779
577100.8125 4179875.5 315.910003662
577100.75 4179876 315.760009766
577100.75 4179876.75 315.670013428
577100.6875 4179877.25 315.75
577100.6875 4179877.75 315.769989014
577100.625 4179878.5 316.220001221
577100.625 4179879 316.440002441
577100.5625 4179879.5 316.339996338
577100.5625 4179880 316.029998779
577100.5 4179880.75 315.929992676
577100.5 4179881.25 315.970001221
577100.4375 4179881.75 316.200012207
577099.6875 4179881.75 316.529998779
577099.6875 4179881 316.529998779
577099.75 4179880.5 316.390014648
577099.75 4179880 316.279998779
577099.8125 4179879.25 316.339996338
577099.8125 4179878.75 316.260009766
577099.875 4179878.25 316.160003662
577099.875 4179877.75 316.140014648
577099.9375 4179877 316.209991455
577099.9375 4179876.5 316.079986572
577099.9375 4179876 315.890014648
577100 4179875.25 315.540008545
577100 4179874.75 315.510009766
577099.5625 4179875 315.619995117
577099.5 4179875.5 315.480010986
577099.5 4179876 315.630004883
577099.4375 4179876.75 315.579986572
577099.4375 4179877.25 315.869995117
577099.375 4179877.75 315.709991455
577099.375 4179878.5 316.119995117
577099.3125 4179879 315.859985352
577099.3125 4179879.5 315.859985352
577099.25 4179880 316.230010986
577099.25 4179880.75 316.399993896
577099.25 4179881.25 316.299987793
577099.1875 4179881.75 316.510009766
577098.375 4179882 316.160003662
577098.4375 4179881.5 315.959991455
577098.4375 4179880.75 316.170013428
577098.5 4179880.25 316.010009766
577098.5 4179879.75 316.089996338
577098.5 4179879 315.75
577098.5625 4179878.5 315.829986572
577098.625 4179878 315.829986572
577098.625 4179877.5 315.839996338
577098.6875 4179876.75 315.799987793
577098.6875 4179876.25 315.839996338
577098.75 4179875.75 316.070007324
577098.75 4179875.25 315.899993896
577098.75 4179874.5 315.630004883
577098.3125 4179874 315.429992676
577098.3125 4179874.5 315.589996338
577098.25 4179875.75 315.640014648
577098.1875 4179876.25 315.559997559
577098.1875 4179876.75 315.619995117
577098.125 4179877.5 315.549987793
577098.125 4179878 315.660003662
577098.125 4179878.5 316.109985352
577098.0625 4179879.25 316.25
577098 4179879.75 315.869995117
577098 4179880.25 315.769989014
577098 4179880.75 316.040008545
577097.9375 4179881.5 316.369995117
577097.9375 4179882 316.299987793
577097.125 4179881.5 315.940002441
577097.125 4179881 316.010009766
577097.1875 4179880.5 315.720001221
577097.1875 4179880 315.950012207
577097.25 4179879.5 316.130004883
577097.25 4179878.75 316.200012207
577097.3125 4179878.25 316.070007324
577097.3125 4179877.75 316.130004883
577097.375 4179877 315.679992676
577097.375 4179876.5 315.489990234
577097.4375 4179876 315.519989014
577097.4375 4179875.25 315.440002441
577097.5 4179874.75 315.519989014
577097 4179875.25 315.429992676
577097 4179875.75 315.600006104
577096.9375 4179876.25 315.510009766
577096.9375 4179877 315.709991455
577096.875 4179877.5 315.779998779
577096.875 4179878 315.690002441
577096.8125 4179878.75 315.779998779
577096.8125 4179879.25 315.850006104
577096.75 4179879.75 315.920013428
577096.75 4179880.25 315.910003662
577096.6875 4179881 315.829986572
577096.6875 4179881.5 315.959991455
577096.625 4179882 315.929992676
577095.875 4179881.75 316.339996338
577095.875 4179881.25 316
577095.9375 4179880.75 316.209991455
577095.9375 4179880 316.049987793
577096 4179879.5 315.839996338
577096 4179879 316.040008545
577096 4179878.25 315.730010986
577096.0625 4179877.75 315.640014648
577096.125 4179877.25 315.880004883
577096.125 4179876.5 315.579986572
577096.1875 4179876 315.709991455
577096.1875 4179875.5 315.489990234
577096.1875 4179875 315.369995117
577096.25 4179874.25 315.329986572
577095.75 4179875.25 315.359985352
577095.6875 4179875.75 315.489990234
577095.6875 4179876.25 315.579986572
577095.625 4179877 315.529998779
577095.625 4179877.5 315.709991455
577095.5625 4179878 315.679992676
577095.5625 4179878.75 315.890014648
577095.5 4179879.25 315.820007324
577095.5 4179879.75 315.899993896
577095.4375 4179880.25 315.709991455
577095.4375 4179881 316.079986572
577095.375 4179881.5 315.739990234
577095.375 4179882 315.929992676
577094.5625 4179881.75 315.790008545
577094.625 4179881.25 315.859985352
577094.625 4179880.75 315.839996338
577094.6875 4179880.25 316.010009766
577094.6875 4179879.5 315.730010986
577094.75 4179879 315.739990234
577094.75 4179878.5 316.070007324
577094.8125 4179877.75 315.700012207
577094.8125 4179877.25 315.640014648
577094.875 4179876.75 315.679992676
577094.875 4179876.25 315.589996338
577094.875 4179875.5 315.359985352
577094.9375 4179875 315.299987793
577094.9375 4179874.5 315.269989014
577095 4179874 315.480010986
577094.5 4179874 315.279998779
577094.5 4179874.75 315.260009766
577094.4375 4179875.25 315.429992676
577094.4375 4179875.75 315.350006104
577094.4375 4179876.5 315.989990234
577094.375 4179877 315.760009766
577094.3125 4179877.5 315.570007324
577094.3125 4179878 315.709991455
577094.25 4179878.75 315.920013428
577094.25 4179879.25 315.769989014
577094.1875 4179879.75 315.589996338
577094.1875 4179880.25 315.709991455
577094.125 4179881 315.869995117
577094.125 4179881.5 315.869995117
577094.0625 4179882 315.779998779
577093.3125 4179882 315.75
577093.3125 4179881.5 315.980010986
577093.375 4179880.75 315.760009766
577093.375 4179880.25 315.619995117
577093.4375 4179879.75 315.809997559
577093.4375 4179879 315.839996338
577093.5 4179878.5 315.779998779
577093.5 4179878 315.679992676
577093.5625 4179877.5 315.730010986
577093.5625 4179876.75 315.829986572
577093.5625 4179876.25 315.480010986
577093.625 4179875.75 315.309997559
577093.625 4179875 315.410003662
577093.25 4179874.25 315.480010986
577093.1875 4179874.75 315.209991455
577093.1875 4179875.25 315.369995117
577093.125 4179875.75 315.260009766
577093.125 4179876.5 315.720001221
577093.0625 4179877 315.450012207
577093.0625 4179877.5 315.600006104
577093.0625 4179878 315.739990234
577093 4179878.75 315.660003662
577093 4179879.25 315.959991455
577092.9375 4179879.75 315.950012207
577092.9375 4179880.5 315.839996338
577092.875 4179881 315.730010986
577092.875 4179881.5 315.910003662
577092.8125 4179882 315.769989014
577092.0625 4179881.75 315.940002441
577092.0625 4179881 315.649993896
577092.125 4179880.5 315.779998779
577092.125 4179880 315.730010986
577092.1875 4179879.25 315.670013428
577092.1875 4179878.75 315.760009766
577092.25 4179878.25 315.489990234
577092.25 4179877.75 315.880004883
577092.3125 4179877 315.950012207
577092.3125 4179876.5 315.709991455
577092.3125 4179876 315.239990234
577092.375 4179875.25 315.290008545
577092.4375 4179874.75 315.670013428
577091.9375 4179874.5 315.350006104
577091.875 4179875.75 315.25
577091.875 4179876.25 315.369995117
577091.8125 4179876.75 315.299987793
577091.8125 4179877.5 315.410003662
577091.75 4179878 315.529998779
577091.75 4179878.5 315.510009766
577091.6875 4179879.25 315.540008545
577091.6875 4179879.75 315.679992676
577091.625 4179880.25 315.720001221
577091.625 4179881 315.730010986
577091.625 4179881.5 315.869995117
577091.5625 4179882 315.709991455
577150.1875 4179875.5 317.489990234
577149.25 4179876.5 317.429992676
577149.25 4179876 317.329986572
577148.625 4179877.5 317.339996338
577148.625 4179878 317.5
577148.5625 4179878.75 317.450012207
577147.5 4179881.25 317.440002441
577147.5625 4179880.5 317.470001221
577147.3125 4179876.75 317.429992676
577147.25 4179878 317.299987793
577147.125 4179879 317.309997559
577147.125 4179879.75 317.279998779
577146.125 4179881.25 317.299987793
577146.1875 4179880.75 317.239990234
577146.1875 4179880 317.230010986
577146.25 4179879.5 317.369995117
577145.9375 4179876.75 317.220001221
577145.625 4179881.75 317.399993896
577144.75 4179882 317.450012207
577144.75 4179881.5 317.369995117
577144.875 4179879.75 317.480010986
577144.9375 4179878.5 317.290008545
577145 4179878 317.200012207
577145.0625 4179877 317.339996338
577144.5625 4179876.75 317.290008545
577144.5625 4179877.25 317.209991455
577144.5 4179877.75 317.230010986
577144.5 4179878.5 317.140014648
577144.4375 4179879 317.339996338
577144.375 4179879.5 317.239990234
577144.375 4179880.25 317.529998779
577144.3125 4179880.75 317.359985352
577144.3125 4179881.25 317.170013428
577143.375 4179881.75 317.440002441
577143.4375 4179881 317.299987793
577143.5 4179880.5 317.339996338
577143.5 4179880 317.329986572
577143.5625 4179879.25 317.269989014
577143.5625 4179878.75 317.220001221
577143.625 4179878.25 317.220001221
577143.625 4179877.75 317.160003662
577143.0625 4179879 317.260009766
577143 4179879.5 317.320007324
577143 4179880.25 317.510009766
577142.9375 4179880.75 317.540008545
577142.875 4179881.75 317.119995117
577142 4179881.75 317.209991455
577142.0625 4179881.25 317.339996338
577142.0625 4179880.75 317.309997559
577142.125 4179880.25 317.329986572
577142.125 4179879.5 317.260009766
577142.1875 4179879 317.299987793
577142.25 4179878.5 317.269989014
577142.3125 4179877.25 317.299987793
577141.875 4179876.25 317.040008545
577141.8125 4179876.75 317.059997559
577141.75 4179878 317.290008545
577141.75 4179878.5 317.230010986
577141.6875 4179879 317.190002441
577141.6875 4179879.5 317.440002441
577141.625 4179880.25 317.190002441
577141.5625 4179880.75 317.269989014
577141.5625 4179881.25 317.410003662
577141.5 4179881.75 317.339996338
577140.6875 4179882 317.380004883
577140.6875 4179881.5 317.450012207
577140.75 4179880.75 317.309997559
577140.75 4179880.25 317.089996338
577140.75 4179879.75 317.049987793
577140.8125 4179879.25 317.040008545
577140.875 4179878.5 317.070007324
577140.875 4179878 317.190002441
577140.9375 4179877.5 317.190002441
577140.9375 4179877 317.130004883
577141 4179876.25 317
577140.3125 4179879 317.140014648
577140.3125 4179879.5 317.239990234
577140.25 4179880.25 317.269989014
577140.25 4179880.75 317.179992676
577140.1875 4179881.25 317.119995117
577140.1875 4179881.75 317.329986572
577139.3125 4179882 317.570007324
577139.375 4179881.25 317.260009766
577139.375 4179880.75 317.230010986
577139.4375 4179880.25 317.220001221
577139.4375 4179879.75 317.160003662
577139.5 4179879 317
577139.5 4179878.5 317.179992676
577139.5625 4179878 317.029998779
577139.0625 4179877.75 317.179992676
577139 4179878.25 316.959991455
577139 4179879 317.160003662
577139 4179879.5 317.230010986
577138.9375 4179880 317.350006104
577138.875 4179880.5 317.059997559
577138.875 4179881.25 317.079986572
577138.0625 4179881 317.600006104
577138.0625 4179880.5 317.380004883
577138.125 4179880 317.140014648
577138.125 4179879.25 316.959991455
577138.1875 4179878.75 317.010009766
577138.1875 4179878.25 317.160003662
577138.25 4179877.5 316.950012207
577137.75 4179877.75 316.950012207
577137.6875 4179878.25 317.029998779
577137.625 4179879.25 316.950012207
577137.5625 4179880 316.959991455
577137.5625 4179880.5 317.089996338
577136.75 4179880 317.450012207
577136.75 4179879.25 317
577136.8125 4179878.75 317.179992676
577136.875 4179877.75 317.350006104
577136.375 4179877.25 316.829986572
577136.375 4179878 316.989990234
577136.3125 4179878.5 316.910003662
577136.3125 4179879 317.290008545
577136.25 4179879.5 316.989990234
577136.1875 4179880.25 317.019989014
