# .PCD v.7 - Point Cloud Data file format
VERSION .7
FIELDS x y z
SIZE 4 4 4
TYPE F F F
COUNT 1 1 1
WIDTH 205
HEIGHT 1
VIEWPOINT 0 0 0 1 0 0 0
POINTS 205
DATA ascii
577166.6875 4179833.25 318.609985352
577166.6875 4179832.75 318.059997559
577166.75 4179832 317.970001221
577166.8125 4179831.5 317.880004883
577166.875 4179830.25 317.859985352
577166.9375 4179829.75 318.160003662
577166.4375 4179830.5 318.190002441
577166.375 4179831.75 318.140014648
577166.3125 4179832.25 318.029998779
577166.25 4179832.75 317.869995117
577166.25 4179833.25 318.049987793
577166.1875 4179834.5 317.970001221
577166.125 4179835 318.049987793
577165.125 4179835.25 318.339996338
577165.125 4179834.5 318.220001221
577165.1875 4179834 317.959991455
577165.25 4179833.5 319.420013428
577165.375 4179833.25 321.239990234
577165.375 4179832.75 320.989990234
577165.4375 4179832 320.839996338
577165.375 4179831.25 318.609985352
577165.4375 4179830.5 318.220001221
577165.5 4179830 318.790008545
577165.5625 4179829.75 320.760009766
577165.625 4179829.25 320.779998779
577165.625 4179828.5 319.519989014
577165.6875 4179828 320.480010986
577165.75 4179827.5 321
577165.3125 4179827.5 320.269989014
577165.25 4179828 320.079986572
577165.3125 4179828.75 321.5
577165.25 4179829.25 321.450012207
577165.1875 4179830 321.489990234
577165.25 4179830.75 322.899993896
577165.1875 4179831.25 323.290008545
577165 4179831.25 318.640014648
577165 4179832 320.829986572
577165 4179832.75 321.029998779
577164.9375 4179833.25 321.089996338
577164.9375 4179833.75 321.190002441
577164.75 4179834 318.100006104
577164.75 4179834.5 318.149993896
577164.6875 4179835.75 318.739990234
577164.625 4179836.25 318.790008545
577163.5 4179837 318.140014648
577163.5625 4179836.5 318.359985352
577163.625 4179836 319.529998779
577163.6875 4179835.5 319.410003662
577163.6875 4179834.75 318.579986572
577163.8125 4179834.5 320.260009766
577163.8125 4179834 320.779998779
577163.875 4179833.25 320.799987793
577163.9375 4179833 321.790008545
577164 4179832.5 322.559997559
577164.0625 4179832 323.190002441
577164.125 4179831.5 323.600006104
577164.1875 4179831 323.390014648
577164.25 4179830.5 323.660003662
577164.25 4179829.75 323.429992676
577164.25 4179829 322.769989014
577164.3125 4179828.5 322.5
577164.3125 4179828 322.390014648
577164.375 4179827.25 321.980010986
577164.25 4179826.25 318.940002441
577163.9375 4179826.25 319.690002441
577163.9375 4179827 321.679992676
577163.9375 4179827.75 322.440002441
577163.9375 4179828.25 322.410003662
577163.875 4179829 322.700012207
577163.875 4179829.5 323.010009766
577163.875 4179830.25 324.019989014
577163.8125 4179830.75 323.420013428
577163.75 4179831.5 324.109985352
577163.75 4179832 324.220001221
577163.6875 4179832.5 323.850006104
577163.625 4179833 323.149993896
577163.5625 4179833.25 322.390014648
577163.4375 4179833.75 320.869995117
577163.375 4179834.25 320.579986572
577163.25 4179834.5 318.410003662
577163.25 4179835 318.570007324
577163.25 4179835.75 319.369995117
577163.1875 4179836.25 318.950012207
577163.125 4179836.75 318.149993896
577163.0625 4179837.25 317.970001221
577162 4179837 317.779998779
577162.0625 4179836.5 318
577162.0625 4179835.75 317.790008545
577162.125 4179835.25 317.809997559
577162.25 4179834.25 318.100006104
577162.375 4179834 320.880004883
577162.5 4179833.75 323.559997559
577162.5625 4179833.5 324.730010986
577162.625 4179832.75 324.299987793
577162.625 4179832.25 323.940002441
577162.6875 4179831.75 324.420013428
577162.75 4179831.25 324.5
577162.75 4179830.5 324.190002441
577162.8125 4179830 323.910003662
577162.8125 4179829.25 323.549987793
577162.8125 4179828.75 323.059997559
577162.875 4179828 322.760009766
577162.875 4179827.5 322.589996338
577162.875 4179826.5 320.519989014
577162.8125 4179825.75 318.980010986
577162.5 4179825.5 319.790008545
577162.4375 4179826.25 320.380004883
577162.4375 4179827 321.540008545
577162.5 4179827.75 322.75
577162.4375 4179828.25 322.549987793
577162.4375 4179829 323.739990234
577162.375 4179829.5 324
577162.375 4179830.25 324.019989014
577162.375 4179830.75 324.630004883
577162.25 4179831.25 324.019989014
577162.25 4179832 324.529998779
577162.25 4179832.5 324.619995117
577162.1875 4179833 324.920013428
577162.125 4179833.5 324.579986572
577162.0625 4179834 323.570007324
577161.875 4179834 320.059997559
577161.6875 4179835.25 317.790008545
577161.625 4179836 317.920013428
577161.625 4179836.5 318.429992676
577160.875 4179834 320.339996338
577160.9375 4179833.5 320.739990234
577161.125 4179833.25 323.739990234
577161.125 4179832.75 323.600006104
577161.1875 4179832.25 324.070007324
577161.25 4179831.75 323.920013428
577161.25 4179831.25 324.130004883
577161.3125 4179830.75 324.660003662
577161.375 4179830 324.470001221
577161.375 4179829.5 323.720001221
577161.375 4179828.75 322.910003662
577161.375 4179828 322.859985352
577161.4375 4179827.5 322.350006104
577161.4375 4179826.75 321.290008545
577161.4375 4179826 320.450012207
577161.4375 4179825.25 320.25
577161 4179826 320.339996338
577160.9375 4179826.5 320.380004883
577161 4179827.5 322.579986572
577160.9375 4179828 322.739990234
577160.9375 4179828.75 322.910003662
577160.875 4179829.25 323.119995117
577160.875 4179830 323.720001221
577160.8125 4179830.5 323.450012207
577160.8125 4179831 323.559997559
577160.75 4179831.5 323.410003662
577160.75 4179832.25 323.709991455
577160.6875 4179832.75 323.209991455
577160.625 4179833.25 323.570007324
577160.625 4179833.75 323.450012207
577160.4375 4179834 320.260009766
577159.5 4179833.75 322.130004883
577159.5625 4179833.5 322.690002441
577159.625 4179832.75 322.649993896
577159.6875 4179832.25 323.119995117
577159.75 4179831.75 323.540008545
577159.75 4179831.25 323.480010986
577159.75 4179830.5 323.209991455
577159.8125 4179830 323.179992676
577159.8125 4179829.25 322.619995117
577159.875 4179829 323.329986572
577159.9375 4179828.25 322.630004883
577159.8125 4179827.25 319.839996338
577159.875 4179826.75 320.230010986
577159.9375 4179826 319.720001221
577159.9375 4179825.5 319.989990234
577159.5 4179826 320.149993896
577159.5 4179826.5 320.230010986
577159.4375 4179827 319.989990234
577159.375 4179827.5 319.700012207
577159.4375 4179828.5 322.029998779
577159.375 4179829 321.839996338
577159.375 4179830 323.220001221
577159.375 4179830.5 322.929992676
577159.3125 4179831 323.380004883
577159.3125 4179831.5 323.440002441
577159.25 4179832.25 323.239990234
577159.1875 4179832.5 322.239990234
577159.125 4179833.25 322.480010986
577159.125 4179833.75 322.450012207
577159.0625 4179834.25 322.010009766
577158.0625 4179833.25 322.109985352
577158.125 4179832.75 322.730010986
577158.1875 4179832.25 322.880004883
577158.25 4179831.5 322.619995117
577158.1875 4179830.75 321.029998779
577158.25 4179830.25 321.010009766
577158.25 4179829.5 321.119995117
577158.25 4179829 320.359985352
577158.3125 4179828.25 320.390014648
577158.3125 4179827.75 320.109985352
577158.3125 4179827 318.559997559
577157.875 4179827.25 318.440002441
577157.875 4179828 320.170013428
577157.8125 4179828.5 319.200012207
577157.8125 4179829 319.429992676
577157.75 4179829.5 319.540008545
577157.6875 4179830 318.5
577157.75 4179831 321.470001221
577157.75 4179831.5 321.329986572
577157.75 4179832.5 322.989990234
