# .PCD v.7 - Point Cloud Data file format
VERSION .7
FIELDS x y z
SIZE 4 4 4
TYPE F F F
COUNT 1 1 1
WIDTH 1382
HEIGHT 1
VIEWPOINT 0 0 0 1 0 0 0
POINTS 1382
DATA ascii
577132 4179839.75 318.359985352
577132 4179840.25 318.5
577131.9375 4179840.75 318.390014648
577131.875 4179841.5 318.429992676
577131.875 4179842 318.399993896
577131.8125 4179842.5 318.320007324
577131.8125 4179843.25 318.359985352
577131.0625 4179839.75 318.359985352
577131.125 4179839.25 318.579986572
577131.125 4179838.5 318.519989014
577131.1875 4179838 318.209991455
577131.1875 4179837.5 318.470001221
577131.25 4179836.75 318.660003662
577131.3125 4179836.25 318.720001221
577131.3125 4179835.75 318.779998779
577131.375 4179835.25 318.920013428
577131.375 4179834.5 318.540008545
577131.4375 4179834 318.839996338
577131.4375 4179833.5 318.940002441
577131.5 4179833 319.109985352
577131.5 4179832.25 318.649993896
577131.5625 4179831.75 318.630004883
577131.5625 4179831 318.420013428
577131.5625 4179830.25 316.609985352
577131.1875 4179830.75 317.809997559
577131.1875 4179831.5 318.660003662
577131.125 4179832 318.700012207
577131.125 4179832.75 318.790008545
577131.0625 4179833.25 318.75
577131 4179833.75 318.869995117
577131 4179834.25 318.839996338
577130.9375 4179835 318.799987793
577130.9375 4179835.5 319.019989014
577130.875 4179836 318.660003662
577130.8125 4179836.5 318.440002441
577130.8125 4179837 318.459991455
577130.75 4179837.75 318.540008545
577130.75 4179838.25 318.309997559
577130.6875 4179838.75 318.059997559
577129.9375 4179835.5 318.179992676
577130 4179835 318.220001221
577130 4179834.5 318.730010986
577130.0625 4179833.75 318.420013428
577130.0625 4179833.25 318.739990234
577130.125 4179832.75 319.109985352
577130.1875 4179832.25 319.059997559
577130.1875 4179831.5 318.220001221
577129.8125 4179831.75 318.549987793
577129.75 4179832.25 318.220001221
577129.75 4179832.75 318.470001221
577129.6875 4179833.5 318.459991455
577129.625 4179834 318.329986572
577129.625 4179834.5 318.450012207
577156.0625 4179861 318.459991455
577156.125 4179860.5 318.549987793
577156.125 4179860 318.709991455
577156.1875 4179859.5 318.329986572
577155.75 4179858.25 318.239990234
577155.75 4179858.75 318.309997559
577155.6875 4179859.5 318.700012207
577155.625 4179860 318.459991455
577155.625 4179860.5 318.720001221
577155.5625 4179861 318.489990234
577154.5625 4179861.5 318.589996338
577154.625 4179861 318.369995117
577154.625 4179860.5 318.630004883
577154.6875 4179860 319.130004883
577154.75 4179859.25 318.959991455
577154.75 4179858.75 318.640014648
577154.8125 4179858.25 318.609985352
577154.8125 4179857.5 318.630004883
577154.875 4179857 318.489990234
577154.875 4179856.5 318.269989014
577154.9375 4179855.75 318.380004883
577155 4179855.25 318.399993896
577155 4179854.75 318.170013428
577154.625 4179853 318.329986572
577154.5625 4179853.5 318.489990234
577154.5625 4179854.25 318.299987793
577154.5 4179854.75 318.470001221
577154.5 4179855.25 318.359985352
577154.4375 4179856 318.609985352
577154.4375 4179856.5 318.75
577154.375 4179857 318.679992676
577154.375 4179857.75 319.089996338
577154.3125 4179858.25 319.100006104
577154.25 4179858.75 318.980010986
577154.25 4179859.25 318.899993896
577154.1875 4179860 318.959991455
577154.125 4179860.5 318.470001221
577154.125 4179861 318.5
577154.0625 4179861.5 318.339996338
577153.0625 4179861.5 318.380004883
577153.125 4179861 318.959991455
577153.1875 4179860.5 318.730010986
577153.25 4179860 319.040008545
577153.25 4179859.5 319.450012207
577153.3125 4179858.75 319.190002441
577153.3125 4179858.25 319.160003662
577153.375 4179857.75 319.260009766
577153.4375 4179857 319
577153.4375 4179856.5 319.200012207
577153.5 4179856 318.940002441
577153.5 4179855.25 318.709991455
577153.5625 4179854.75 318.549987793
577153.5625 4179854.25 318.720001221
577153.625 4179853.75 318.660003662
577153.6875 4179853 318.75
577153.6875 4179852.5 318.529998779
577153.75 4179852 318.410003662
577153.75 4179851.25 318.429992676
577153.8125 4179850.75 318.559997559
577153.875 4179850.25 318.790008545
577153.875 4179849.5 318.160003662
577153.4375 4179848.5 318.329986572
577153.4375 4179849 318.540008545
577153.375 4179849.75 318.339996338
577153.375 4179850.25 318.450012207
577153.3125 4179850.75 318.649993896
577153.25 4179851.25 318.299987793
577153.25 4179852 318.480010986
577153.1875 4179852.5 318.549987793
577153.1875 4179853 318.880004883
577153.125 4179853.75 318.890014648
577153.125 4179854.25 318.910003662
577153.0625 4179854.75 318.739990234
577153.0625 4179855.5 318.989990234
577153 4179856 318.869995117
577152.9375 4179856.5 318.940002441
577152.9375 4179857 318.910003662
577152.875 4179857.75 319.380004883
577152.875 4179858.25 319.220001221
577152.8125 4179858.75 319.420013428
577152.75 4179859.25 319.109985352
577152.75 4179860 319.149993896
577152.6875 4179860.5 319.059997559
577152.6875 4179861 319.010009766
577152.625 4179861.5 318.540008545
577152.5625 4179862 318.559997559
577151.5625 4179862.25 318.179992676
577151.625 4179861.75 318.519989014
577151.6875 4179861.25 318.5
577151.75 4179860.75 319.079986572
577151.75 4179860.25 319.119995117
577151.8125 4179859.5 319.350006104
577151.875 4179859 319.309997559
577151.875 4179858.5 319.359985352
577151.9375 4179858 319.809997559
577152 4179857.25 319.529998779
577152 4179856.75 319.510009766
577152.0625 4179856.25 319.429992676
577152.0625 4179855.75 319.369995117
577152.125 4179855 319.299987793
577152.125 4179854.5 319.130004883
577152.1875 4179854 319.209991455
577152.1875 4179853.25 318.950012207
577152.25 4179852.75 318.929992676
577152.25 4179852.25 318.850006104
577152.3125 4179851.5 318.839996338
577152.375 4179851 319.269989014
577152.375 4179850.5 318.970001221
577152.4375 4179850 318.910003662
577152.5 4179849.25 318.970001221
577152.5 4179848.75 318.75
577152.5 4179848.25 318.549987793
577152.5625 4179847.5 318.260009766
577152.625 4179847 318.779998779
577152.625 4179846.5 318.489990234
577152.6875 4179845.75 318.290008545
577152.6875 4179845.25 318.309997559
577152.3125 4179844 318.170013428
577152.3125 4179844.5 318.470001221
577152.25 4179845 318.350006104
577152.25 4179845.75 318.519989014
577152.25 4179846.25 318.690002441
577152.1875 4179846.75 318.809997559
577152.125 4179847.5 318.570007324
577152.0625 4179848 318.380004883
577152.0625 4179848.5 318.589996338
577152 4179849.25 318.760009766
577152 4179849.75 318.850006104
577152 4179850.25 319.079986572
577151.9375 4179850.75 319.029998779
577151.875 4179851.5 319.130004883
577151.8125 4179852 318.809997559
577151.8125 4179852.5 319.339996338
577151.75 4179853.25 319.100006104
577151.75 4179853.75 319.510009766
577151.75 4179854.25 319.470001221
577151.6875 4179854.75 319.190002441
577151.625 4179855.5 319.679992676
577151.625 4179856 319.510009766
577151.5625 4179856.5 319.579986572
577151.5625 4179857.25 319.769989014
577151.5 4179857.75 319.720001221
577151.5 4179858.25 319.809997559
577151.4375 4179859 319.799987793
577151.375 4179859.5 319.369995117
577151.3125 4179860 319.160003662
577151.3125 4179860.5 319.25
577151.25 4179861 318.850006104
577151.1875 4179861.5 318.489990234
577151.125 4179862 318.25
577150.1875 4179862.5 318.350006104
577150.25 4179862 318.519989014
577150.25 4179861.25 318.440002441
577150.3125 4179861 319.149993896
577150.375 4179860.25 318.929992676
577150.375 4179859.75 319.109985352
577150.4375 4179859.25 319.109985352
577150.5 4179858.75 319.679992676
577150.5625 4179858.25 320.059997559
577150.5625 4179857.5 320.019989014
577150.625 4179857 319.839996338
577150.625 4179856.5 319.720001221
577150.6875 4179856 320.029998779
577150.75 4179855.25 320.260009766
577150.75 4179854.75 319.890014648
577150.75 4179854 319.619995117
577150.8125 4179853.5 319.5
577150.875 4179853 319.899993896
577150.875 4179852.5 319.690002441
577150.9375 4179851.75 319.489990234
577150.9375 4179851.25 319.160003662
577151 4179850.75 319.640014648
577151 4179850 319.399993896
577151.0625 4179849.5 319.179992676
577151.0625 4179849 319.200012207
577151.125 4179848.25 319.049987793
577151.125 4179847.75 318.869995117
577151.1875 4179847.25 319.140014648
577151.25 4179846.75 319.119995117
577151.25 4179846 318.910003662
577151.3125 4179845.5 318.690002441
577151.3125 4179845 318.779998779
577151.375 4179844.25 318.589996338
577151.375 4179843.75 318.75
577151.4375 4179843.25 318.470001221
577151.4375 4179842.5 318.459991455
577151.5 4179842 318.820007324
577151.5625 4179841.5 318.450012207
577151.5625 4179840.75 318.399993896
577151.625 4179840.25 318.220001221
577151.25 4179839 318.600006104
577151.25 4179839.5 318.839996338
577151.1875 4179840.25 318.820007324
577151.125 4179840.75 318.429992676
577151.125 4179841.25 318.309997559
577151.0625 4179841.75 318.470001221
577151 4179842.5 318.459991455
577151 4179843 318.519989014
577150.9375 4179843.5 318.570007324
577150.9375 4179844.25 318.799987793
577150.875 4179844.75 318.589996338
577150.875 4179845.25 319.010009766
577150.8125 4179846 319.239990234
577150.8125 4179846.5 319.109985352
577150.75 4179847 319.369995117
577150.75 4179847.75 319.290008545
577150.6875 4179848.25 319.429992676
577150.625 4179848.75 319.070007324
577150.625 4179849.25 319.269989014
577150.5625 4179850 319.549987793
577150.5625 4179850.5 319.380004883
577150.5 4179851 319.459991455
577150.5 4179851.75 319.880004883
577150.4375 4179852.25 320.070007324
577150.4375 4179853 320.230010986
577150.375 4179853.5 319.950012207
577150.3125 4179854 319.679992676
577150.3125 4179854.5 319.859985352
577150.25 4179855 320
577150.25 4179855.75 319.809997559
577150.1875 4179856.25 319.670013428
577150.125 4179856.75 319.630004883
577150.125 4179857.25 319.609985352
577150.0625 4179857.75 319.440002441
577150 4179858.5 319.5
577150 4179859 319.549987793
577149.9375 4179859.5 319.369995117
577149.9375 4179860.25 319.369995117
577149.8125 4179860.75 318.829986572
577149.8125 4179861.25 318.850006104
577149.75 4179861.75 318.540008545
577149.75 4179862.25 318.470001221
577149.6875 4179862.75 318.040008545
577148.75 4179862.5 318.480010986
577148.8125 4179862 318.690002441
577148.8125 4179861.5 318.480010986
577148.875 4179861 318.950012207
577148.9375 4179860.5 318.980010986
577149 4179859.75 319.279998779
577149 4179859.25 318.910003662
577149.0625 4179858.75 319.089996338
577149.125 4179858.25 319.5
577149.125 4179857.75 319.779998779
577149.1875 4179857 319.75
577149.25 4179856.5 319.760009766
577149.25 4179856 319.769989014
577149.3125 4179855.25 319.720001221
577149.3125 4179854.75 319.619995117
577149.375 4179854.25 319.399993896
577149.375 4179853.75 319.519989014
577149.4375 4179853 319.570007324
577149.5 4179852.5 319.869995117
577149.5 4179852 319.899993896
577149.5625 4179851.5 319.760009766
577149.5625 4179850.75 319.619995117
577149.625 4179850.25 319.679992676
577149.6875 4179849.75 319.769989014
577149.6875 4179849.25 319.970001221
577149.75 4179848.5 319.489990234
577149.75 4179848 319.529998779
577149.8125 4179847.5 319.529998779
577149.8125 4179846.75 319.529998779
577149.875 4179846.25 319.410003662
577149.875 4179845.75 319.279998779
577149.9375 4179845 319.440002441
577149.9375 4179844.5 319.279998779
577150 4179844 319.399993896
577150 4179843.25 318.989990234
577150.0625 4179842.75 318.940002441
577150.0625 4179842.25 318.769989014
577150.125 4179841.5 318.829986572
577150.1875 4179841 318.829986572
577150.1875 4179840.5 318.950012207
577150.25 4179839.75 318.609985352
577150.25 4179839.25 318.899993896
577150.3125 4179838.75 318.459991455
577150.3125 4179838 318.380004883
577150.375 4179837.5 318.549987793
577150.4375 4179837 318.739990234
577150.4375 4179836.5 318.720001221
577150.5 4179835.75 318.510009766
577150.125 4179834.5 318.420013428
577150.0625 4179835 318.290008545
577150.0625 4179835.75 318.390014648
577150 4179836.25 318.410003662
577150 4179836.75 318.700012207
577149.9375 4179837.5 318.649993896
577149.9375 4179838 318.510009766
577149.875 4179838.5 318.75
577149.875 4179839 318.739990234
577149.8125 4179839.75 318.739990234
577149.75 4179840.25 318.75
577149.75 4179840.75 318.769989014
577149.75 4179841.5 319.260009766
577149.6875 4179842 319
577149.6875 4179842.5 319.399993896
577149.625 4179843 319.309997559
577149.625 4179843.75 319.690002441
577149.5625 4179844.25 319.410003662
577149.5 4179844.75 319.320007324
577149.5 4179845.5 319.510009766
577149.4375 4179846 319.519989014
577149.375 4179846.5 319.470001221
577149.375 4179847 319.510009766
577149.3125 4179847.75 319.720001221
577149.3125 4179848.25 319.679992676
577149.25 4179848.75 319.730010986
577149.25 4179849.5 320
577149.1875 4179850 319.820007324
577149.1875 4179850.5 320.010009766
577149.125 4179851.25 320.089996338
577149.0625 4179851.75 320.070007324
577149.0625 4179852.25 320.179992676
577149 4179852.75 319.660003662
577148.9375 4179853.25 319.399993896
577148.9375 4179854 319.429992676
577148.875 4179854.5 319.029998779
577148.8125 4179855 319.230010986
577148.8125 4179855.5 319.299987793
577148.75 4179856.25 319.739990234
577148.75 4179856.75 319.549987793
577148.6875 4179857.25 319.279998779
577148.625 4179857.75 319.059997559
577148.625 4179858.25 319.010009766
577148.5625 4179859 318.940002441
577148.5 4179859.5 319.089996338
577148.5 4179860 318.920013428
577148.4375 4179860.5 318.630004883
577148.375 4179861 318.559997559
577148.375 4179861.75 318.600006104
577148.3125 4179862.25 318.570007324
577148.25 4179862.75 318.309997559
577147.375 4179862 318.119995117
577147.4375 4179861.5 318.720001221
577147.5 4179861 318.459991455
577147.5 4179860.5 318.730010986
577147.5625 4179859.75 318.369995117
577147.5625 4179859.25 318.600006104
577147.625 4179858.75 318.660003662
577147.6875 4179858.25 318.769989014
577147.6875 4179857.5 318.799987793
577147.75 4179857 318.809997559
577147.8125 4179856.5 318.959991455
577147.8125 4179856 318.959991455
577147.875 4179855.25 318.980010986
577147.875 4179854.75 319.149993896
577147.9375 4179854.25 319.410003662
577148 4179853.75 319.640014648
577148.0625 4179853.25 319.910003662
577148.0625 4179852.5 319.720001221
577148.125 4179852 320.170013428
577148.1875 4179851.5 320.429992676
577148.1875 4179851 320.269989014
577148.25 4179850.25 320.059997559
577148.25 4179849.75 319.989990234
577148.3125 4179849.25 320.010009766
577148.3125 4179848.5 319.869995117
577148.375 4179848 320.079986572
577148.4375 4179847.5 320.089996338
577148.4375 4179847 320.029998779
577148.5 4179846.25 319.959991455
577148.5 4179845.75 319.940002441
577148.5625 4179845.25 319.720001221
577148.5625 4179844.5 319.579986572
577148.625 4179844 319.420013428
577148.625 4179843.5 319.489990234
577148.6875 4179842.75 319.459991455
577148.6875 4179842.25 319.549987793
577148.75 4179841.75 319.399993896
577148.75 4179841.25 319.390014648
577148.8125 4179840.5 319.220001221
577148.875 4179840 319.239990234
577148.875 4179839.5 319.220001221
577148.9375 4179839 319.510009766
577148.9375 4179838.25 319.109985352
577149 4179837.75 318.970001221
577149 4179837 318.970001221
577149.0625 4179836.5 318.799987793
577149.125 4179836 319.119995117
577149.125 4179835.25 318.880004883
577149.125 4179834.75 318.420013428
577149.1875 4179834.25 319.089996338
577149.25 4179833.75 319.230010986
577149.25 4179833 319.130004883
577149.3125 4179832.5 318.980010986
577149.3125 4179832 318.940002441
577149.375 4179831.25 318.730010986
577149.375 4179830.75 318.529998779
577149.0625 4179830 318.570007324
577149 4179830.5 318.619995117
577149 4179831 318.260009766
577148.9375 4179831.5 318.399993896
577148.9375 4179832 318.410003662
577148.875 4179832.75 318.540008545
577148.875 4179833.25 318.720001221
577148.8125 4179834 318.730010986
577148.75 4179834.5 318.609985352
577148.75 4179835 318.920013428
577148.6875 4179835.5 318.640014648
577148.6875 4179836.25 318.850006104
577148.625 4179836.75 318.950012207
577148.625 4179837.25 318.929992676
577148.5625 4179838 319.200012207
577148.5625 4179838.5 319.25
577148.5 4179839 319.329986572
577148.4375 4179839.5 319.160003662
577148.4375 4179840.25 319.320007324
577148.375 4179840.75 319.519989014
577148.375 4179841.25 319.230010986
577148.3125 4179842 319.790008545
577148.3125 4179842.5 319.540008545
577148.25 4179843 319.579986572
577148.1875 4179843.5 319.459991455
577148.1875 4179844.25 319.700012207
577148.125 4179844.75 319.75
577148.125 4179845.25 319.869995117
577148.0625 4179846 319.859985352
577148.0625 4179846.5 319.679992676
577148 4179847 320.010009766
577148 4179847.75 320.119995117
577147.9375 4179848.25 320.079986572
577147.9375 4179848.75 320.5
577147.875 4179849.25 320.220001221
577147.8125 4179850 320.290008545
577147.8125 4179850.5 320.350006104
577147.75 4179851 320.649993896
577147.75 4179851.75 320.339996338
577147.6875 4179852.25 320.339996338
577147.625 4179852.75 319.989990234
577147.5625 4179853.25 319.570007324
577147.5625 4179853.75 319.760009766
577147.5 4179854.25 319.450012207
577147.4375 4179854.75 319.100006104
577147.4375 4179855.5 319.25
577147.375 4179856 319.029998779
577147.3125 4179856.5 318.890014648
577147.3125 4179857 318.950012207
577147.25 4179857.5 318.619995117
577147.25 4179858.25 318.670013428
577147.1875 4179858.75 318.540008545
577147.125 4179859.25 318.380004883
577147.0625 4179859.75 318.220001221
577147.0625 4179860.5 318.470001221
577147 4179861 318.170013428
577146.3125 4179857.75 318.399993896
577146.375 4179857.25 318.880004883
577146.4375 4179856.75 318.989990234
577146.4375 4179856 319.149993896
577146.5 4179855.5 319.260009766
577146.5 4179855 319.339996338
577146.5625 4179854.5 319.329986572
577146.625 4179854 319.649993896
577146.625 4179853.25 319.649993896
577146.6875 4179852.75 319.920013428
577146.75 4179852.25 320.149993896
577146.75 4179851.75 319.989990234
577146.8125 4179851.25 320.5
577146.875 4179850.5 320.420013428
577146.875 4179850 320.269989014
577146.9375 4179849.5 320.670013428
577147 4179849 320.440002441
577147 4179848.25 320.440002441
577147.0625 4179847.75 320.529998779
577147.0625 4179847.25 320.040008545
577147.125 4179846.75 320.540008545
577147.125 4179846 320.260009766
577147.1875 4179845.5 320.450012207
577147.1875 4179845 320.140014648
577147.25 4179844.25 319.950012207
577147.25 4179843.75 320.130004883
577147.3125 4179843 319.790008545
577147.3125 4179842.5 319.579986572
577147.375 4179842 320.089996338
577147.375 4179841.25 319.440002441
577147.4375 4179840.75 319.630004883
577147.5 4179840.25 319.570007324
577147.5 4179839.75 319.470001221
577147.5625 4179839 319.549987793
577147.5625 4179838.5 319.630004883
577147.625 4179838 319.290008545
577147.625 4179837.25 319.459991455
577147.6875 4179836.75 319.109985352
577147.6875 4179836.25 319.320007324
577147.75 4179835.5 319.130004883
577147.75 4179835 319.100006104
577147.8125 4179834.5 319.040008545
577147.8125 4179833.75 318.959991455
577147.875 4179833.25 319.209991455
577147.9375 4179832.75 319.350006104
577147.9375 4179832.25 318.989990234
577148 4179831.5 318.880004883
577148 4179831 318.649993896
577148.0625 4179830.5 318.700012207
577148.0625 4179829.75 318.75
577148.125 4179829.25 318.600006104
577148.125 4179828.75 318.700012207
577148.1875 4179828 318.890014648
577148.1875 4179827.5 318.209991455
577148.25 4179826.75 318.049987793
577147.875 4179827 318.109985352
577147.8125 4179827.75 318.440002441
577147.8125 4179828.25 318.640014648
577147.75 4179828.75 318.619995117
577147.75 4179829.5 318.760009766
577147.6875 4179830 318.929992676
577147.6875 4179830.5 318.739990234
577147.625 4179831.25 318.980010986
577147.5625 4179831.75 318.779998779
577147.5625 4179832.25 318.929992676
577147.5 4179832.75 319.109985352
577147.5 4179833.5 318.970001221
577147.5 4179834 319.329986572
577147.4375 4179834.75 319.690002441
577147.375 4179835.25 319.320007324
577147.375 4179835.75 319.170013428
577147.3125 4179836.25 319.299987793
577147.3125 4179836.75 319.510009766
577147.25 4179837.5 319.450012207
577147.25 4179838 319.619995117
577147.1875 4179838.5 319.649993896
577147.125 4179839 319.480010986
577147.125 4179839.75 319.700012207
577147.0625 4179840.25 319.630004883
577147.0625 4179840.75 319.760009766
577147 4179841.5 319.959991455
577147 4179842 319.970001221
577146.9375 4179842.5 320.089996338
577146.9375 4179843.25 320.209991455
577146.875 4179843.75 320.359985352
577146.8125 4179844.25 320.170013428
577146.8125 4179844.75 320.109985352
577146.75 4179845.5 320.380004883
577146.75 4179846 320.429992676
577146.6875 4179846.5 320.299987793
577146.6875 4179847.25 320.420013428
577146.625 4179847.75 320.630004883
577146.625 4179848.25 320.589996338
577146.5625 4179849 320.730010986
577146.5 4179849.5 320.619995117
577146.5 4179850 320.75
577146.4375 4179850.5 320.570007324
577146.4375 4179851.25 320.540008545
577146.375 4179851.75 320.420013428
577146.3125 4179852.25 320.070007324
577146.3125 4179852.75 320.190002441
577146.25 4179853.25 319.940002441
577146.1875 4179853.75 319.809997559
577146.125 4179854.25 319.350006104
577146.125 4179855 319.269989014
577146.0625 4179855.5 319.059997559
577146 4179856 318.640014648
577146 4179856.5 319.160003662
577145.9375 4179857.25 318.950012207
577145.875 4179857.75 318.589996338
577145.875 4179858.25 318.429992676
577144.9375 4179858 318.450012207
577145 4179857.5 318.720001221
577145 4179857 318.920013428
577145.0625 4179856.25 319.130004883
577145.125 4179855.75 319.309997559
577145.125 4179855.25 319.239990234
577145.1875 4179854.75 319.540008545
577145.25 4179854 319.5
577145.25 4179853.5 319.649993896
577145.3125 4179853 319.899993896
577145.375 4179852.5 319.929992676
577145.375 4179852 320.160003662
577145.4375 4179851.5 320.470001221
577145.5 4179850.75 320.690002441
577145.5 4179850.25 320.839996338
577145.5625 4179849.75 320.920013428
577145.625 4179849.25 320.760009766
577145.625 4179848.5 320.869995117
577145.6875 4179848 321.059997559
577145.6875 4179847.5 320.769989014
577145.75 4179846.75 320.660003662
577145.8125 4179846.25 321.140014648
577145.8125 4179845.75 320.660003662
577145.8125 4179845.25 320.559997559
577145.875 4179844.5 320.670013428
577145.9375 4179844 320.730010986
577145.9375 4179843.5 320.480010986
577146 4179842.75 320.390014648
577146 4179842.25 320.410003662
577146.0625 4179841.75 320.339996338
577146.0625 4179841.25 320.640014648
577146.125 4179840.5 320.480010986
577146.1875 4179840 320.609985352
577146.1875 4179839.25 319.890014648
577146.25 4179838.75 320.200012207
577146.25 4179838.25 319.799987793
577146.25 4179837.5 319.690002441
577146.3125 4179837 319.709991455
577146.3125 4179836.5 319.730010986
577146.375 4179836 319.549987793
577146.375 4179835.25 319.510009766
577146.4375 4179834.75 319.470001221
577146.5 4179834.25 319.470001221
577146.5 4179833.5 319.450012207
577146.5 4179833 319.140014648
577146.5625 4179832.5 319.339996338
577146.625 4179831.75 319.390014648
577146.625 4179831.25 318.989990234
577146.6875 4179830.75 319.079986572
577146.75 4179830 319.309997559
577146.75 4179829.5 318.950012207
577146.75 4179829 318.829986572
577146.8125 4179828.25 318.670013428
577146.8125 4179827.75 318.470001221
577146.4375 4179827.75 318.329986572
577146.375 4179828.25 318.420013428
577146.375 4179829 318.859985352
577146.3125 4179829.5 318.989990234
577146.3125 4179830 319.049987793
577146.25 4179830.75 319.279998779
577146.25 4179831.25 319.410003662
577146.25 4179831.75 319.570007324
577146.1875 4179832.25 319.549987793
577146.125 4179833 319.350006104
577146.125 4179833.5 319.399993896
577146.0625 4179834.25 319.899993896
577146.0625 4179834.75 319.690002441
577146 4179835.25 320.019989014
577146 4179835.75 319.890014648
577145.9375 4179836.5 320.059997559
577145.9375 4179837 320.049987793
577145.875 4179837.5 320
577145.8125 4179838 320.100006104
577145.8125 4179838.75 320.329986572
577145.75 4179839.25 319.989990234
577145.75 4179839.75 320.089996338
577145.6875 4179840.5 320.149993896
577145.6875 4179841 320.269989014
577145.625 4179841.5 320.399993896
577145.5625 4179842 320.239990234
577145.5625 4179842.75 320.549987793
577145.5 4179843.25 320.670013428
577145.5 4179843.75 320.470001221
577145.4375 4179844.5 320.600006104
577145.4375 4179845 320.700012207
577145.375 4179845.5 320.760009766
577145.375 4179846 320.690002441
577145.3125 4179846.75 320.630004883
577145.3125 4179847.25 321.010009766
577145.25 4179847.75 321.059997559
577145.25 4179848.5 321.200012207
577145.1875 4179849 321.589996338
577145.1875 4179849.5 321.470001221
577145.125 4179850 321.109985352
577145.0625 4179850.75 320.809997559
577145 4179851.25 320.640014648
577145 4179851.75 320.670013428
577144.9375 4179852.25 320.670013428
577144.875 4179852.75 320.290008545
577144.875 4179853.5 320.190002441
577144.8125 4179854 319.779998779
577144.75 4179854.5 319.489990234
577144.6875 4179855 319.230010986
577144.6875 4179855.5 319.339996338
577144.625 4179856 319.130004883
577144.5625 4179856.75 319.100006104
577144.5 4179857.25 318.529998779
577144.5 4179857.75 318.540008545
577144.4375 4179858.25 318.399993896
577143.5 4179858.75 318.489990234
577143.5625 4179858.25 318.559997559
577143.5625 4179857.75 318.670013428
577143.625 4179857 318.820007324
577143.6875 4179856.5 319.160003662
577143.6875 4179856 319.130004883
577143.75 4179855.5 319.359985352
577143.8125 4179855 319.75
577143.875 4179854.25 319.799987793
577143.875 4179853.75 319.980010986
577143.9375 4179853.25 320.040008545
577144 4179852.75 320.149993896
577144 4179852.25 320.359985352
577144.0625 4179851.75 320.619995117
577144.125 4179851.25 321.239990234
577144.125 4179850.5 320.920013428
577144.1875 4179850 321.010009766
577144.25 4179849.5 321.429992676
577144.25 4179849 321.230010986
577144.3125 4179848.25 321.160003662
577144.3125 4179847.75 321.220001221
577144.375 4179847.25 321.200012207
577144.375 4179846.5 321.100006104
577144.4375 4179846 320.959991455
577144.5 4179845.5 321.279998779
577144.5 4179844.75 320.739990234
577144.5625 4179844.25 320.970001221
577144.5625 4179843.75 320.950012207
577144.625 4179843.25 321.019989014
577144.625 4179842.5 320.679992676
577144.6875 4179842 320.570007324
577144.6875 4179841.25 320.489990234
577144.75 4179840.75 320.640014648
577144.75 4179840.25 320.359985352
577144.8125 4179839.75 320.619995117
577144.8125 4179839 320.390014648
577144.875 4179838.5 320.429992676
577144.875 4179838 320.320007324
577144.9375 4179837.25 320.220001221
577145 4179836.75 320.470001221
577145 4179836.25 320.480010986
577145 4179835.5 320.029998779
577145.0625 4179835 320.070007324
577145.125 4179834.5 320.230010986
577145.125 4179834 320.059997559
577145.1875 4179833.25 319.869995117
577145.1875 4179832.75 319.730010986
577145.25 4179832 319.609985352
577145.25 4179831.5 319.75
577145.25 4179831 319.200012207
577145.3125 4179830.25 319.070007324
577145.3125 4179829.75 319.040008545
577145.375 4179829 318.820007324
577145.375 4179828.5 318.579986572
577145.4375 4179828 318.549987793
577145 4179827.75 318.010009766
577145 4179828.25 318.369995117
577145 4179828.75 318.649993896
577144.9375 4179829.5 318.910003662
577144.9375 4179830 318.899993896
577144.9375 4179830.75 319.410003662
577144.875 4179831.25 319.390014648
577144.875 4179832 319.929992676
577144.8125 4179832.5 320.040008545
577144.75 4179833 319.700012207
577144.75 4179833.5 320.059997559
577144.6875 4179834.25 319.989990234
577144.6875 4179834.75 320.390014648
577144.625 4179835.25 320.179992676
577144.625 4179836 320.630004883
577144.5625 4179836.5 320.269989014
577144.5625 4179837 320.149993896
577144.5 4179837.5 320.529998779
577144.5 4179838.25 320.600006104
577144.4375 4179838.75 320.420013428
577144.4375 4179839.25 320.649993896
577144.375 4179840 320.769989014
577144.375 4179840.5 320.980010986
577144.3125 4179841 321
577144.25 4179841.5 320.839996338
577144.25 4179842.25 320.609985352
577144.1875 4179842.75 320.820007324
577144.1875 4179843.25 320.910003662
577144.125 4179843.75 320.679992676
577144.125 4179844.5 320.929992676
577144.0625 4179845 321.059997559
577144.0625 4179845.75 321.239990234
577144 4179846.25 321.200012207
577143.9375 4179846.75 321.200012207
577143.9375 4179847.25 321.510009766
577143.9375 4179848 321.739990234
577143.875 4179848.5 321.609985352
577143.8125 4179849 321.489990234
577143.75 4179849.5 321.029998779
577143.75 4179850 320.940002441
577143.6875 4179850.75 320.920013428
577143.625 4179851.25 320.670013428
577143.625 4179851.75 320.410003662
577143.5625 4179852.25 320.350006104
577143.5 4179852.75 320.119995117
577143.5 4179853.25 320.029998779
577143.4375 4179854 319.929992676
577143.375 4179854.5 319.859985352
577143.375 4179855 320.089996338
577143.3125 4179855.5 319.690002441
577143.25 4179856 319.440002441
577143.1875 4179856.5 318.899993896
577143.1875 4179857.25 319.040008545
577143.125 4179857.75 318.619995117
577143.0625 4179858.25 318.529998779
577143.0625 4179858.75 318.470001221
577142.125 4179858.75 318.100006104
577142.1875 4179858.25 318.640014648
577142.25 4179857.75 318.579986572
577142.25 4179857.25 319.059997559
577142.3125 4179856.75 318.970001221
577142.375 4179856.25 319.209991455
577142.375 4179855.5 319.269989014
577142.4375 4179855 319.489990234
577142.5 4179854.5 319.519989014
577142.5 4179854 319.709991455
577142.5625 4179853.5 320.260009766
577142.625 4179853 320.450012207
577142.625 4179852.25 320.5
577142.6875 4179851.75 320.529998779
577142.75 4179851.25 320.720001221
577142.75 4179850.75 321.049987793
577142.8125 4179850.25 321.209991455
577142.875 4179849.5 321.329986572
577142.875 4179849 321.329986572
577142.9375 4179848.5 321.609985352
577143 4179848 321.809997559
577143 4179847.25 321.299987793
577143.0625 4179846.75 321.529998779
577143.0625 4179846.25 321.5
577143.125 4179845.75 321.630004883
577143.125 4179845 321.410003662
577143.1875 4179844.5 321.5
577143.1875 4179844 321.399993896
577143.25 4179843.25 321.209991455
577143.3125 4179842.75 321.519989014
577143.3125 4179842.25 321.070007324
577143.3125 4179841.5 321.010009766
577143.375 4179841 321.079986572
577143.375 4179840.5 320.809997559
577143.4375 4179839.75 320.600006104
577143.5 4179839.25 320.890014648
577143.5 4179838.75 320.75
577143.5625 4179838.25 321.119995117
577143.5625 4179837.5 321.010009766
577143.625 4179837 320.5
577143.625 4179836.5 320.630004883
577143.6875 4179835.75 320.540008545
577143.6875 4179835.25 320.399993896
577143.75 4179834.75 320.220001221
577143.75 4179834 320.519989014
577143.8125 4179833.5 320.339996338
577143.8125 4179832.75 319.700012207
577143.875 4179832.25 319.649993896
577143.875 4179831.75 319.410003662
577143.9375 4179831 319.359985352
577143.9375 4179830.5 318.980010986
577143.9375 4179829.75 318.890014648
577144 4179829.25 318.859985352
577144 4179828.5 318.450012207
577144.0625 4179828 318.440002441
577143.625 4179828.25 318.279998779
577143.625 4179828.75 318.549987793
577143.5625 4179829.5 318.570007324
577143.5625 4179830 318.890014648
577143.5 4179830.5 318.880004883
577143.5 4179831.25 319.239990234
577143.5 4179831.75 319.570007324
577143.4375 4179832.5 319.660003662
577143.4375 4179833 319.850006104
577143.375 4179833.5 320.140014648
577143.375 4179834.25 320.230010986
577143.3125 4179834.75 320.359985352
577143.3125 4179835.25 320.760009766
577143.25 4179836 320.809997559
577143.25 4179836.5 320.790008545
577143.1875 4179837 320.850006104
577143.125 4179837.5 320.399993896
577143.125 4179838.25 320.839996338
577143.0625 4179838.75 320.790008545
577143.0625 4179839.5 321.179992676
577143.0625 4179840 321.160003662
577143 4179840.5 321.309997559
577143 4179841 321.269989014
577142.9375 4179841.75 321.149993896
577142.875 4179842.25 321.070007324
577142.875 4179842.75 321.230010986
577142.8125 4179843.25 321.109985352
577142.8125 4179844 321.390014648
577142.75 4179844.5 321.329986572
577142.75 4179845 321.480010986
577142.6875 4179845.5 321.420013428
577142.625 4179846.25 321.459991455
577142.625 4179846.75 321.549987793
577142.5625 4179847.25 321.589996338
577142.5625 4179848 321.519989014
577142.5 4179848.5 321.390014648
577142.5 4179849 321.290008545
577142.4375 4179849.5 321.25
577142.375 4179850 321.239990234
577142.375 4179850.75 321.130004883
577142.3125 4179851.25 320.809997559
577142.25 4179851.75 320.779998779
577142.25 4179852.25 320.540008545
577142.1875 4179852.75 320.559997559
577142.125 4179853.25 320.299987793
577142.125 4179854 320.410003662
577142.0625 4179854.5 320.070007324
577142 4179855 320
577141.9375 4179855.5 319.519989014
577141.9375 4179856 319.220001221
577141.875 4179856.5 319.149993896
577141.875 4179857.25 319.399993896
577141.75 4179857.75 318.769989014
577141.75 4179858.25 318.510009766
577141.6875 4179858.75 318.470001221
577141.625 4179859.25 318.040008545
577140.75 4179859.5 318.380004883
577140.8125 4179858.75 318.369995117
577140.875 4179858.5 319.089996338
577140.875 4179857.75 319.019989014
577140.9375 4179857.25 319.279998779
577140.9375 4179856.75 319.220001221
577141 4179856.25 319.329986572
577141.0625 4179855.75 320.010009766
577141.125 4179855 319.980010986
577141.125 4179854.5 319.850006104
577141.1875 4179854 320.049987793
577141.1875 4179853.5 320.179992676
577141.25 4179853 320.380004883
577141.3125 4179852.25 320.670013428
577141.375 4179851.75 320.839996338
577141.375 4179851.25 320.959991455
577141.4375 4179850.75 321.100006104
577141.4375 4179850.25 320.980010986
577141.5 4179849.5 321.010009766
577141.5 4179849 320.910003662
577141.5625 4179848.5 320.980010986
577141.625 4179847.75 321.059997559
577141.625 4179847.25 321.529998779
577141.6875 4179846.75 321.179992676
577141.6875 4179846.25 321.089996338
577141.75 4179845.75 321.260009766
577141.75 4179845 321.290008545
577141.8125 4179844.5 321.559997559
577141.875 4179844 321.589996338
577141.875 4179843.5 321.670013428
577141.9375 4179842.75 321.679992676
577142 4179842.25 321.630004883
577142 4179841.75 321.489990234
577142 4179841 321.350006104
577142.0625 4179840.5 321.549987793
577142.125 4179840 321.559997559
577142.125 4179839.5 321.5
577142.1875 4179838.75 321.359985352
577142.1875 4179838.25 321.230010986
577142.25 4179837.75 321.339996338
577142.25 4179837 321.100006104
577142.3125 4179836.5 321.089996338
577142.3125 4179836 320.890014648
577142.375 4179835.25 320.570007324
577142.375 4179834.75 320.380004883
577142.4375 4179834 320.390014648
577142.4375 4179833.5 320.089996338
577142.5 4179833 320.130004883
577142.5 4179832.25 319.829986572
577142.5 4179831.75 319.369995117
577142.5625 4179831 319.230010986
577142.5625 4179830.5 318.980010986
577142.625 4179830 319.119995117
577142.625 4179829.25 318.739990234
577142.625 4179828.75 318.5
577142.25 4179828.75 318.570007324
577142.25 4179829.25 318.660003662
577142.1875 4179830 319.269989014
577142.1875 4179830.5 319.329986572
577142.125 4179831 319.309997559
577142.125 4179831.75 319.170013428
577142.0625 4179832.25 319.640014648
577142.0625 4179832.75 319.769989014
577142 4179833.5 319.959991455
577142 4179834.25 320.589996338
577141.9375 4179834.75 320.170013428
577141.9375 4179835.25 320.700012207
577141.9375 4179835.75 320.619995117
577141.875 4179836.5 320.989990234
577141.875 4179837 321.239990234
577141.8125 4179837.75 321.290008545
577141.8125 4179838.25 321.230010986
577141.75 4179838.75 321.339996338
577141.75 4179839.25 321.489990234
577141.6875 4179840 321.519989014
577141.625 4179840.5 321.329986572
577141.625 4179841 321.350006104
577141.5625 4179841.5 321.510009766
577141.5625 4179842.25 321.450012207
577141.5 4179842.75 321.279998779
577141.5 4179843.25 321.410003662
577141.4375 4179843.75 321.549987793
577141.375 4179844.25 321.140014648
577141.375 4179845 321.619995117
577141.3125 4179845.5 321.25
577141.25 4179846 320.970001221
577141.25 4179846.5 320.970001221
577141.25 4179847.25 321.269989014
577141.1875 4179847.75 321.209991455
577141.125 4179848.25 320.920013428
577141.125 4179848.75 320.970001221
577141.0625 4179849.25 320.640014648
577141 4179850 320.899993896
577141 4179850.5 320.600006104
577140.9375 4179851 320.450012207
577140.875 4179851.5 320.579986572
577140.875 4179852.25 320.600006104
577140.8125 4179852.75 320.630004883
577140.75 4179853.25 320.170013428
577140.75 4179853.75 320.450012207
577140.6875 4179854.25 320.070007324
577140.6875 4179855 319.799987793
577140.625 4179855.5 319.480010986
577140.5625 4179856 319.420013428
577140.5 4179856.5 319.279998779
577140.5 4179857 318.970001221
577140.4375 4179857.5 318.920013428
577140.375 4179858.25 318.839996338
577140.375 4179858.75 319.029998779
577140.3125 4179859.25 318.769989014
577139.375 4179859.75 318.350006104
577139.4375 4179859.25 318.570007324
577139.5 4179858.75 318.859985352
577139.5 4179858 318.739990234
577139.5625 4179857.5 318.589996338
577139.625 4179857 319.309997559
577139.625 4179856.5 319.179992676
577139.6875 4179856 319.269989014
577139.75 4179855.5 319.549987793
577139.75 4179854.75 319.730010986
577139.8125 4179854.25 319.880004883
577139.875 4179853.75 320.089996338
577139.875 4179853.25 320.170013428
577139.9375 4179852.75 320.760009766
577140 4179852.25 320.829986572
577140 4179851.5 320.739990234
577140.0625 4179851 320.690002441
577140.0625 4179850.5 320.339996338
577140.125 4179849.75 320.480010986
577140.125 4179849.25 320.399993896
577140.1875 4179848.75 320.779998779
577140.25 4179848.25 320.880004883
577140.25 4179847.75 320.859985352
577140.3125 4179847 320.549987793
577140.3125 4179846.5 320.850006104
577140.375 4179846 320.709991455
577140.375 4179845.25 320.739990234
577140.4375 4179844.75 321.059997559
577140.5 4179844.25 321.109985352
577140.5 4179843.75 321.299987793
577140.5625 4179843 320.899993896
577140.5625 4179842.5 321.25
577140.625 4179842 321.160003662
577140.6875 4179841.5 321.399993896
577140.6875 4179841 321.640014648
577140.75 4179840.5 321.589996338
577140.8125 4179839.75 321.809997559
577140.8125 4179839.25 321.579986572
577140.8125 4179838.75 321.5
577140.875 4179838 321.359985352
577140.875 4179837.5 321.239990234
577140.9375 4179837 321.140014648
577141 4179836.25 321.140014648
577141 4179835.75 320.649993896
577141 4179835 320.510009766
577141 4179834.5 320.140014648
577141.0625 4179834 320.059997559
577141.0625 4179833.25 319.959991455
577141.125 4179832.75 319.540008545
577141.125 4179832.25 319.670013428
577141.1875 4179831.5 319.299987793
577141.1875 4179831 319.179992676
577141.25 4179830.25 319
577141.25 4179829.75 319.179992676
577141.3125 4179829.25 318.980010986
577141.3125 4179828.5 318.200012207
577140.9375 4179828 318.230010986
577140.875 4179828.5 318.450012207
577140.875 4179829.25 318.519989014
577140.8125 4179829.75 318.649993896
577140.8125 4179830.25 318.890014648
577140.75 4179831 318.799987793
577140.75 4179831.5 319.059997559
577140.75 4179832.25 319.519989014
577140.6875 4179832.75 319.660003662
577140.6875 4179833.25 319.899993896
577140.625 4179834 319.730010986
577140.625 4179834.5 320.049987793
577140.5625 4179835.25 320.399993896
577140.5625 4179835.75 320.660003662
577140.5 4179836.25 320.880004883
577140.5 4179837 320.890014648
577140.5 4179837.5 321.079986572
577140.4375 4179838 321.329986572
577140.4375 4179838.75 321.75
577140.375 4179839.25 321.410003662
577140.375 4179839.75 321.829986572
577140.3125 4179840.25 321.359985352
577140.25 4179841 321.450012207
577140.25 4179841.5 321.130004883
577140.1875 4179842 321.149993896
577140.125 4179842.5 321.109985352
577140.125 4179843 320.950012207
577140.0625 4179843.75 320.899993896
577140.0625 4179844.25 321.109985352
577140 4179844.75 321.049987793
577139.9375 4179845.25 320.820007324
577139.9375 4179846 320.940002441
577139.875 4179846.5 320.649993896
577139.8125 4179847 320.640014648
577139.8125 4179847.5 320.720001221
577139.75 4179848 320.309997559
577139.75 4179848.75 320.679992676
577139.6875 4179849.25 320.440002441
577139.6875 4179849.75 320.480010986
577139.625 4179850.25 320.299987793
577139.5625 4179851 320.299987793
577139.5 4179851.5 319.959991455
577139.5 4179852 320.130004883
577139.4375 4179852.5 319.720001221
577139.4375 4179853 319.760009766
577139.375 4179853.75 320.029998779
577139.375 4179854.25 320.040008545
577139.3125 4179854.75 319.579986572
577139.25 4179855.25 319.670013428
577139.25 4179856 319.730010986
577139.1875 4179856.5 319.410003662
577139.125 4179857 319.070007324
577139.125 4179857.5 319.190002441
577139.0625 4179858 319.119995117
577139 4179858.5 318.660003662
577139 4179859.25 318.470001221
577138.9375 4179859.75 318.429992676
577138.8125 4179860 316.980010986
577137.9375 4179860 317.489990234
577138.0625 4179859.75 318.459991455
577138.0625 4179859.25 318.75
577138.125 4179858.5 318.630004883
577138.1875 4179858 319.070007324
577138.1875 4179857.5 319.179992676
577138.25 4179857 319.190002441
577138.25 4179856.25 319.329986572
577138.3125 4179855.75 319.549987793
577138.375 4179855.25 319.329986572
577138.4375 4179854.75 319.850006104
577138.4375 4179854.25 319.720001221
577138.4375 4179853.5 319.459991455
577138.5 4179853 319.679992676
577138.5625 4179852.5 319.700012207
577138.5625 4179852 319.790008545
577138.625 4179851.25 319.850006104
577138.6875 4179850.75 320.010009766
577138.6875 4179850.25 319.989990234
577138.75 4179849.75 320.119995117
577138.75 4179849 320.119995117
577138.8125 4179848.5 320.040008545
577138.8125 4179848 320.089996338
577138.875 4179847.5 320.720001221
577138.9375 4179846.75 320.160003662
577138.9375 4179846.25 320.279998779
577139 4179845.75 320.390014648
577139 4179845.25 320.470001221
577139.0625 4179844.5 320.410003662
577139.125 4179844 320.880004883
577139.125 4179843.5 320.779998779
577139.1875 4179843 320.890014648
577139.1875 4179842.25 320.850006104
577139.25 4179841.75 320.769989014
577139.25 4179841.25 320.880004883
577139.3125 4179840.75 321.089996338
577139.375 4179840.25 321.290008545
577139.375 4179839.5 321.190002441
577139.4375 4179839 321.010009766
577139.4375 4179838.5 320.929992676
577139.5 4179837.75 320.989990234
577139.5 4179837.25 320.850006104
577139.5625 4179836.75 320.760009766
577139.625 4179836.25 320.970001221
577139.625 4179835.5 320.369995117
577139.625 4179834.75 319.940002441
577139.6875 4179834.25 320.109985352
577139.6875 4179833.75 319.899993896
577139.6875 4179833 319.589996338
577139.75 4179832.5 319.570007324
577139.75 4179832 319.459991455
577139.8125 4179831.25 318.970001221
577139.8125 4179830.75 318.600006104
577139.875 4179830 318.899993896
577139.875 4179829.5 318.820007324
577139.9375 4179829 318.589996338
577139.9375 4179828.5 318.829986572
577140 4179827.75 318.910003662
577140 4179827.25 318.619995117
577139.625 4179827.25 318.510009766
577139.5625 4179827.75 318.690002441
577139.5625 4179828.25 318.890014648
577139.5 4179829 318.950012207
577139.5 4179829.5 319.130004883
577139.4375 4179830 318.910003662
577139.4375 4179830.75 319.470001221
577139.4375 4179831.25 319.510009766
577139.375 4179832 319.820007324
577139.3125 4179832.25 319.269989014
577139.3125 4179833 319.75
577139.25 4179833.5 319.609985352
577139.25 4179834.25 320.320007324
577139.25 4179834.75 320.670013428
577139.1875 4179835.25 320.459991455
577139.1875 4179836 320.579986572
577139.125 4179836.5 320.679992676
577139.125 4179837.25 320.989990234
577139.0625 4179837.75 321.190002441
577139.0625 4179838.25 321.420013428
577139 4179839 321.290008545
577139 4179839.5 321.070007324
577138.9375 4179840 320.700012207
577138.875 4179840.5 321.019989014
577138.875 4179841 320.739990234
577138.8125 4179841.75 320.829986572
577138.75 4179842.25 320.579986572
577138.75 4179842.75 320.600006104
577138.6875 4179843.25 320.720001221
577138.6875 4179843.75 320.589996338
577138.625 4179844.5 320.470001221
577138.5625 4179845 320.230010986
577138.5625 4179845.5 320.260009766
577138.5 4179846 320.070007324
577138.5 4179846.75 320.320007324
577138.4375 4179847.25 320.339996338
577138.4375 4179847.75 320.140014648
577138.375 4179848.25 320.079986572
577138.3125 4179848.75 319.690002441
577138.3125 4179849.5 320.179992676
577138.25 4179850 319.940002441
577138.25 4179850.5 319.799987793
577138.1875 4179851 319.670013428
577138.125 4179851.5 319.399993896
577138.125 4179852.25 319.619995117
577138.0625 4179852.75 319.640014648
577138 4179853.25 319.540008545
577138 4179853.75 319.480010986
577137.9375 4179854.5 319.489990234
577137.9375 4179855 319.279998779
577137.875 4179855.5 319.239990234
577137.8125 4179856 319.279998779
577137.8125 4179856.75 319.149993896
577137.75 4179857.25 318.980010986
577137.75 4179857.75 319.190002441
577137.6875 4179858.25 318.970001221
577137.625 4179858.75 318.630004883
577137.625 4179859.5 318.859985352
577137.5625 4179860 318.299987793
577137.4375 4179860.25 317.019989014
577136.6875 4179860 318.609985352
577136.6875 4179859.5 318.5
577136.75 4179859 318.690002441
577136.75 4179858.5 318.910003662
577136.8125 4179858 318.890014648
577136.875 4179857.25 319.100006104
577136.875 4179856.75 319.109985352
577136.9375 4179856.25 318.920013428
577136.9375 4179855.5 318.970001221
577137 4179855 319.290008545
577137 4179854.5 318.929992676
577137.0625 4179854 319.570007324
577137.125 4179853.5 319.559997559
577137.125 4179852.75 319.579986572
577137.1875 4179852.25 319.660003662
577137.1875 4179851.75 319.220001221
577137.25 4179851.25 319.660003662
577137.3125 4179850.5 319.549987793
577137.3125 4179850 319.5
577137.375 4179849.5 320.040008545
577137.4375 4179849 320.109985352
577137.4375 4179848.25 320.070007324
577137.5 4179847.75 319.769989014
577137.5 4179847.25 319.709991455
577137.5625 4179846.75 320.109985352
577137.5625 4179846 319.859985352
577137.625 4179845.5 320.059997559
577137.625 4179845 320.019989014
577137.6875 4179844.25 319.980010986
577137.75 4179843.75 320.040008545
577137.75 4179843.25 320.660003662
577137.8125 4179842.75 320.390014648
577137.8125 4179842 320.179992676
577137.875 4179841.5 320.519989014
577137.875 4179841 320.279998779
577137.9375 4179840.5 320.5
577138 4179840 320.600006104
577138 4179839.25 320.410003662
577138.0625 4179838.75 320.829986572
577138.0625 4179838.25 320.459991455
577138.125 4179837.5 320.470001221
577138.1875 4179837 320.570007324
577138.1875 4179836.5 320.619995117
577138.25 4179836 320.450012207
577138.25 4179835.25 320.230010986
577138.25 4179834.75 320
577138.3125 4179834 319.649993896
577138.3125 4179833.5 319.769989014
577138.375 4179832.75 319.450012207
577138.375 4179832.25 319.429992676
577138.375 4179831.75 319.059997559
577138.4375 4179831 318.950012207
577138.5 4179830.5 319.029998779
577138.5 4179830 319.239990234
577138.5625 4179829.5 319.200012207
577138.5625 4179828.75 319.049987793
577138.5625 4179828.25 318.519989014
577138.625 4179827.5 318.410003662
577138.625 4179827 318.290008545
577138.25 4179827.25 318.350006104
577138.25 4179827.75 318.579986572
577138.1875 4179828.25 318.609985352
577138.1875 4179829 319.109985352
577138.125 4179829.5 319.220001221
577138.125 4179830 319.190002441
577138.0625 4179830.75 319.269989014
577138 4179831.25 318.970001221
577138 4179831.75 318.899993896
577138 4179832.5 319.410003662
577137.9375 4179833 319.549987793
577137.875 4179833.5 319.5
577137.875 4179834.25 319.660003662
577137.875 4179834.75 320.100006104
577137.8125 4179835.25 320.119995117
577137.8125 4179836 320.619995117
577137.75 4179836.5 320.529998779
577137.75 4179837 320.410003662
577137.6875 4179837.75 320.489990234
577137.625 4179838.25 320.320007324
577137.625 4179838.75 320.329986572
577137.5625 4179839.25 320.440002441
577137.5625 4179840 320.410003662
577137.5 4179840.5 320.200012207
577137.5 4179841 320.239990234
577137.4375 4179841.75 320.700012207
577137.4375 4179842.25 320.570007324
577137.375 4179842.75 320.140014648
577137.3125 4179843.25 319.989990234
577137.3125 4179843.75 319.980010986
577137.25 4179844.5 320.079986572
577137.1875 4179845 319.760009766
577137.1875 4179845.5 319.920013428
577137.125 4179846 319.709991455
577137.125 4179846.5 319.850006104
577137.0625 4179847.25 319.820007324
577137 4179847.75 319.760009766
577137 4179848.25 319.399993896
577136.9375 4179848.75 319.600006104
577136.9375 4179849.5 319.489990234
577136.875 4179850 319.450012207
