# .PCD v.7 - Point Cloud Data file format
VERSION .7
FIELDS x y z
SIZE 4 4 4
TYPE F F F
COUNT 1 1 1
WIDTH 316
HEIGHT 1
VIEWPOINT 0 0 0 1 0 0 0
POINTS 316
DATA ascii
577181.875 4179869.5 326.130004883
577181.9375 4179869 325.339996338
577181.875 4179867.5 322.769989014
577181.9375 4179867 323.010009766
577181.75 4179860.5 318.619995117
577181.5625 4179865.5 323.320007324
577181.5625 4179866.25 324.059997559
577181.5 4179866.75 323.820007324
577181.5 4179867.25 323.859985352
577181.5 4179868 325.489990234
577181.4375 4179868.75 325.760009766
577181.4375 4179869.5 326.790008545
577181.4375 4179870 326.899993896
577181.3125 4179871 325.779998779
577181.25 4179871.5 326.190002441
577181.1875 4179872 325.920013428
577180.25 4179872.25 325.549987793
577180.3125 4179871.75 326.269989014
577180.375 4179871.25 326.720001221
577180.375 4179870.5 325.160003662
577180.3125 4179869.75 324.029998779
577180.5 4179869.5 326.489990234
577180.5625 4179869 327.079986572
577180.5625 4179868.5 326.820007324
577180.5625 4179867.75 326.079986572
577180.6875 4179866.75 326.290008545
577180.75 4179866 326.179992676
577180.6875 4179865.25 323.929992676
577180.75 4179864.75 324.970001221
577180.6875 4179863.75 321.640014648
577180.6875 4179861.75 318.660003662
577180.75 4179861.25 319.079986572
577180.8125 4179860.75 319.489990234
577180.875 4179860.25 319.929992676
577180.9375 4179859.75 320.010009766
577181 4179859.25 320.619995117
577180.5625 4179858.75 321.660003662
577180.5625 4179859.5 321.920013428
577180.5 4179860 321.75
577180.375 4179860.25 320.269989014
577180.3125 4179861 320.179992676
577180.25 4179861.25 319.140014648
577180.1875 4179861.75 318.970001221
577180.25 4179863.5 322.279998779
577180.1875 4179863.75 321.480010986
577180.125 4179864.5 321.369995117
577180.25 4179865.5 325.570007324
577180.1875 4179866 324.799987793
577180.1875 4179866.75 326.230010986
577180.1875 4179867.5 327.320007324
577180.125 4179868 326.890014648
577180.0625 4179868.25 325.839996338
577180 4179869 325.779998779
577180 4179869.5 326.079986572
577180 4179870.25 327.279998779
577179.875 4179870.5 325.690002441
577179.8125 4179871 324.890014648
577179.8125 4179871.75 326.019989014
577179.75 4179872.25 325.25
577178.875 4179872.5 327.880004883
577178.875 4179871 325.579986572
577178.9375 4179870.5 326.540008545
577178.9375 4179870 325.320007324
577179 4179869.5 326.200012207
577179.0625 4179869 326.450012207
577179.125 4179868.25 325.880004883
577179.1875 4179867.25 326.260009766
577179.25 4179866.75 325.989990234
577179.3125 4179866 326.369995117
577179.3125 4179865.5 325.850006104
577179.1875 4179864.5 321.910003662
577179.25 4179864 322.130004883
577179.3125 4179863.5 322.660003662
577179.375 4179862.75 322.510009766
577179.375 4179862.25 321.839996338
577179.4375 4179861.5 322.010009766
577179.4375 4179861 321.589996338
577179.5625 4179860.5 323.010009766
577179.5625 4179860 322.619995117
577179.5625 4179859.5 322.25
577179.625 4179858.75 322.059997559
577179.6875 4179858.25 322.160003662
577179.6875 4179857.5 321.660003662
577179.6875 4179856.75 319.779998779
577179.625 4179856 318.489990234
577179.25 4179856.25 320.149993896
577179.25 4179856.75 320.940002441
577179.25 4179857.5 321.989990234
577179.25 4179858.25 323.309997559
577179.1875 4179858.75 323.420013428
577179.125 4179859.5 323.529998779
577179.0625 4179860 323.029998779
577179.0625 4179860.5 323.380004883
577179 4179861 322.489990234
577178.9375 4179861.5 322.269989014
577178.875 4179862 322.410003662
577178.8125 4179862.75 322.230010986
577178.75 4179863.75 322.690002441
577178.75 4179864.5 323.130004883
577178.8125 4179865.25 326.059997559
577178.8125 4179866.25 327.690002441
577178.6875 4179866.25 324.899993896
577178.6875 4179867 326.130004883
577178.6875 4179867.75 326.239990234
577178.6875 4179868.5 328.170013428
577178.5625 4179868.75 326.859985352
577178.5 4179869.25 325.510009766
577178.4375 4179869.75 325.690002441
577178.5 4179870.75 328.600006104
577178.375 4179871 326.029998779
577178.4375 4179871.75 328.459991455
577178.375 4179872.25 327.859985352
577177.4375 4179871.25 326.769989014
577177.5 4179870.75 327.029998779
577177.625 4179870.5 329.130004883
577177.6875 4179869.75 328.649993896
577177.75 4179868.75 328.029998779
577177.6875 4179867.75 325.440002441
577177.6875 4179867.25 325.350006104
577177.75 4179866.75 325.739990234
577177.75 4179866.25 325.450012207
577177.9375 4179866 328.220001221
577177.75 4179864.75 323.329986572
577177.8125 4179863.5 322.130004883
577177.875 4179863 322.149993896
577177.875 4179862.25 322.089996338
577177.9375 4179861.75 321.910003662
577178 4179861.25 322.200012207
577178.0625 4179860.75 323.470001221
577178.125 4179860.25 324.149993896
577178.1875 4179859.75 323.720001221
577178.25 4179859.25 324.339996338
577178.3125 4179858.75 325.140014648
577178.3125 4179858 324.309997559
577178.375 4179857.5 324.529998779
577178.3125 4179856.5 321.660003662
577178.3125 4179856 321.640014648
577178.375 4179855.5 320.929992676
577177.8125 4179855 320.040008545
577177.875 4179855.75 321.329986572
577177.875 4179856.5 323.029998779
577177.875 4179857.25 323.559997559
577177.875 4179857.75 324.489990234
577177.8125 4179858.5 324.970001221
577177.8125 4179859 325.790008545
577177.75 4179859.75 325.739990234
577177.6875 4179860.25 325.149993896
577177.625 4179860.75 324.910003662
577177.5625 4179861 323.130004883
577177.5 4179861.5 322.839996338
577177.25 4179861.75 318.940002441
577177.25 4179862.25 319.059997559
577177.4375 4179863.5 325.559997559
577177.375 4179864 323.709991455
577177.3125 4179864.5 324.450012207
577177.3125 4179865.25 325.260009766
577177.1875 4179865.5 322.359985352
577177.3125 4179866.75 327.880004883
577177.3125 4179867.25 327.869995117
577177.25 4179867.75 327.170013428
577177.125 4179868 325.820007324
577177.1875 4179869 328.739990234
577177.125 4179869.5 327.980010986
577177.0625 4179870 327.779998779
577177.125 4179870.75 329.149993896
577177 4179871.25 328.609985352
577176.9375 4179872.25 327.989990234
577176.875 4179872.75 327.910003662
577175.875 4179873.25 327.029998779
577175.9375 4179872.75 327.179992676
577175.9375 4179872 326.470001221
577176.0625 4179871.75 328.489990234
577176.0625 4179870.25 326.649993896
577176.0625 4179869.5 324.829986572
577176.25 4179869.5 329.329986572
577176.3125 4179869 328.899993896
577176.3125 4179868.25 328.739990234
577176.25 4179867.25 325.329986572
577176.25 4179866.75 324.459991455
577176.375 4179866.5 326.529998779
577176.375 4179865.75 326.429992676
577176.4375 4179865.25 326.709991455
577176.5 4179864.75 326.739990234
577176.5 4179864.25 326.690002441
577176.25 4179862.75 319.390014648
577176.3125 4179862.25 319.700012207
577176.375 4179861.75 320
577176.375 4179861 319.309997559
577176.5 4179860.5 319.920013428
577176.6875 4179860.5 324.260009766
577176.6875 4179859.75 323.649993896
577176.8125 4179859.5 325.950012207
577176.8125 4179858.75 324.839996338
577176.875 4179858.25 325.420013428
577176.9375 4179857.75 325.089996338
577176.875 4179857 323.209991455
577176.9375 4179856.5 323.299987793
577176.875 4179855.5 320.429992676
577176.875 4179854.75 319.890014648
577176.375 4179855 320
577176.375 4179855.75 320.820007324
577176.4375 4179856.5 322.380004883
577176.4375 4179857.25 323.640014648
577176.4375 4179857.75 324.640014648
577176.375 4179858.5 325.170013428
577176.375 4179859 325.559997559
577176.3125 4179859.75 325.670013428
577176.25 4179860 324.489990234
577176.1875 4179860.5 324.480010986
577176.125 4179861 322.989990234
577176 4179861.25 321.239990234
577175.9375 4179861.75 320.609985352
577176.0625 4179863 325.070007324
577176 4179863.5 325.269989014
577176 4179864.25 326.619995117
577175.9375 4179864.75 325.779998779
577175.875 4179865.25 325.049987793
577175.875 4179865.75 326.149993896
577175.875 4179866.5 327.220001221
577175.75 4179867 325.760009766
577175.875 4179868 329.100006104
577175.6875 4179868 325.149993896
577175.6875 4179868.5 325.709991455
577175.5 4179869.5 324.709991455
577175.5625 4179870.25 326.160003662
577175.5 4179871 326.829986572
577175.5625 4179871.75 328.079986572
577175.5625 4179872.25 329.149993896
577174.625 4179871.75 328.809997559
577174.6875 4179871.25 328.510009766
577174.5625 4179870.25 324.410003662
577174.75 4179870.25 328.459991455
577174.75 4179869.5 327.630004883
577174.8125 4179869 328.079986572
577174.875 4179868.5 328.609985352
577174.9375 4179868 329.070007324
577174.9375 4179867.25 328.309997559
577174.9375 4179866.5 326.350006104
577175 4179866 327.019989014
577175.0625 4179865.5 327.600006104
577175.0625 4179865 327.329986572
577175.0625 4179864.25 326.649993896
577175.0625 4179863.75 325.910003662
577175.125 4179863.25 326.269989014
577174.9375 4179861.75 319.959991455
577175 4179861.25 319.950012207
577175 4179860.75 320.040008545
577175.125 4179860.25 321.440002441
577175.25 4179860 323.959991455
577175.3125 4179859.5 324.589996338
577175.375 4179859 325.200012207
577175.4375 4179858.5 324.890014648
577175.4375 4179857.75 324.220001221
577175.4375 4179857 322.929992676
577175.5 4179856.5 323.670013428
577175.5 4179855.75 322.390014648
577175.5 4179855 321.089996338
577175 4179855 320.299987793
577175 4179855.75 321.260009766
577175 4179856.5 322.540008545
577175 4179857 323.140014648
577174.9375 4179857.75 323.739990234
577174.875 4179858.25 323.450012207
577174.875 4179858.75 323.809997559
577174.875 4179859.5 324.399993896
577174.8125 4179860 324.040008545
577174.75 4179860.5 323.820007324
577174.625 4179861 322.329986572
577174.5 4179861.25 320.529998779
577174.5 4179861.75 320.25
577174.4375 4179862.5 320.730010986
577174.625 4179863.5 325.75
577174.625 4179864.25 327.160003662
577174.625 4179865 327.910003662
577174.5 4179866 327.450012207
577174.4375 4179866.5 327.130004883
577174.4375 4179867.25 327.339996338
577174.4375 4179868 328.779998779
577174.375 4179868.25 327.579986572
577174.3125 4179869 328.309997559
577174.3125 4179869.5 328.260009766
577174.25 4179870 328.450012207
577174.25 4179870.75 328.670013428
577174.1875 4179871.25 328.269989014
577174.125 4179871.75 328.579986572
577173.5625 4179867 328.220001221
577173.4375 4179862.5 319.779998779
577173.5 4179862 320.279998779
577173.5625 4179861.25 319.970001221
577173.625 4179861 321.649993896
577173.75 4179860.5 322.679992676
577173.75 4179860 322.339996338
577173.8125 4179859.5 322.970001221
577173.875 4179859 322.679992676
577173.875 4179858.25 322.450012207
577173.875 4179857.75 321.709991455
577173.9375 4179857.25 322.320007324
577173.9375 4179856.5 321.329986572
577173.9375 4179855.75 320.160003662
577174 4179855.25 320.299987793
577174.0625 4179854.75 320.950012207
577173.625 4179854 321.200012207
577173.5625 4179854.5 320.940002441
577173.5625 4179855 321.209991455
577173.4375 4179856 320.059997559
577173.375 4179856.5 319.829986572
577173.375 4179857.25 320.589996338
577173.375 4179858 321.950012207
577173.3125 4179859.25 322.350006104
577173.25 4179859.5 321.070007324
577173.1875 4179860.25 321.239990234
577173.125 4179860.75 320.559997559
577173 4179861 319.5
577173 4179861.75 319.839996338
577172.1875 4179859.75 320.089996338
577172.5625 4179855.25 320.940002441
