# .PCD v.7 - Point Cloud Data file format
VERSION .7
FIELDS x y z
SIZE 4 4 4
TYPE F F F
COUNT 1 1 1
WIDTH 179
HEIGHT 1
VIEWPOINT 0 0 0 1 0 0 0
POINTS 179
DATA ascii
577135.5625 4179877 316.649993896
577135.5625 4179876.25 316.589996338
577135.0625 4179876.75 316.690002441
577134.1875 4179877.25 316.570007324
577133.625 4179878.25 316.670013428
577132.8125 4179877.25 316.589996338
577132.3125 4179877.25 316.609985352
577132.3125 4179877.75 316.630004883
577130.125 4179877.25 316.429992676
577129.5625 4179878 316.380004883
577128.6875 4179878.25 316.489990234
577129.75 4179860.5 316.369995117
577129.8125 4179859.5 316.410003662
577129.3125 4179859.5 316.399993896
577128.1875 4179878.25 316.440002441
577126.875 4179877.75 316.350006104
577126.5 4179846.5 316.239990234
577126.5 4179845.75 316.25
577126.5625 4179845.25 316.220001221
577122.8125 4179878 316.25
577121.9375 4179878.75 316.200012207
577121.9375 4179878 316.170013428
577123.75 4179846.25 316.200012207
577123.375 4179846.25 316.160003662
577123.3125 4179847 316.109985352
577121.4375 4179878.5 316.179992676
577120.625 4179878.25 316.140014648
577120.1875 4179877 316.170013428
577120.125 4179878.75 316.100006104
577119.8125 4179868.5 316.149993896
577118.875 4179877.5 316.049987793
577118.75 4179879.25 316.109985352
577117.9375 4179878.75 315.989990234
577116.5625 4179879 315.970001221
577116.8125 4179875 316.019989014
577115.3125 4179878.25 315.950012207
577114.75 4179879.25 315.980010986
577113.9375 4179879 315.940002441
577113.9375 4179878.5 315.959991455
577113.5 4179878.5 315.859985352
577112.625 4179878.75 315.820007324
577112.25 4179877 315.809997559
577112.1875 4179878 315.829986572
577110.9375 4179877 315.790008545
577110.875 4179878.25 315.850006104
577110.5 4179862 315.779998779
577109.6875 4179876.75 315.75
577107.5 4179876.5 315.700012207
577107.5625 4179875.75 315.720001221
577107.125 4179875 315.589996338
577107.125 4179875.75 315.700012207
577107.0625 4179876.25 315.589996338
577107.0625 4179876.75 315.679992676
577106.25 4179876.5 315.660003662
577106.25 4179876 315.660003662
577105.9375 4179873.5 315.570007324
577105.9375 4179874 315.549987793
577105.8125 4179876.25 315.619995117
577105 4179875.5 315.559997559
577105 4179875 315.570007324
577105.0625 4179874.5 315.570007324
577104.625 4179875 315.589996338
577104.5 4179876 315.600006104
577103.6875 4179876.75 315.510009766
577103.8125 4179874.5 315.5
577103.375 4179874 315.489990234
577103.375 4179874.5 315.470001221
577103.3125 4179875.75 315.549987793
577103.25 4179876.25 315.510009766
577102.5625 4179874.5 315.510009766
577102.625 4179872.75 315.470001221
577102.125 4179874.25 315.459991455
577101.25 4179874.75 315.480010986
577100.8125 4179874.25 315.410003662
577100.125 4179872.5 315.440002441
577098.8125 4179874 315.399993896
577098.25 4179875.25 315.329986572
577097.5 4179874.25 315.350006104
577097.125 4179873 315.320007324
577097.0625 4179873.5 315.269989014
577097.0625 4179874 315.299987793
577097 4179874.75 315.320007324
577095.75 4179874.5 315.279998779
577093.6875 4179874.5 315.209991455
577093.25 4179873.5 315.140014648
577154.25 4179879.75 317.290008545
577153.25 4179872.75 317.230010986
577153.125 4179874.5 317.329986572
577153.0625 4179875 317.160003662
577152 4179877.25 317.200012207
577151.6875 4179874.5 317.179992676
577151.375 4179879 317.089996338
577150.25 4179882 317.100006104
577150.3125 4179881.5 317.100006104
577150.4375 4179879.75 317.269989014
577150.5 4179878 317.119995117
577150.5625 4179877.5 317.059997559
577150.625 4179876.25 317.070007324
577150.6875 4179875.75 317.190002441
577150.75 4179874 317.089996338
577150.25 4179874.5 317.040008545
577150.0625 4179877.75 317.209991455
577149.9375 4179879.5 317.140014648
577149.8125 4179881.25 317.119995117
577149.75 4179881.75 317.190002441
577148.875 4179881.5 317.070007324
577149 4179880 317
577149.0625 4179878.75 317.010009766
577149.125 4179878.25 317.220001221
577149.1875 4179877 317.029998779
577149.4375 4179873 317.019989014
577148.8125 4179874.75 317.029998779
577148.4375 4179880.25 317.089996338
577148.375 4179881.5 317.109985352
577147.5625 4179880 317.070007324
577147.625 4179879 317
577147.6875 4179878.25 316.980010986
577147.75 4179877.75 317.070007324
577147.75 4179877.25 317.079986572
577147.8125 4179876.5 317.049987793
577147.8125 4179876 316.950012207
577147.9375 4179875 317.140014648
577147.9375 4179874.25 316.959991455
577148 4179873.75 317.059997559
577147.5625 4179872.75 317.040008545
577147.5 4179873.25 316.989990234
577147.375 4179875.75 317.059997559
577147.25 4179877.25 317.059997559
577147 4179880.75 317.049987793
577146.9375 4179881.75 317.019989014
577146.0625 4179881.75 317
577146.25 4179879 316.959991455
577146.3125 4179878.25 317.049987793
577146.3125 4179877.75 317.049987793
577146.375 4179877.25 316.940002441
577146.4375 4179876 317.049987793
577146.5 4179875 317.010009766
577146 4179875.5 316.989990234
577145.9375 4179876 316.980010986
577145.8125 4179878.25 317.089996338
577145.75 4179879 317.109985352
577145.75 4179879.5 316.959991455
577145.6875 4179880 317.059997559
577144.8125 4179880.75 317.049987793
577144.8125 4179880.25 317.049987793
577145.0625 4179876.25 317.040008545
577145.125 4179875.75 317.019989014
577145.25 4179873.5 316.970001221
577144.6875 4179875 316.899993896
577144.625 4179875.5 316.950012207
577144.625 4179876.25 317.040008545
577143.6875 4179877 317
577143.6875 4179876.5 317.010009766
577143.75 4179876 316.890014648
577143.75 4179875.25 316.899993896
577143.8125 4179874.75 316.859985352
577143.1875 4179876.25 316.820007324
577143.1875 4179876.75 316.920013428
577143.125 4179877.25 317.010009766
577143.125 4179877.75 316.859985352
577143.0625 4179878.5 317
577142.25 4179877.75 316.940002441
577142.3125 4179876.75 316.779998779
577142.375 4179875.5 316.950012207
577141 4179875.75 316.739990234
577140.5 4179876.75 316.730010986
577140.4375 4179877.25 316.859985352
577140.375 4179878.5 316.920013428
577139.5625 4179877.25 316.859985352
577139.625 4179876.75 316.779998779
577139.625 4179876.25 316.720001221
577140 4179863 316.829986572
577138.3125 4179876.5 316.739990234
577138.3125 4179876 316.75
577137.8125 4179876 316.660003662
577137.75 4179876.5 316.769989014
577136.875 4179877 316.739990234
577136.9375 4179876.5 316.720001221
577136.375 4179876.75 316.570007324
