# .PCD v.7 - Point Cloud Data file format
VERSION .7
FIELDS x y z
SIZE 4 4 4
TYPE F F F
COUNT 1 1 1
WIDTH 1708
HEIGHT 1
VIEWPOINT 0 0 0 1 0 0 0
POINTS 1708
DATA ascii	
577185.6	4179832.56	314.15
577185.64	4179831.99	314.15
577185.68	4179831.41	314.12
577185.73	4179830.83	314.15
577185.77	4179830.23	313.97
577185.8201	4179829.7	314.18
577185.86	4179829.13	314.24
577185.9	4179828.53	314.06
577185.93	4179827.9	313.74
577185.98	4179827.32	313.72
577186.02	4179826.76	313.79
577186.0701	4179826.16	313.71
577186.11	4179825.6	313.76
577186.15	4179825	313.57
577186.18	4179824.37	313.32
577186.23	4179823.81	313.44
577186.27	4179823.22	313.38
577186.3299	4179822.69	313.71
577186.38	4179822.13	313.8
577186.42	4179821.54	313.69
577186.4401	4179820.87	313.08
577186.48	4179820.28	313.09
577186.53	4179819.69	313.05
577186.5701	4179819.11	313.02
577186.62	4179818.56	313.22
577186.67	4179818	313.29
577186.71	4179817.38	313.1
577186.74	4179816.76	312.8
577186.73	4179811.67	312.5
577186.6901	4179812.28	312.7
577186.66	4179812.92	313.11
577186.6	4179813.41	312.72
577186.56	4179813.99	312.84
577186.52	4179814.58	312.94
577186.47	4179815.11	312.72
577186.43	4179815.69	312.76
577186.39	4179816.3	313.03
577186.35	4179816.86	313.02
577186.3	4179817.42	312.89
577186.25	4179817.99	312.92
577186.1999	4179818.55	312.83
577186.16	4179819.13	312.89
577186.12	4179819.74	313.12
577186.0701	4179820.29	312.96
577186.04	4179820.86	313.09
577185.99	4179821.44	313.11
577185.9499	4179822.02	313.22
577185.92	4179822.63	313.53
577185.88	4179823.22	313.66
577185.8299	4179823.78	313.65
577185.78	4179824.31	313.41
577185.74	4179824.9	313.55
577185.6999	4179825.49	313.76
577185.66	4179826.06	313.67
577185.61	4179826.64	313.73
577185.5799	4179827.24	313.93
577185.53	4179827.78	313.83
577185.49	4179828.38	314.03
577185.4401	4179828.93	313.88
577185.4	4179829.5	313.93
577185.36	4179830.1	314.07
577185.3201	4179830.68	314.16
577185.26	4179831.21	313.9
577185.22	4179831.81	314.05
577185.1901	4179832.4	314.24
577185.14	4179832.95	314.13
577185.09	4179833.52	314.15
577185.05	4179834.09	314.18
577185.01	4179834.7	314.45
577184.97	4179835.27	314.41
577184.91	4179835.8	314.14
577184.88	4179836.39	314.31
577184.84	4179836.98	314.43
577184.79	4179837.57	314.51
577184.74	4179838.09	314.28
577184.6999	4179838.68	314.44
577184.66	4179839.27	314.57
577184.62	4179839.82	314.52
577184.5701	4179840.38	314.41
577184.53	4179840.99	314.73
577184.48	4179841.53	314.57
577184.4401	4179842.1	314.53
577184.4	4179842.7	314.8
577184.35	4179843.24	314.62
577184.31	4179843.8	314.56
577184.27	4179844.41	314.81
577184.24	4179845.04	315.25
577184.1901	4179845.56	314.97
577184.14	4179846.12	314.89
577184.09	4179846.69	314.86
577184.05	4179847.25	314.77
577184.01	4179847.85	314.97
577183.96	4179848.4	314.81
577183.91	4179848.94	314.72
577183.86	4179849.5	314.65
577183.8201	4179850.08	314.74
577183.78	4179850.66	314.84
577184.12	4179852.59	324.92
577183.6901	4179851.79	314.74
577183.64	4179852.33	314.57
577183.6	4179852.92	314.76
577183.55	4179853.45	314.53
577183.53	4179854.11	315.18
577183.48	4179854.65	315.03
577183.42	4179855.19	314.78
577183.38	4179855.77	314.87
577183.34	4179856.33	314.91
577183.3	4179856.93	315.06
577183.25	4179857.5	315.04
577183.22	4179858.1	315.25
577183.17	4179858.66	315.2
577183.13	4179859.23	315.19
577183.09	4179859.84	315.44
577183.05	4179860.41	315.53
577183.01	4179860.98	315.61
577182.96	4179861.54	315.52
577182.92	4179862.12	315.61
577182.88	4179862.7	315.73
577182.84	4179863.27	315.79
577182.79	4179863.84	315.78
577182.75	4179864.41	315.77
577182.71	4179864.98	315.88
577182.67	4179865.57	316.08
577182.63	4179866.14	316.14
577182.5799	4179866.71	316.06
577182.55	4179867.31	316.35
577182.51	4179867.89	316.42
577182.46	4179868.45	316.42
577182.42	4179869.03	316.5
577182.37	4179869.59	316.41
577182.3201	4179870.14	316.34
577182.28	4179870.71	316.36
577182.25	4179871.33	316.75
577182.18	4179871.83	316.17
577182.15	4179872.43	316.54
577182.09	4179872.95	316.13
577182.05	4179873.53	316.26
577182.02	4179874.12	316.44
577181.97	4179874.67	316.28
577181.92	4179875.23	316.21
577181.86	4179875.77	315.92
577181.8201	4179876.33	315.91
577181.78	4179876.9	315.98
577181.74	4179877.48	316.16
577181.6901	4179878.03	315.96
577181.65	4179878.61	316.07
577181.59	4179879.16	315.82
577181.56	4179879.74	316.05
577181.53	4179880.34	316.38
577181.47	4179880.87	316.05
577181.43	4179881.44	316.13
577181.38	4179882.02	316.13
577180.49	4179882.05	316.61
577180.53	4179881.48	316.58
577180.56	4179880.87	316.14
577180.6	4179880.3	316.1
577180.64	4179879.74	316.16
577180.6901	4179879.19	316.28
577180.73	4179878.59	316.05
577180.77	4179878.04	316.18
577180.8201	4179877.47	316.16
577180.86	4179876.91	316.17
577180.91	4179876.37	316.34
577180.9401	4179875.76	316.01
577180.98	4179875.2	315.97
577181.02	4179874.63	316.01
577181.0701	4179874.06	316.09
577181.13	4179873.53	316.47
577181.17	4179872.94	316.28
577181.22	4179872.41	316.62
577181.26	4179871.83	316.53
577181.3	4179871.26	316.48
577181.35	4179870.69	316.45
577181.39	4179870.13	316.45
577181.43	4179869.55	316.48
577181.67	4179869.55	321.32
577181.9	4179869.54	326.13
577181.91	4179868.89	325.34
577181.79	4179867.84	321.12
577181.9	4179867.47	322.77
577181.9499	4179866.93	323.01
577181.72	4179865.53	316.05
577181.76	4179864.97	316.14
577181.8	4179864.38	315.99
577181.84	4179863.8	315.89
577181.89	4179863.24	315.93
577181.92	4179862.64	315.69
577181.97	4179862.08	315.84
577182.01	4179861.51	315.75
577182.04	4179860.92	315.6
577182.09	4179860.35	315.57
577182.12	4179859.76	315.42
577182.17	4179859.2	315.44
577182.21	4179858.63	315.45
577182.25	4179858.04	315.27
577182.28	4179857.43	315
577182.3299	4179856.88	315.13
577182.37	4179856.3	315.07
577182.41	4179855.71	314.95
577182.46	4179855.16	315.13
577182.49	4179854.57	314.95
577182.53	4179853.97	314.79
577182.5799	4179853.4	314.78
577182.62	4179852.82	314.76
577182.66	4179852.22	314.56
577182.6999	4179851.67	314.69
577182.75	4179851.11	314.77
577182.79	4179850.52	314.69
577182.8299	4179849.96	314.71
577182.88	4179849.41	314.83
577182.92	4179848.83	314.75
577182.97	4179848.27	314.8
577183.01	4179847.69	314.76
577183.05	4179847.13	314.78
577183.09	4179846.55	314.7
577183.14	4179845.97	314.71
577183.1901	4179845.43	314.91
577183.24	4179844.9	315.21
577183.29	4179844.33	315.25
577183.3299	4179843.76	315.26
577183.37	4179843.17	315.12
577183.4	4179842.55	314.9
577183.4401	4179841.93	314.6
577183.48	4179841.37	314.66
577183.53	4179840.81	314.79
577183.5701	4179840.21	314.61
577183.62	4179839.66	314.77
577183.65	4179839.05	314.53
577183.6999	4179838.52	314.78
577183.74	4179837.91	314.6
577183.78	4179837.29	314.33
577183.8201	4179836.73	314.4
577183.87	4179836.16	314.44
577183.91	4179835.59	314.42
577183.9499	4179835.02	314.32
577183.99	4179834.43	314.29
577184.04	4179833.88	314.43
577184.0799	4179833.28	314.31
577184.12	4179832.69	314.26
577184.17	4179832.13	314.29
577184.1999	4179831.54	314.18
577184.25	4179830.96	314.14
577184.3	4179830.42	314.31
577184.3299	4179829.8	314.06
577184.37	4179829.2	313.97
577184.42	4179828.64	314.12
577184.46	4179828.06	314.08
577184.5	4179827.46	313.99
577184.54	4179826.87	313.82
577184.59	4179826.28	313.85
577184.63	4179825.71	313.91
577184.67	4179825.13	313.84
577184.72	4179824.55	313.81
577184.76	4179823.95	313.69
577184.8	4179823.37	313.69
577184.84	4179822.78	313.57
577184.88	4179822.2	313.48
577184.92	4179821.62	313.51
577184.97	4179821.02	313.41
577185.01	4179820.47	313.57
577185.05	4179819.85	313.32
577185.1	4179819.29	313.43
577185.13	4179818.68	313.21
577185.18	4179818.08	313.14
577185.22	4179817.51	313.23
577185.26	4179816.92	313.09
577185.31	4179816.34	313.14
577185.34	4179815.7	312.86
577185.39	4179815.16	313.03
577185.43	4179814.56	312.94
577185.48	4179814.01	313.04
577185.52	4179813.4	312.89
577185.56	4179812.84	312.92
577185.61	4179812.26	312.91
577185.64	4179811.6	312.55
577185.6901	4179811.05	312.7
577185.73	4179810.46	312.57
577185.77	4179809.88	312.62
577185.8201	4179809.29	312.63
577185.86	4179808.69	312.47
577185.9	4179808.09	312.47
577185.9499	4179807.53	312.58
577185.99	4179806.95	312.55
577186.05	4179806.43	312.91
577186.0799	4179805.79	312.54
577186.12	4179805.17	312.34
577186.17	4179804.64	312.62
577186.21	4179804.03	312.49
577186.25	4179803.43	312.35
577186.29	4179802.82	312.18
577186.34	4179802.3	312.48
577186.37	4179801.65	312.16
577186.42	4179801.04	312.06
577186.46	4179800.45	311.97
577186.51	4179799.91	312.26
577186.56	4179799.33	312.36
577186.59	4179798.67	311.94
577186.63	4179798.08	311.87
577186.68	4179797.5	311.88
577186.72	4179796.89	311.85
577186.71	4179792.54	311.65
577186.66	4179793.1	311.61
577186.62	4179793.69	311.72
577186.5799	4179794.26	311.75
577186.54	4179794.88	312
577186.5	4179795.43	311.96
577186.4401	4179795.93	311.66
577186.41	4179796.53	311.85
577186.36	4179797.1	311.87
577186.3201	4179797.68	311.94
577186.28	4179798.29	312.15
577186.24	4179798.82	312.02
577186.1901	4179799.4	312.1
577186.15	4179799.96	312.09
577186.11	4179800.53	312.13
577186.05	4179801.05	311.87
577186.02	4179801.65	312.1
577185.98	4179802.24	312.23
577185.93	4179802.8	312.2
577185.89	4179803.34	312.11
577185.84	4179803.9	312.08
577185.81	4179804.5	312.28
577185.77	4179805.09	312.42
577185.72	4179805.63	312.26
577185.6901	4179806.27	312.71
577185.63	4179806.79	312.4
577185.59	4179807.38	312.51
577185.55	4179807.94	312.46
577185.5	4179808.52	312.49
577185.47	4179809.11	312.66
577185.42	4179809.67	312.7
577185.38	4179810.22	312.6
577185.34	4179810.81	312.74
577185.29	4179811.37	312.68
577185.25	4179811.96	312.8
577185.21	4179812.55	312.9
577185.16	4179813.09	312.77
577185.12	4179813.68	312.89
577185.09	4179814.3	313.22
577185.05	4179814.88	313.26
577185	4179815.41	313.11
577184.9499	4179815.99	313.17
577184.91	4179816.55	313.1
577184.86	4179817.12	313.12
577184.8201	4179817.71	313.23
577184.78	4179818.27	313.21
577184.73	4179818.83	313.11
577184.6901	4179819.4	313.16
577184.65	4179820	313.34
577184.61	4179820.58	313.43
577184.5701	4179821.2	313.7
577184.53	4179821.77	313.72
577184.48	4179822.31	313.57
577184.4401	4179822.9	313.64
577184.4	4179823.48	313.67
577184.35	4179824.05	313.67
577184.31	4179824.63	313.74
577184.27	4179825.22	313.88
577184.23	4179825.8	313.95
577184.1901	4179826.4	314.13
577184.14	4179826.93	313.89
577184.09	4179827.48	313.85
577184.05	4179828.07	313.96
577184.02	4179828.69	314.29
577183.98	4179829.26	314.33
577183.92	4179829.77	314.01
577183.88	4179830.34	314.03
577183.84	4179830.94	314.2
577183.8	4179831.51	314.21
577183.75	4179832.09	314.25
577183.71	4179832.66	314.28
577183.66	4179833.22	314.24
577183.63	4179833.85	314.59
577183.5799	4179834.39	314.36
577183.54	4179834.99	314.62
577183.5	4179835.54	314.51
577183.4499	4179836.09	314.4
577183.41	4179836.68	314.52
577183.36	4179837.25	314.55
577183.3201	4179837.82	314.51
577183.28	4179838.4	314.55
577183.23	4179838.96	314.51
577183.1901	4179839.52	314.5
577183.15	4179840.1	314.62
577183.12	4179840.72	314.98
577183.05	4179841.23	314.56
577183.02	4179841.82	314.68
577182.97	4179842.4	314.79
577182.93	4179842.97	314.73
577182.88	4179843.54	314.75
577182.8299	4179844.09	314.58
577182.79	4179844.65	314.56
577182.76	4179845.28	314.99
577182.73	4179845.89	315.24
577182.66	4179846.35	314.55
577182.62	4179846.94	314.72
577182.5701	4179847.51	314.76
577182.54	4179848.1	314.89
577182.48	4179848.62	314.6
577182.43	4179849.19	314.54
577182.39	4179849.74	314.46
577182.34	4179850.3	314.37
577182.3	4179850.9	314.47
577182.26	4179851.49	314.69
577182.21	4179852.05	314.62
577182.17	4179852.64	314.7
577182.13	4179853.2	314.64
577182.0799	4179853.78	314.72
577182.05	4179854.35	314.83
577182.02	4179854.98	315.25
577181.96	4179855.52	315.02
577181.92	4179856.08	314.92
577181.88	4179856.68	315.24
577181.84	4179857.24	315.18
577181.79	4179857.81	315.13
577181.76	4179858.42	315.43
577181.8201	4179859.33	318.07
577181.78	4179859.91	318.23
577181.75	4179860.52	318.62
577181.6	4179860.76	315.99
577181.55	4179861.3	315.78
577181.52	4179861.92	316.19
577181.49	4179862.52	316.46
577181.4401	4179863.08	316.43
577181.38	4179863.61	316.07
577181.34	4179864.17	316.02
577181.5799	4179865.61	323.32
577181.5701	4179866.26	324.06
577181.52	4179866.79	323.82
577181.47	4179867.35	323.86
577181.49	4179868.11	325.49
577181.46	4179868.71	325.76
577181.46	4179869.39	326.79
577181.42	4179869.96	326.9
577181.21	4179870.03	322.68
577181.29	4179870.96	325.78
577181.26	4179871.56	326.19
577181.1999	4179872.09	325.92
577180.78	4179871.6	316.53
577180.74	4179872.17	316.59
577180.6999	4179872.75	316.64
577180.65	4179873.28	316.37
577180.6	4179873.83	316.25
577180.55	4179874.37	316.06
577180.5	4179874.94	316.06
577180.46	4179875.53	316.26
577180.42	4179876.1	316.21
577180.37	4179876.66	316.07
577180.3299	4179877.24	316.29
577180.29	4179877.82	316.4
577180.24	4179878.36	316.16
577180.1999	4179878.95	316.35
577180.16	4179879.54	316.44
577180.12	4179880.1	316.4
577180.0701	4179880.65	316.28
577180.02	4179881.2	316.12
577179.98	4179881.77	316.22
577179.05	4179881.89	316.17
577179.09	4179881.33	316.18
577179.14	4179880.78	316.29
577179.1901	4179880.24	316.47
577179.23	4179879.67	316.42
577179.26	4179879.05	316.05
577179.31	4179878.53	316.38
577179.34	4179877.92	316.1
577179.39	4179877.37	316.27
577179.4401	4179876.81	316.28
577179.47	4179876.22	316.14
577179.52	4179875.67	316.18
577179.56	4179875.1	316.2
577179.6	4179874.53	316.2
577179.66	4179874	316.45
577179.6999	4179873.44	316.6
577179.75	4179872.87	316.6
577179.79	4179872.31	316.59
577179.84	4179871.77	316.78
577180.24	4179872.19	325.55
577180.31	4179871.71	326.27
577180.37	4179871.2	326.72
577180.35	4179870.45	325.16
577180.34	4179869.76	324.03
577180.48	4179869.49	326.49
577180.55	4179869	327.08
577180.5799	4179868.4	326.82
577180.59	4179867.76	326.08
577180.49	4179866.78	322.51
577180.6901	4179866.66	326.29
577180.72	4179866.09	326.18
577180.68	4179865.25	323.93
577180.76	4179864.81	324.97
577180.67	4179863.84	321.64
577180.5	4179862.61	316.26
577180.54	4179862.02	316.15
577180.68	4179861.77	318.66
577180.74	4179861.25	319.08
577180.8	4179860.74	319.49
577180.86	4179860.23	319.93
577180.91	4179859.67	320.01
577180.97	4179859.18	320.62
577180.9	4179858.22	317.65
577180.93	4179857.63	317.38
577180.9	4179856.83	315.48
577180.9401	4179856.23	315.36
577180.97	4179855.63	315.16
577181.01	4179855.03	314.92
577181.05	4179854.46	314.94
577181.09	4179853.87	314.79
577181.13	4179853.31	314.88
577181.18	4179852.72	314.86
577181.22	4179852.15	314.77
577181.27	4179851.6	314.94
577181.3	4179850.98	314.59
577181.34	4179850.43	314.7
577181.37	4179849.81	314.42
577181.43	4179849.28	314.73
577181.46	4179848.67	314.34
577181.51	4179848.12	314.57
577181.55	4179847.53	314.44
577181.6	4179847	314.65
577181.64	4179846.42	314.72
577181.68	4179845.81	314.51
577181.72	4179845.26	314.57
577181.77	4179844.7	314.64
577181.81	4179844.11	314.52
577181.85	4179843.55	314.55
577181.9	4179842.98	314.6
577181.9401	4179842.43	314.73
577181.98	4179841.83	314.59
577182.02	4179841.25	314.56
577182.0799	4179840.71	314.76
577182.11	4179840.09	314.49
577182.16	4179839.54	314.66
577182.1999	4179838.96	314.62
577182.24	4179838.39	314.58
577182.28	4179837.79	314.43
577182.3299	4179837.23	314.53
577182.37	4179836.65	314.48
577182.41	4179836.06	314.41
577182.4499	4179835.49	314.43
577182.5	4179834.94	314.53
577182.54	4179834.36	314.49
577182.5799	4179833.77	314.46
577182.62	4179833.21	314.47
577182.66	4179832.6	314.22
577182.71	4179832.06	314.47
577182.75	4179831.45	314.31
577182.79	4179830.89	314.31
577182.8299	4179830.24	314.01
577182.88	4179829.7	314.35
577182.92	4179829.12	314.32
577182.97	4179828.53	314.25
577183.01	4179827.94	314.23
577183.05	4179827.34	314.13
577183.09	4179826.78	314.2
577183.13	4179826.16	313.89
577183.18	4179825.62	314.11
577183.22	4179825.05	314.07
577183.25	4179824.46	313.89
577183.29	4179823.94	313.88
577183.3299	4179823.39	313.89
577183.38	4179822.85	313.98
577183.42	4179822.21	313.85
577183.47	4179821.58	313.79
577183.51	4179820.98	313.75
577183.56	4179820.37	313.78
577183.5799	4179819.71	313.33
577183.64	4179819.18	313.6
577183.68	4179818.59	313.59
577183.72	4179817.99	313.46
577183.76	4179817.42	313.47
577183.8	4179816.84	313.42
577183.86	4179816.34	313.77
577183.9	4179815.76	313.74
577183.93	4179815.11	313.31
577183.96	4179814.51	313.13
577184.01	4179813.92	313.14
577184.05	4179813.34	313.15
577184.1	4179812.77	313.22
577184.14	4179812.18	313.18
577184.18	4179811.59	313.12
577184.22	4179811	313.06
577184.26	4179810.38	312.84
577184.3	4179809.78	312.73
577184.34	4179809.18	312.6
577184.38	4179808.6	312.59
577184.43	4179808.05	312.73
577184.47	4179807.43	312.54
577184.51	4179806.85	312.53
577184.55	4179806.28	312.51
577184.59	4179805.67	312.44
577184.64	4179805.08	312.36
577184.68	4179804.51	312.4
577184.72	4179803.91	312.36
577184.76	4179803.31	312.25
577184.8201	4179802.77	312.58
577184.87	4179802.2	312.64
577184.91	4179801.61	312.59
577184.9401	4179800.98	312.33
577184.98	4179800.37	312.16
577185.02	4179799.79	312.17
577185.06	4179799.18	312.03
577185.11	4179798.61	312.09
577185.15	4179798	311.95
577185.1901	4179797.4	311.94
577185.24	4179796.85	312.12
577185.28	4179796.23	311.9
577185.3201	4179795.65	311.94
577185.37	4179795.07	311.98
577185.42	4179794.5	312.06
577185.46	4179793.88	311.91
577185.5	4179793.28	311.86
577185.54	4179792.66	311.74
577185.5799	4179792.09	311.79
577185.98	4179793.61	322.2
577186.05	4179793.19	323.01
577186.0701	4179792.48	322.36
577185.79	4179792.39	323.33
577185.72	4179792.77	322.52
577185.6901	4179793.4	322.9
577185.61	4179793.76	321.95
577185.23	4179792.24	311.67
577185.1901	4179792.84	311.82
577185.15	4179793.42	311.91
577185.1	4179793.94	311.74
577185.06	4179794.52	311.81
577185.02	4179795.09	311.87
577184.97	4179795.64	311.84
577184.93	4179796.24	311.98
577184.89	4179796.82	312.09
577184.85	4179797.38	312.05
577184.8	4179797.93	311.96
577184.76	4179798.51	312.06
577184.71	4179799.05	311.94
577184.68	4179799.69	312.33
577184.64	4179800.26	312.34
577184.59	4179800.81	312.28
577184.55	4179801.36	312.25
577184.51	4179801.94	312.36
577184.47	4179802.54	312.54
577184.43	4179803.09	312.48
577184.38	4179803.63	312.37
577184.34	4179804.22	312.47
577184.3	4179804.8	312.56
577184.25	4179805.36	312.51
577184.21	4179805.94	312.63
577184.17	4179806.52	312.69
577184.13	4179807.09	312.72
577184.09	4179807.66	312.7
577184.04	4179808.22	312.7
577184	4179808.82	312.87
577183.96	4179809.39	312.84
577183.91	4179809.92	312.68
577183.88	4179810.56	313.13
577183.8299	4179811.12	313.03
577183.79	4179811.68	313.03
577183.74	4179812.19	312.76
577183.6999	4179812.81	313.05
577183.66	4179813.38	313.11
577183.62	4179813.96	313.15
577183.5799	4179814.52	313.14
577183.53	4179815.07	313.07
577183.51	4179815.76	313.79
577183.47	4179816.32	313.75
577183.41	4179816.82	313.37
577183.36	4179817.37	313.27
577183.34	4179818.02	313.76
577183.29	4179818.57	313.72
577183.25	4179819.15	313.81
577183.1999	4179819.7	313.64
577183.17	4179820.34	314.08
577183.13	4179820.94	314.23
577183.09	4179821.49	314.16
577183.05	4179822.06	314.2
577182.98	4179822.53	313.59
577182.9401	4179823.13	313.77
577182.91	4179823.73	313.98
577182.86	4179824.28	313.83
577182.8201	4179824.88	314.1
577182.77	4179825.41	313.9
577182.74	4179826.04	314.26
577182.6901	4179826.58	314.11
577182.65	4179827.13	314.03
577182.6	4179827.69	313.97
577182.56	4179828.29	314.14
577182.52	4179828.89	314.31
577182.47	4179829.42	314.12
577182.43	4179829.98	314.11
577182.38	4179830.55	314.07
577182.35	4179831.14	314.25
577182.31	4179831.72	314.3
577182.27	4179832.31	314.42
577182.21	4179832.85	314.22
577182.17	4179833.43	314.25
577182.13	4179834.03	314.44
577182.0799	4179834.57	314.28
577182.04	4179835.14	314.36
577182.01	4179835.74	314.53
577181.97	4179836.32	314.61
577181.91	4179836.84	314.31
577181.88	4179837.48	314.76
577181.8201	4179837.98	314.32
577181.78	4179838.56	314.4
577181.74	4179839.14	314.44
577181.71	4179839.74	314.7
577181.66	4179840.31	314.68
577181.61	4179840.86	314.57
577181.5701	4179841.45	314.61
577181.52	4179842	314.5
577181.48	4179842.57	314.53
577181.43	4179843.13	314.44
577181.39	4179843.7	314.51
577181.35	4179844.28	314.58
577181.3	4179844.82	314.36
577181.26	4179845.39	314.42
577181.22	4179845.98	314.58
577181.16	4179846.52	314.35
577181.12	4179847.09	314.33
577181.0799	4179847.65	314.32
577181.04	4179848.23	314.42
577180.99	4179848.8	314.45
577180.97	4179849.43	314.85
577180.93	4179850.01	314.95
577180.87	4179850.54	314.67
577180.84	4179851.14	314.97
577181.29	4179853.45	327.91
577181.23	4179853.94	327.33
577180.9401	4179853.67	321.1
577180.66	4179853.4	314.87
577180.62	4179853.97	314.94
577180.5799	4179854.55	314.97
577180.54	4179855.14	315.17
577180.5	4179855.71	315.2
577180.47	4179856.34	315.62
577180.48	4179857.07	316.93
577180.48	4179857.81	318.2
577180.5701	4179858.83	321.66
577180.54	4179859.42	321.92
577180.49	4179859.97	321.75
577180.39	4179860.35	320.27
577180.34	4179860.89	320.18
577180.26	4179861.32	319.14
577180.21	4179861.87	318.97
577180.13	4179862.32	318.04
577180.25	4179863.4	322.28
577180.18	4179863.87	321.48
577180.13	4179864.43	321.37
577180.25	4179865.5	325.57
577180.18	4179865.97	324.8
577180.1901	4179866.7	326.23
577180.1901	4179867.39	327.32
577180.13	4179867.89	326.89
577180.04	4179868.33	325.84
577180	4179868.89	325.78
577179.97	4179869.49	326.08
577179.97	4179870.18	327.28
577179.87	4179870.54	325.69
577179.79	4179871.01	324.89
577179.79	4179871.7	326.02
577179.72	4179872.17	325.25
577179.53	4179872.32	321.53
577179.28	4179872.32	316.54
577179.24	4179872.89	316.6
577179.1901	4179873.46	316.48
577179.15	4179874.03	316.53
577179.1	4179874.58	316.44
577179.05	4179875.12	316.26
577179.01	4179875.69	316.25
577178.96	4179876.25	316.13
577178.92	4179876.84	316.27
577178.87	4179877.38	316.18
577178.8201	4179877.93	316.06
577178.79	4179878.53	316.34
577178.75	4179879.1	316.31
577178.6999	4179879.64	316.19
577178.65	4179880.21	316.06
577178.62	4179880.8	316.35
577178.5701	4179881.36	316.38
577178.53	4179881.93	316.39
577177.61	4179881.9	316.11
577177.66	4179881.35	316.18
577177.6999	4179880.77	316.09
577177.74	4179880.19	316.02
577177.79	4179879.66	316.32
577177.8299	4179879.08	316.22
577177.87	4179878.5	316.16
577177.91	4179877.94	316.12
577177.96	4179877.41	316.44
577178	4179876.83	316.28
577178.03	4179876.24	316.1
577178.0799	4179875.68	316.16
577178.14	4179875.15	316.58
577178.1901	4179874.61	316.84
577178.24	4179874.04	316.86
577178.27	4179873.44	316.57
577178.31	4179872.89	316.69
577178.54	4179872.82	321.21
577178.6	4179872.32	321.69
577178.89	4179872.45	327.88
577178.6999	4179871.22	322.09
577178.88	4179871.06	325.58
577178.96	4179870.61	326.54
577178.96	4179869.91	325.32
577179.03	4179869.45	326.2
577179.09	4179868.92	326.45
577179.1	4179868.3	325.88
577179	4179867.31	322.31
577179.1999	4179867.22	326.26
577179.23	4179866.63	325.99
577179.29	4179866.1	326.37
577179.31	4179865.48	325.85
577179.1999	4179864.44	321.91
577179.25	4179863.9	322.13
577179.31	4179863.4	322.66
577179.35	4179862.8	322.51
577179.36	4179862.14	321.84
577179.41	4179861.6	322.01
577179.4401	4179860.98	321.59
577179.54	4179860.6	323.01
577179.56	4179859.99	322.62
577179.59	4179859.38	322.25
577179.63	4179858.79	322.06
577179.67	4179858.24	322.16
577179.6901	4179857.61	321.66
577179.66	4179856.81	319.78
577179.65	4179856.07	318.49
577179.5799	4179855.09	315.39
577179.61	4179854.52	315.28
577179.65	4179853.92	315.16
577179.6901	4179853.34	315.09
577179.73	4179852.73	314.87
577180.27	4179853.88	327.7
577179.8201	4179851.63	315.18
577179.86	4179851.05	315.05
577179.9	4179850.45	314.88
577179.93	4179849.85	314.73
577179.98	4179849.29	314.8
577180.01	4179848.69	314.58
577180.06	4179848.14	314.7
577180.1	4179847.56	314.69
577180.14	4179846.96	314.46
577180.18	4179846.4	314.46
577180.22	4179845.83	314.55
577180.26	4179845.23	314.28
577180.3	4179844.65	314.24
577180.35	4179844.11	314.44
577180.38	4179843.5	314.21
577180.42	4179842.92	314.22
577180.48	4179842.38	314.45
577180.51	4179841.79	314.3
577180.56	4179841.24	314.47
577180.61	4179840.7	314.71
577180.65	4179840.11	314.58
577180.6901	4179839.52	314.46
577180.73	4179838.95	314.46
577180.78	4179838.4	314.69
577180.8299	4179837.82	314.71
577180.87	4179837.23	314.56
577180.9	4179836.62	314.27
577180.9499	4179836.08	314.49
577180.98	4179835.48	314.32
577181.04	4179834.95	314.63
577181.0701	4179834.34	314.43
577181.11	4179833.75	314.34
577181.16	4179833.2	314.41
577181.1999	4179832.61	314.29
577181.23	4179832.02	314.15
577181.29	4179831.47	314.37
577181.3299	4179830.87	314.28
577181.36	4179830.27	314.11
577181.41	4179829.72	314.33
577181.4499	4179829.13	314.25
577181.5	4179828.56	314.26
577181.53	4179827.96	314.07
577181.5799	4179827.39	314.12
577181.61	4179826.79	313.97
577181.66	4179826.24	314.12
577181.6999	4179825.64	314
577181.75	4179825.07	314.04
577181.79	4179824.5	314.17
577181.8299	4179823.9	313.99
577181.87	4179823.3	313.89
577181.92	4179822.74	313.99
577181.96	4179822.17	314
577182	4179821.57	313.86
577182.03	4179820.96	313.66
577182.09	4179820.44	313.97
577182.12	4179819.83	313.78
577182.16	4179819.23	313.66
577182.1999	4179818.66	313.6
577182.26	4179818.15	314.01
577182.3	4179817.54	313.9
577182.3299	4179816.89	313.49
577182.38	4179816.34	313.71
577182.41	4179815.69	313.34
577182.4499	4179815.13	313.42
577182.51	4179814.59	313.63
577182.54	4179813.97	313.42
577182.5799	4179813.38	313.4
577182.62	4179812.79	313.33
577182.66	4179812.17	313.08
577182.71	4179811.62	313.22
577182.75	4179811.04	313.24
577182.8	4179810.49	313.34
577182.8299	4179809.84	313.06
577182.87	4179809.25	313.01
577182.91	4179808.65	312.91
577182.96	4179808.07	312.92
577183	4179807.49	312.9
577183.05	4179806.94	313.02
577183.0799	4179806.3	312.77
577183.12	4179805.72	312.75
577183.16	4179805.11	312.61
577183.1999	4179804.52	312.57
577183.25	4179803.99	312.81
577183.29	4179803.38	312.66
577183.34	4179802.8	312.65
577183.39	4179802.26	312.88
577183.43	4179801.66	312.81
577183.46	4179801.03	312.61
577183.51	4179800.45	312.61
577183.55	4179799.85	312.48
577183.59	4179799.25	312.37
577183.63	4179798.65	312.35
577183.67	4179798.06	312.28
577183.71	4179797.47	312.26
577183.76	4179796.9	312.38
577183.79	4179796.26	312.09
577183.84	4179795.67	312.05
577183.88	4179795.09	312.05
577183.92	4179794.49	312
577183.97	4179793.92	312.08
577184	4179793.28	311.84
577184.05	4179792.72	311.95
577184.1	4179792.16	312.08
577184.48	4179793.56	321.93
577184.55	4179793.18	322.83
577184.59	4179792.55	322.65
577184.24	4179792.68	322.98
577183.74	4179792.1	311.92
577183.71	4179792.75	312.35
577183.65	4179793.23	311.9
577183.61	4179793.82	312.08
577183.56	4179794.35	311.93
577183.52	4179794.92	311.99
577183.48	4179795.49	311.98
577183.4499	4179796.11	312.29
577183.4	4179796.66	312.22
577183.35	4179797.19	312.09
577183.31	4179797.77	312.18
577183.27	4179798.37	312.3
577183.23	4179798.94	312.37
577183.1901	4179799.51	312.36
577183.15	4179800.1	312.53
577183.11	4179800.69	312.66
577183.0701	4179801.25	312.65
577183.02	4179801.78	312.43
577182.98	4179802.35	312.51
577182.9401	4179802.94	312.64
577182.9	4179803.51	312.65
577182.86	4179804.09	312.77
577182.8201	4179804.67	312.82
577182.78	4179805.23	312.85
577182.73	4179805.79	312.84
577182.6901	4179806.37	312.93
577182.66	4179806.98	313.17
577182.61	4179807.53	313.07
577182.5701	4179808.09	313.09
577182.52	4179808.64	312.96
577182.48	4179809.23	313.11
577182.4499	4179809.84	313.38
577182.4	4179810.41	313.37
577182.35	4179810.94	313.14
577182.31	4179811.5	313.07
577182.27	4179812.1	313.28
577182.23	4179812.66	313.26
577182.1901	4179813.25	313.43
577182.14	4179813.76	313.17
577182.1	4179814.35	313.32
577182.06	4179814.94	313.44
577182.02	4179815.53	313.61
577181.98	4179816.07	313.47
577181.9401	4179816.65	313.59
577181.89	4179817.2	313.45
577181.85	4179817.79	313.61
577181.8201	4179818.4	313.85
577181.77	4179818.95	313.69
577181.73	4179819.54	313.8
577181.68	4179820.08	313.65
577181.64	4179820.69	313.84
577181.59	4179821.24	313.75
577181.56	4179821.87	314.15
577181.51	4179822.37	313.78
577181.47	4179822.95	313.88
577181.43	4179823.54	314
577181.4	4179824.15	314.27
577181.34	4179824.68	314.05
577181.31	4179825.28	314.22
577181.25	4179825.8	313.98
577181.22	4179826.39	314.08
577181.18	4179827	314.36
577181.13	4179827.54	314.17
577181.09	4179828.12	314.22
577181.04	4179828.69	314.18
577180.99	4179829.21	313.92
577180.9499	4179829.81	314.09
577180.92	4179830.4	314.24
577180.87	4179830.97	314.29
577180.8299	4179831.52	314.18
577180.79	4179832.14	314.5
577180.74	4179832.66	314.22
577180.6999	4179833.24	314.31
577180.66	4179833.81	314.34
577180.62	4179834.38	314.4
577180.5701	4179834.95	314.37
577180.54	4179835.55	314.58
577180.49	4179836.12	314.51
577180.4499	4179836.69	314.56
577180.4	4179837.22	314.4
577180.36	4179837.79	314.38
577180.3299	4179838.43	314.8
577180.27	4179838.93	314.34
577180.22	4179839.51	314.34
577180.18	4179840.09	314.4
577180.13	4179840.62	314.21
577180.0799	4179841.18	314.13
577180.05	4179841.77	314.28
577180	4179842.33	314.15
577179.96	4179842.9	314.19
577179.92	4179843.48	314.26
577179.88	4179844.08	314.46
577179.8299	4179844.62	314.3
577179.78	4179845.18	314.25
577179.74	4179845.75	314.28
577179.6999	4179846.31	314.29
577179.67	4179846.92	314.6
577179.63	4179847.49	314.64
577179.5799	4179848.04	314.5
577179.54	4179848.62	314.56
577179.5	4179849.22	314.77
577179.46	4179849.79	314.79
577179.42	4179850.38	314.88
577179.37	4179850.94	314.8
577179.3299	4179851.54	315.02
577179.3	4179852.14	315.17
577179.72	4179854.29	327.15
577179.21	4179853.25	315.15
577179.1901	4179853.88	315.63
577179.14	4179854.46	315.61
577179.09	4179855.01	315.54
577179.23	4179856.18	320.15
577179.22	4179856.85	320.94
577179.22	4179857.54	321.99
577179.23	4179858.28	323.31
577179.1901	4179858.85	323.42
577179.15	4179859.44	323.53
577179.09	4179859.93	323.03
577179.06	4179860.54	323.38
577178.98	4179861	322.49
577178.93	4179861.54	322.27
577178.89	4179862.11	322.41
577178.84	4179862.65	322.23
577178.56	4179862.51	316.4
577178.77	4179863.84	322.69
577178.75	4179864.45	323.13
577178.8201	4179865.37	326.06
577178.84	4179866.13	327.69
577178.6901	4179866.35	324.9
577178.6901	4179867.05	326.13
577178.66	4179867.63	326.24
577178.6901	4179868.41	328.17
577178.59	4179868.81	326.86
577178.5	4179869.22	325.51
577178.46	4179869.81	325.69
577178.53	4179870.71	328.6
577178.39	4179870.97	326.03
577178.4401	4179871.81	328.46
577178.38	4179872.3	327.86
577178.23	4179872.57	325.26
577178.0799	4179872.83	322.56
577177.8	4179872.75	316.85
577177.75	4179873.3	316.75
577177.6999	4179873.85	316.53
577177.65	4179874.39	316.35
577177.61	4179874.96	316.4
577177.56	4179875.52	316.31
577177.51	4179876.05	316.06
577177.47	4179876.62	316.05
577177.43	4179877.19	316.12
577177.39	4179877.77	316.26
577177.35	4179878.36	316.42
577177.31	4179878.93	316.45
577177.26	4179879.48	316.27
577177.21	4179880.04	316.22
577177.18	4179880.61	316.35
577177.13	4179881.17	316.35
577177.0799	4179881.73	316.22
577176.17	4179882.07	316.55
577176.1999	4179881.49	316.41
577176.24	4179880.9	316.2
577176.27	4179880.33	316.14
577176.3299	4179879.8	316.5
577176.37	4179879.22	316.33
577176.4	4179878.63	316.19
577176.46	4179878.11	316.63
577176.5	4179877.54	316.44
577176.53	4179876.93	316.13
577176.5701	4179876.37	316.26
577176.61	4179875.81	316.24
577176.66	4179875.26	316.43
577177.03	4179875.55	324.33
577177.0701	4179875	324.35
577177.12	4179874.45	324.52
577177.14	4179873.85	324.11
577177.1901	4179873.3	324.29
577176.9401	4179871.92	317
577177.25	4179872.12	323.74
577177.3201	4179871.62	324.3
577177.46	4179871.34	326.77
577177.51	4179870.82	327.03
577177.64	4179870.49	329.13
577177.66	4179869.87	328.65
577177.42	4179868.51	321.74
577177.72	4179868.68	328.03
577177.66	4179867.81	325.44
577177.6901	4179867.24	325.35
577177.75	4179866.72	325.74
577177.78	4179866.13	325.45
577177.93	4179865.9	328.22
577177.78	4179864.75	323.33
577177.65	4179863.65	319.05
577177.8201	4179863.47	322.13
577177.86	4179862.9	322.15
577177.9	4179862.33	322.09
577177.93	4179861.74	321.91
577177.99	4179861.21	322.2
577178.0799	4179860.8	323.47
577178.15	4179860.32	324.15
577178.17	4179859.7	323.72
577178.24	4179859.22	324.34
577178.31	4179858.76	325.14
577178.3201	4179858.09	324.31
577178.37	4179857.55	324.53
577178.3	4179856.62	321.66
577178.34	4179856.05	321.64
577178.35	4179855.38	320.93
577178.1901	4179854.12	315.58
577178.23	4179853.54	315.57
577178.27	4179852.95	315.44
577178.31	4179852.39	315.47
577178.34	4179851.78	315.24
577178.39	4179851.23	315.43
577178.42	4179850.62	315.15
577178.46	4179850.02	314.97
577178.5	4179849.43	314.83
577178.55	4179848.89	315.02
577178.5799	4179848.3	314.85
577178.62	4179847.71	314.73
577178.66	4179847.14	314.81
577178.6999	4179846.57	314.76
577178.74	4179845.99	314.56
577178.78	4179845.38	314.41
577178.8201	4179844.79	314.34
577178.86	4179844.23	314.37
577178.91	4179843.71	314.7
577178.9499	4179843.11	314.59
577178.98	4179842.46	314.12
577179.02	4179841.89	314.17
577179.0701	4179841.31	314.19
577179.12	4179840.79	314.6
577179.15	4179840.17	314.24
577179.1901	4179839.58	314.06
577179.24	4179839.05	314.34
577179.28	4179838.47	314.32
577179.3201	4179837.89	314.2
577179.36	4179837.32	314.26
577179.41	4179836.77	314.42
577179.46	4179836.24	314.61
577179.49	4179835.61	314.31
577179.55	4179835.07	314.56
577179.6	4179834.57	314.97
577179.64	4179833.96	314.85
577179.6901	4179833.39	314.9
577179.71	4179832.74	314.37
577179.75	4179832.15	314.33
577179.8	4179831.6	314.43
577179.84	4179831.03	314.53
577179.88	4179830.43	314.39
577179.93	4179829.88	314.53
577179.96	4179829.25	314.23
577180	4179828.68	314.23
577180.05	4179828.16	314.49
577180.09	4179827.53	314.2
577180.12	4179826.93	314.08
577180.17	4179826.36	314.14
577180.21	4179825.8	314.19
577180.25	4179825.21	314.1
577180.29	4179824.61	313.97
577180.34	4179824.05	314.06
577180.38	4179823.5	314.23
577180.42	4179822.89	314.05
577180.46	4179822.29	313.95
577180.51	4179821.75	314.05
577180.55	4179821.17	314.03
577180.59	4179820.59	314.03
577180.63	4179819.99	313.95
577180.67	4179819.39	313.86
577180.71	4179818.77	313.64
577180.75	4179818.19	313.64
577180.8	4179817.65	313.8
577180.84	4179817.09	313.9
577180.88	4179816.48	313.72
577180.92	4179815.9	313.74
577180.96	4179815.28	313.51
577181.01	4179814.73	313.68
577181.05	4179814.13	313.57
577181.09	4179813.57	313.6
577181.14	4179813	313.7
577181.17	4179812.36	313.37
577181.21	4179811.78	313.34
577181.25	4179811.2	313.36
577181.29	4179810.61	313.24
577181.34	4179810.06	313.37
577181.38	4179809.47	313.44
577181.42	4179808.84	313.15
577181.46	4179808.26	313.11
577181.5	4179807.67	313.13
577181.55	4179807.11	313.26
577181.59	4179806.52	313.16
577181.63	4179805.91	313.02
577181.66	4179805.3	312.89
577181.71	4179804.73	312.93
577181.76	4179804.18	313.11
577181.8	4179803.55	312.9
577181.8299	4179802.93	312.69
577181.88	4179802.4	312.98
577181.92	4179801.78	312.73
577181.96	4179801.17	312.64
577182	4179800.6	312.7
577182.05	4179800.02	312.71
577182.09	4179799.41	312.61
577182.13	4179798.82	312.56
577182.17	4179798.24	312.51
577182.22	4179797.67	312.63
577182.25	4179797.04	312.38
577182.3	4179796.44	312.37
577182.3299	4179795.82	312.18
577182.38	4179795.31	312.49
577182.43	4179794.71	312.41
577182.46	4179794.06	312.11
577182.51	4179793.52	312.29
577182.56	4179792.98	312.53
577182.59	4179792.3	312.05
577182.63	4179791.77	312.25
577182.24	4179792.11	312.15
577182.1999	4179792.73	312.41
577182.16	4179793.29	312.38
577182.12	4179793.85	312.4
577182.0701	4179794.42	312.43
577182.02	4179794.95	312.26
577181.99	4179795.58	312.62
577181.9499	4179796.15	312.68
577181.91	4179796.72	312.71
577181.87	4179797.29	312.78
577181.8201	4179797.78	312.42
577181.78	4179798.38	312.61
577181.74	4179798.95	312.68
577181.6999	4179799.5	312.67
577181.66	4179800.07	312.69
577181.62	4179800.66	312.78
577181.5799	4179801.26	313.01
577181.54	4179801.82	312.97
577181.49	4179802.37	312.88
577181.4499	4179802.94	312.9
577181.4	4179803.5	312.84
577181.36	4179804.09	312.97
577181.3299	4179804.68	313.09
577181.28	4179805.22	313.02
577181.24	4179805.78	312.98
577181.1901	4179806.35	313.01
577181.16	4179806.93	313.12
577181.13	4179807.59	313.59
577181.09	4179808.17	313.67
577181.03	4179808.63	313.13
577180.99	4179809.22	313.23
577180.9401	4179809.76	313.14
577180.91	4179810.38	313.37
577180.86	4179810.93	313.31
577180.8201	4179811.48	313.26
577180.78	4179812.09	313.48
577180.73	4179812.64	313.38
577180.71	4179813.29	313.84
577180.67	4179813.88	314.02
577180.62	4179814.4	313.79
577180.56	4179814.9	313.43
577180.54	4179815.54	313.86
577180.49	4179816.11	313.82
577180.4401	4179816.66	313.69
577180.4	4179817.19	313.55
577180.35	4179817.76	313.56
577180.3201	4179818.37	313.82
577180.28	4179818.95	313.91
577180.23	4179819.5	313.81
577180.1901	4179820.08	313.84
577180.15	4179820.68	314
577180.11	4179821.24	313.98
577180.0701	4179821.81	313.99
577180.03	4179822.41	314.17
577179.98	4179822.95	313.99
577179.9401	4179823.52	314
577179.9	4179824.13	314.21
577179.85	4179824.65	313.9
577179.81	4179825.24	314.11
577179.77	4179825.8	314.08
577179.73	4179826.38	314.11
577179.68	4179826.94	314.08
577179.64	4179827.52	314.15
577179.59	4179828.07	314.02
577179.56	4179828.69	314.33
577179.52	4179829.24	314.27
577179.47	4179829.81	314.33
577179.4499	4179830.45	314.71
577179.41	4179831.03	314.81
577179.34	4179831.51	314.24
577179.31	4179832.14	314.64
577179.27	4179832.72	314.68
577179.23	4179833.28	314.65
577179.1901	4179833.86	314.76
577179.14	4179834.42	314.73
577179.1	4179835.01	314.79
577179.05	4179835.55	314.65
577179.02	4179836.14	314.84
577178.9499	4179836.61	314.16
577178.9	4179837.17	314.11
577178.87	4179837.76	314.23
577178.8201	4179838.29	314.05
577178.77	4179838.87	314.07
577178.73	4179839.44	314.07
577178.6901	4179840.02	314.16
577178.65	4179840.58	314.14
577178.6	4179841.13	314.02
577178.5799	4179841.78	314.59
577178.53	4179842.34	314.52
577178.49	4179842.9	314.48
577178.4401	4179843.45	314.36
577178.4	4179844.02	314.4
577178.36	4179844.59	314.45
577178.31	4179845.15	314.32
577178.28	4179845.78	314.68
577178.23	4179846.34	314.64
577178.1901	4179846.92	314.72
577178.16	4179847.5	314.89
577178.12	4179848.08	314.93
577178.0799	4179848.66	315.02
577178.03	4179849.22	314.91
577177.99	4179849.83	315.15
577177.9499	4179850.4	315.17
577177.91	4179850.99	315.3
577177.88	4179851.57	315.46
577177.8299	4179852.13	315.43
577177.79	4179852.71	315.53
577177.75	4179853.29	315.6
577177.71	4179853.86	315.62
577177.84	4179855.01	320.04
577177.85	4179855.74	321.33
577177.87	4179856.53	323.03
577177.85	4179857.15	323.56
577177.85	4179857.83	324.49
577177.8201	4179858.45	324.97
577177.81	4179859.12	325.79
577177.77	4179859.68	325.74
577177.6999	4179860.18	325.15
577177.65	4179860.7	324.91
577177.54	4179861.04	323.13
577177.48	4179861.57	322.84
577177.28	4179861.64	318.94
577177.24	4179862.23	319.06
577177.46	4179863.59	325.56
577177.35	4179863.92	323.71
577177.3299	4179864.58	324.45
577177.3201	4179865.24	325.26
577177.16	4179865.45	322.36
577177.34	4179866.67	327.88
577177.3	4179867.22	327.87
577177.23	4179867.7	327.17
577177.13	4179868.1	325.82
577177.21	4179869	328.74
577177.13	4179869.47	327.98
577177.0799	4179870.01	327.78
577177.1	4179870.73	329.15
577177.03	4179871.23	328.61
577176.81	4179871.28	324.17
577176.92	4179872.29	327.99
577176.88	4179872.83	327.91
577176.71	4179873.04	324.87
577176.6999	4179873.71	325.71
577176.65	4179874.24	325.42
577176.56	4179874.67	324.24
577176.21	4179874.41	316.79
577176.15	4179874.95	316.52
577176.11	4179875.52	316.57
577176.06	4179876.05	316.26
577176.02	4179876.63	316.39
577175.97	4179877.18	316.2
577175.93	4179877.75	316.22
577175.88	4179878.31	316.22
577175.85	4179878.89	316.43
577175.8	4179879.44	316.23
577175.76	4179880	316.24
577175.73	4179880.6	316.67
577175.6901	4179881.17	316.64
577175.63	4179881.7	316.24
577174.74	4179881.61	316.18
577174.79	4179881.07	316.56
577174.8299	4179880.49	316.39
577174.87	4179879.9	316.32
577174.91	4179879.33	316.28
577174.9401	4179878.75	316.16
577174.99	4179878.2	316.26
577175.03	4179877.63	316.19
577175.0701	4179877.06	316.26
577175.12	4179876.52	316.46
577175.15	4179875.93	316.2
577175.21	4179875.41	316.61
577175.59	4179875.74	324.78
577175.63	4179875.18	324.74
577175.6999	4179874.68	325.4
577175.73	4179874.09	325.13
577175.77	4179873.53	325.12
577175.89	4179873.18	327.03
577175.93	4179872.64	327.18
577175.9401	4179871.99	326.47
577176.0701	4179871.66	328.49
577175.8299	4179870.33	321.64
577176.0799	4179870.33	326.65
577176.04	4179869.56	324.83
577176.27	4179869.52	329.33
577176.29	4179868.91	328.9
577176.3201	4179868.33	328.74
577176.23	4179867.37	325.33
577176.23	4179866.7	324.46
577176.36	4179866.39	326.53
577176.4	4179865.81	326.43
577176.4499	4179865.28	326.71
577176.49	4179864.72	326.74
577176.53	4179864.15	326.69
577176.28	4179862.7	319.39
577176.3299	4179862.17	319.7
577176.39	4179861.64	320
577176.4	4179860.99	319.31
577176.47	4179860.49	319.92
577176.68	4179860.48	324.26
577176.6999	4179859.84	323.65
577176.8299	4179859.56	325.95
577176.8299	4179858.85	324.84
577176.89	4179858.36	325.42
577176.92	4179857.76	325.09
577176.89	4179856.94	323.21
577176.93	4179856.39	323.3
577176.86	4179855.45	320.43
577176.88	4179854.83	319.89
577176.77	4179853.74	316.03
577176.81	4179853.17	315.98
577176.85	4179852.59	315.94
577176.88	4179852	315.78
577176.92	4179851.43	315.66
577176.96	4179850.86	315.7
577177	4179850.24	315.41
577177.03	4179849.64	315.22
577177.0701	4179849.05	315.12
577177.12	4179848.5	315.24
577177.15	4179847.9	315.07
577177.1901	4179847.31	315.07
577177.23	4179846.73	315.01
577177.27	4179846.12	314.77
577177.31	4179845.57	314.85
577177.35	4179845	314.88
577177.39	4179844.41	314.76
577177.42	4179843.81	314.53
577177.46	4179843.24	314.5
577177.51	4179842.69	314.7
577177.54	4179842.06	314.24
577177.59	4179841.54	314.49
577177.62	4179840.92	314.21
577177.66	4179840.31	314.08
577177.6999	4179839.75	314.12
577177.74	4179839.16	314.01
577177.78	4179838.58	314
577177.8299	4179838.06	314.33
577177.86	4179837.41	313.84
577177.91	4179836.88	314.15
577177.9499	4179836.27	314
577177.99	4179835.69	313.99
577178.03	4179835.13	314.04
577178.0799	4179834.58	314.2
577178.13	4179834.03	314.39
577178.17	4179833.44	314.18
577178.22	4179832.9	314.46
577178.25	4179832.29	314.24
577178.3	4179831.72	314.28
577178.34	4179831.14	314.27
577178.37	4179830.54	314.08
577178.42	4179829.97	314.14
577178.46	4179829.4	314.22
577178.5	4179828.83	314.19
577178.54	4179828.26	314.18
577178.59	4179827.67	314.13
577178.63	4179827.12	314.23
577178.68	4179826.54	314.28
577178.72	4179825.97	314.3
577178.75	4179825.35	313.96
577178.8	4179824.82	314.35
577178.86	4179824.27	314.57
577178.89	4179823.65	314.3
577178.92	4179823.03	314.05
577178.96	4179822.43	313.88
577179	4179821.87	313.99
577179.04	4179821.26	313.82
577179.09	4179820.7	313.93
577179.13	4179820.13	313.93
577179.17	4179819.54	313.85
577179.22	4179819	314.03
577179.25	4179818.37	313.78
577179.29	4179817.79	313.82
577179.3299	4179817.23	313.83
577179.38	4179816.66	313.94
577179.42	4179816.06	313.85
577179.46	4179815.45	313.68
577179.51	4179814.91	313.97
577179.54	4179814.29	313.71
577179.5799	4179813.69	313.55
577179.63	4179813.17	313.88
577179.68	4179812.61	313.96
577179.72	4179812.03	313.93
577179.75	4179811.4	313.67
577179.78	4179810.77	313.32
577179.8299	4179810.19	313.37
577179.87	4179809.6	313.34
577179.91	4179809.03	313.31
577179.96	4179808.47	313.43
577179.99	4179807.86	313.3
577180.04	4179807.29	313.28
577180.0701	4179806.64	313.03
577180.12	4179806.08	313.19
577180.16	4179805.49	313.12
577180.1999	4179804.92	313.19
577180.24	4179804.31	313.04
577180.29	4179803.78	313.3
577180.34	4179803.19	313.28
577180.37	4179802.59	313.17
577180.42	4179802.02	313.21
577180.46	4179801.45	313.25
577180.5	4179800.83	313.06
577180.53	4179800.21	312.9
577180.5701	4179799.62	312.82
577180.62	4179799.05	312.83
577180.66	4179798.45	312.82
577180.6999	4179797.83	312.66
577180.74	4179797.27	312.8
577180.78	4179796.67	312.72
577180.8201	4179796.08	312.65
577180.87	4179795.54	312.83
577180.91	4179794.9	312.56
577180.9499	4179794.31	312.58
577181	4179793.73	312.63
577181.04	4179793.2	312.83
577181.0799	4179792.57	312.56
577181.12	4179791.97	312.49
577180.81	4179791.68	312.78
577180.77	4179792.22	312.71
577180.72	4179792.73	312.49
577180.68	4179793.32	312.64
577180.64	4179793.89	312.68
577180.6	4179794.45	312.72
577180.56	4179795.05	312.9
577180.52	4179795.59	312.81
577180.47	4179796.13	312.68
577180.43	4179796.7	312.7
577180.39	4179797.3	312.86
577180.35	4179797.86	312.89
577180.31	4179798.44	312.98
577180.27	4179799.01	313.02
577180.23	4179799.55	312.93
577180.1901	4179800.18	313.24
577180.15	4179800.73	313.2
577180.1	4179801.26	313.01
577180.06	4179801.83	313.04
577180.03	4179802.45	313.33
577179.98	4179802.98	313.15
577179.93	4179803.52	313.03
577179.89	4179804.12	313.2
577179.85	4179804.7	313.23
577179.81	4179805.27	313.26
577179.77	4179805.86	313.39
577179.73	4179806.4	313.32
577179.6901	4179806.97	313.34
577179.65	4179807.53	313.37
577179.62	4179808.16	313.72
577179.56	4179808.64	313.29
577179.52	4179809.23	313.43
577179.48	4179809.79	313.41
577179.4401	4179810.38	313.56
577179.39	4179810.9	313.32
577179.36	4179811.53	313.66
577179.31	4179812.07	313.52
577179.27	4179812.64	313.55
577179.22	4179813.18	313.42
577179.1901	4179813.8	313.74
577179.14	4179814.34	313.59
577179.11	4179814.94	313.76
577179.06	4179815.5	313.74
577179.02	4179816.06	313.66
577178.97	4179816.63	313.64
577178.93	4179817.21	313.72
577178.89	4179817.79	313.74
577178.85	4179818.37	313.8
577178.81	4179818.93	313.79
577178.77	4179819.49	313.78
577178.73	4179820.05	313.82
577178.68	4179820.63	313.86
577178.65	4179821.21	313.98
577178.6	4179821.75	313.84
577178.55	4179822.32	313.81
577178.52	4179822.94	314.14
577178.48	4179823.52	314.21
577178.4401	4179824.07	314.11
577178.4	4179824.65	314.18
577178.35	4179825.21	314.1
577178.3299	4179825.85	314.57
577178.29	4179826.45	314.74
577178.23	4179826.96	314.4
577178.1901	4179827.52	314.36
577178.14	4179828.07	314.23
577178.1	4179828.65	314.36
577178.06	4179829.2	314.3
577178.01	4179829.76	314.23
577177.97	4179830.33	314.25
577177.93	4179830.88	314.17
577177.88	4179831.44	314.11
577177.84	4179832.03	314.21
577177.8	4179832.58	314.1
577177.76	4179833.16	314.17
577177.71	4179833.74	314.2
577177.67	4179834.29	314.12
577177.62	4179834.85	314.09
577177.59	4179835.44	314.2
577177.54	4179836.02	314.22
577177.48	4179836.5	313.72
577177.4499	4179837.12	314.05
577177.42	4179837.73	314.34
577177.38	4179838.3	314.35
577177.3201	4179838.81	313.97
577177.28	4179839.39	314.07
577177.24	4179839.98	314.18
577177.21	4179840.58	314.39
577177.16	4179841.14	314.3
577177.12	4179841.72	314.33
577177.0799	4179842.29	314.4
577177.05	4179842.89	314.63
577177	4179843.45	314.54
577176.97	4179844.06	314.91
577176.93	4179844.64	314.95
577176.9	4179845.26	315.24
577176.85	4179845.82	315.21
577176.8	4179846.34	314.91
577176.76	4179846.94	315.06
577176.73	4179847.53	315.27
577176.6901	4179848.14	315.5
577176.64	4179848.68	315.31
577176.61	4179849.26	315.42
577176.5701	4179849.85	315.51
577176.52	4179850.4	315.48
577176.49	4179850.99	315.66
577176.4499	4179851.58	315.83
577176.41	4179852.14	315.79
577176.38	4179852.74	316.11
577176.34	4179853.32	316.21
577176.29	4179853.89	316.18
577176.4	4179854.96	320
577176.39	4179855.63	320.82
577176.41	4179856.4	322.38
577176.42	4179857.13	323.64
577176.42	4179857.83	324.64
577176.39	4179858.46	325.17
577176.37	4179859.07	325.56
577176.3299	4179859.64	325.67
577176.24	4179860.05	324.49
577176.1999	4179860.62	324.48
577176.1	4179861	322.99
577175.98	4179861.34	321.24
577175.92	4179861.83	320.61
577176.05	4179862.95	325.07
577176.02	4179863.53	325.27
577176.03	4179864.25	326.62
577175.9499	4179864.71	325.78
577175.88	4179865.17	325.05
577175.89	4179865.86	326.15
577175.89	4179866.56	327.22
577175.78	4179866.94	325.76
577175.88	4179867.9	329.1
577175.68	4179867.99	325.15
577175.66	4179868.62	325.71
577175.5	4179868.84	322.9
577175.53	4179869.62	324.71
577175.55	4179870.35	326.16
577175.53	4179870.99	326.83
577175.54	4179871.7	328.08
577175.54	4179872.37	329.15
577175.3299	4179872.45	324.88
