# .PCD v.7 - Point Cloud Data file format
VERSION .7
FIELDS x y z
SIZE 4 4 4
TYPE F F F
COUNT 1 1 1
WIDTH 1379
HEIGHT 1
VIEWPOINT 0 0 0 1 0 0 0
POINTS 1379
DATA ascii
577113.8125 4179802.5 312.549987793
577113.8125 4179803 312.940002441
577113.8125 4179803.75 313.339996338
577113.75 4179804.25 313.170013428
577113.6875 4179804.75 313.160003662
577112.625 4179806.25 313.359985352
577112.6875 4179805.75 313.359985352
577112.6875 4179805.25 313.25
577112.6875 4179804.5 312.850006104
577112.75 4179804 312.950012207
577112.75 4179803.25 312.730010986
577112.8125 4179802.75 312.309997559
577112.8125 4179802 312.209991455
577112.875 4179801.5 312.130004883
577112.875 4179801 311.929992676
577112.875 4179800.25 311.869995117
577112.9375 4179799.75 311.779998779
577112.6875 4179798 311.929992676
577112.6875 4179798.5 311.910003662
577112.625 4179799.25 312.029998779
577112.625 4179799.75 311.700012207
577112.5625 4179800.25 311.609985352
577112.5625 4179800.75 311.899993896
577112.5 4179801.5 312.089996338
577112.5 4179802 312.140014648
577112.5 4179802.75 312.329986572
577112.4375 4179803.25 312.470001221
577112.4375 4179803.75 312.589996338
577112.375 4179804.5 312.820007324
577112.375 4179805 313.269989014
577112.375 4179805.75 313.450012207
577111.3125 4179806.75 313.489990234
577111.3125 4179806.25 313.429992676
577111.375 4179805.5 313.040008545
577111.375 4179805 312.75
577111.375 4179804.25 312.709991455
577111.4375 4179803.75 312.450012207
577111.4375 4179803.25 312.510009766
577111.5 4179802.5 312.220001221
577111.5 4179802 312.049987793
577111.5625 4179801.25 311.950012207
577111.5625 4179800.75 311.709991455
577111.5625 4179800 311.600006104
577111.625 4179799 311.640014648
577111.25 4179800.25 311.600006104
577111.25 4179800.75 311.660003662
577111.1875 4179801.25 311.630004883
577111.1875 4179802 311.910003662
577111.125 4179802.5 312.160003662
577111.125 4179803 312.309997559
577111.125 4179803.75 312.609985352
577111.0625 4179804.25 312.450012207
577111.0625 4179805 312.779998779
577111 4179805.5 312.910003662
577111 4179806 313.100006104
577111 4179806.75 313.480010986
577110 4179806.75 313.299987793
577110 4179806.25 313.079986572
577110.0625 4179805.5 313.040008545
577110.0625 4179805 312.700012207
577110.125 4179804.25 312.489990234
577110.125 4179803.75 312.489990234
577110.1875 4179803 312.480010986
577110.1875 4179802.5 311.880004883
577110.1875 4179801.75 311.720001221
577110.25 4179800.5 311.649993896
577110.0625 4179799.25 311.920013428
577110 4179799.75 311.920013428
577110 4179800.25 311.920013428
577109.9375 4179801.25 311.589996338
577109.875 4179802 311.739990234
577109.875 4179802.5 311.859985352
577109.8125 4179803 312.010009766
577109.8125 4179803.75 312.369995117
577109.75 4179804.25 312.559997559
577109.75 4179805 312.570007324
577109.75 4179805.5 312.649993896
577109.6875 4179806 312.720001221
577109.6875 4179806.75 313.260009766
577109.625 4179807.25 313.230010986
577109.625 4179807.75 313.339996338
577108.625 4179807.5 313.119995117
577108.6875 4179807 313.140014648
577108.6875 4179806.5 312.940002441
577108.75 4179805.75 312.679992676
577108.75 4179805.25 312.739990234
577108.8125 4179804.5 312.790008545
577108.8125 4179804 312.410003662
577108.8125 4179803.25 311.940002441
577108.875 4179802.75 311.760009766
577108.875 4179802 311.640014648
577108.9375 4179801.5 311.600006104
577108.9375 4179801 311.540008545
577108.625 4179801 311.540008545
577108.625 4179801.5 311.940002441
577108.5625 4179802 311.640014648
577108.5625 4179802.75 311.700012207
577108.5625 4179803.25 312.019989014
577108.5 4179803.75 312.070007324
577108.5 4179804.5 312.25
577108.4375 4179805 312.399993896
577108.4375 4179805.75 312.489990234
577108.4375 4179806.25 312.75
577108.375 4179806.75 313.010009766
577108.375 4179807.5 313.079986572
577107.375 4179807.75 313.149993896
577107.375 4179807 312.820007324
577107.4375 4179806.5 312.730010986
577107.4375 4179805.75 312.679992676
577107.5 4179805.25 312.470001221
577107.5 4179804.75 312.350006104
577107.5 4179804 311.970001221
577107.5625 4179803.5 312.25
577107.5625 4179803 311.679992676
577107.625 4179802.25 311.660003662
577107.625 4179801.75 311.709991455
577107.375 4179800.75 311.609985352
577107.3125 4179802.5 311.679992676
577107.25 4179803.25 311.880004883
577107.25 4179803.75 311.75
577107.1875 4179804.25 311.829986572
577107.1875 4179805 312.149993896
577107.1875 4179805.5 312.579986572
577107.125 4179806 312.489990234
577107.125 4179806.75 312.660003662
577107.0625 4179807.25 312.890014648
577107.0625 4179808 313.260009766
577106.0625 4179808.75 313.290008545
577106.0625 4179808 313
577106.125 4179807.5 312.809997559
577106.125 4179806.75 312.510009766
577106.1875 4179806.25 312.380004883
577106.1875 4179805.5 312.010009766
577106.25 4179805 312.140014648
577106.25 4179804.25 311.899993896
577106.25 4179803.75 311.920013428
577106.3125 4179803.25 311.809997559
577106.375 4179802 311.690002441
577106 4179802.75 311.5
577106 4179803.25 311.519989014
577105.9375 4179804 311.859985352
577105.9375 4179804.5 311.859985352
577105.875 4179805 311.970001221
577105.875 4179805.75 312.369995117
577105.875 4179806.25 312.410003662
577105.8125 4179807 312.640014648
577105.8125 4179807.5 312.779998779
577105.75 4179808 313.119995117
577105.75 4179808.75 313.230010986
577104.75 4179809 313.200012207
577104.8125 4179808.25 312.970001221
577104.8125 4179807.75 313.070007324
577104.875 4179807 312.589996338
577104.875 4179806.5 312.25
577104.875 4179805.75 312.149993896
577104.9375 4179805.25 312.290008545
577105 4179804.75 312.339996338
577105 4179804 311.950012207
577105.0625 4179802.75 311.579986572
577104.6875 4179803.5 311.470001221
577104.6875 4179804 311.839996338
577104.6875 4179804.5 311.890014648
577104.625 4179805.25 311.970001221
577104.625 4179805.75 312.029998779
577104.5625 4179806.25 312.089996338
577104.5625 4179807 312.390014648
577104.5 4179807.5 312.739990234
577104.5 4179808.25 312.859985352
577104.5 4179808.75 312.809997559
577104.4375 4179809.25 313.149993896
577104.4375 4179810 313.309997559
577101.75 4179840.75 313.220001221
577101.875 4179839 313.239990234
577101.875 4179838.5 313.269989014
577103.4375 4179810.25 313.350006104
577103.5 4179809.75 313.329986572
577103.5 4179809 313.059997559
577103.5625 4179808.5 312.829986572
577103.5625 4179807.75 312.559997559
577103.5625 4179807.25 312.380004883
577103.625 4179806.5 312.230010986
577103.625 4179806 312.230010986
577103.6875 4179805.5 312.420013428
577103.6875 4179804.75 311.950012207
577103.6875 4179804 311.519989014
577103.375 4179804 311.609985352
577103.375 4179804.5 311.779998779
577103.375 4179805.25 311.820007324
577103.3125 4179805.75 311.970001221
577103.3125 4179806.25 311.970001221
577103.25 4179807 312.260009766
577103.25 4179807.5 312.459991455
577103.25 4179808.25 312.690002441
577103.1875 4179808.75 312.779998779
577103.1875 4179809.25 313.190002441
577103.125 4179810 313.119995117
577103.125 4179810.5 313.209991455
577101.5625 4179837.75 313.279998779
577101.5 4179838.25 313.190002441
577101.5 4179838.75 313.170013428
577101.4375 4179839.5 313.070007324
577101.4375 4179840 313.269989014
577101.375 4179840.5 313.149993896
577100.5 4179841.25 313.119995117
577100.5 4179840.5 313.130004883
577100.5625 4179840 313.049987793
577100.5625 4179839.5 313.089996338
577100.625 4179838.75 312.910003662
577100.625 4179838.25 313.059997559
577100.6875 4179837.75 313.079986572
577100.6875 4179837 313
577100.75 4179836 313.220001221
577100.8125 4179835.5 313.059997559
577100.8125 4179834.75 313.130004883
577100.875 4179834.25 313.070007324
577100.9375 4179833.75 313.25
577102.1875 4179810.75 313.339996338
577102.1875 4179810 312.910003662
577102.25 4179809.5 312.929992676
577102.25 4179808.75 312.660003662
577102.3125 4179808.25 312.5
577102.3125 4179807.5 312.25
577102.3125 4179807 312.209991455
577102.375 4179806.25 312.100006104
577102.375 4179805.75 311.829986572
577102.4375 4179805 311.540008545
577102.4375 4179804.5 311.519989014
577102.5 4179804 311.609985352
577102.125 4179804.25 311.450012207
577102.0625 4179805.25 311.480010986
577102 4179806 311.720001221
577102 4179806.5 311.910003662
577102 4179807 312.079986572
577101.9375 4179807.75 312.299987793
577101.9375 4179808.25 312.489990234
577101.9375 4179809 313.100006104
577101.875 4179809.5 312.880004883
577101.875 4179810.25 313.109985352
577101.8125 4179810.75 313.320007324
577100.625 4179832.25 313.220001221
577100.5625 4179833.5 313.25
577100.5 4179834 313.279998779
577100.5 4179834.5 313.220001221
577100.4375 4179835 313.119995117
577100.375 4179835.75 313.109985352
577100.375 4179836.25 313.070007324
577100.3125 4179836.75 312.839996338
577100.3125 4179837.25 313.040008545
577100.25 4179838 313.160003662
577100.25 4179838.5 313.140014648
577100.1875 4179839 313.100006104
577100.1875 4179839.75 313.119995117
577100.125 4179840.25 312.920013428
577100.125 4179840.75 313.100006104
577100.0625 4179841.25 313.220001221
577099.125 4179842.5 313.079986572
577099.1875 4179842 313.220001221
577099.25 4179840.25 313.160003662
577099.3125 4179839.75 313.010009766
577099.3125 4179839 312.980010986
577099.375 4179838.5 313.220001221
577099.375 4179838 312.890014648
577099.4375 4179837.25 312.929992676
577099.4375 4179836.75 312.910003662
577099.5 4179836.25 313.059997559
577099.5 4179835.75 312.920013428
577099.5 4179835 312.790008545
577099.5625 4179834.5 312.950012207
577099.625 4179834 313.109985352
577099.625 4179833.25 312.950012207
577099.6875 4179832.75 312.940002441
577099.6875 4179832.25 313.070007324
577099.75 4179831.5 312.959991455
577099.8125 4179830.5 313.239990234
577099.8125 4179830 313.25
577100.875 4179811.5 313.209991455
577100.875 4179811 313.269989014
577100.9375 4179810.25 312.839996338
577100.9375 4179809.5 312.880004883
577100.9375 4179809 312.420013428
577101 4179808.25 312.489990234
577101 4179807.75 312.190002441
577101 4179807 311.920013428
577101.0625 4179806.5 312.010009766
577101.0625 4179805.75 311.549987793
577101.125 4179805.25 311.529998779
577101.1875 4179804.25 311.489990234
577100.8125 4179804.75 311.480010986
577100.8125 4179805.5 311.899993896
577100.8125 4179806 312.100006104
577100.75 4179806.75 312.170013428
577100.75 4179807.25 312.450012207
577100.6875 4179807.75 312.059997559
577100.6875 4179808.5 312.450012207
577100.625 4179809 312.480010986
577100.625 4179809.5 312.570007324
577100.625 4179810.25 312.880004883
577100.5625 4179810.75 313.130004883
577100.5625 4179811.25 313.25
577099.5 4179830 313.170013428
577099.4375 4179830.5 312.940002441
577099.4375 4179831.25 313.200012207
577099.375 4179831.75 312.890014648
577099.3125 4179832.25 313.119995117
577099.3125 4179833 313.010009766
577099.25 4179833.5 312.929992676
577099.25 4179834 312.950012207
577099.1875 4179834.5 312.929992676
577099.1875 4179835.25 313.089996338
577099.125 4179835.75 312.980010986
577099.125 4179836.25 312.989990234
577099.0625 4179836.75 313.010009766
577099.0625 4179837.5 313.070007324
577099 4179838 312.799987793
577099 4179838.5 312.940002441
577098.9375 4179839.25 313.049987793
577098.9375 4179839.75 313.140014648
577098.875 4179840.25 313.190002441
577098.875 4179840.75 313.049987793
577098.8125 4179841.5 313.179992676
577098.8125 4179842 313.230010986
577098.75 4179842.5 313.130004883
577097.875 4179842.75 313.040008545
577097.875 4179842 313.109985352
577097.9375 4179841 313.049987793
577098.0625 4179839.25 313.019989014
577098.0625 4179838.75 313.149993896
577098.125 4179838 313.070007324
577098.125 4179837.5 312.950012207
577098.1875 4179837 313.209991455
577098.1875 4179836.25 312.850006104
577098.25 4179835.75 312.890014648
577098.25 4179835.25 312.929992676
577098.3125 4179834.5 312.640014648
577098.3125 4179834 312.779998779
577098.375 4179833.5 312.649993896
577098.375 4179833 312.799987793
577098.4375 4179832.25 312.950012207
577098.4375 4179831.75 312.779998779
577098.5 4179831.25 312.880004883
577098.5 4179830.5 313.029998779
577098.5625 4179830 313.130004883
577098.625 4179829.5 313.170013428
577099.5625 4179811.5 313.290008545
577099.625 4179811 312.929992676
577099.625 4179810.25 312.880004883
577099.6875 4179809.75 312.609985352
577099.6875 4179809 312.410003662
577099.6875 4179808.5 312.230010986
577099.75 4179808 312.029998779
577099.75 4179807.25 311.619995117
577099.8125 4179806.75 311.799987793
577099.8125 4179806 311.670013428
577099.875 4179805.5 311.859985352
577099.875 4179805 311.670013428
577099.5 4179806 311.429992676
577099.4375 4179806.5 311.549987793
577099.4375 4179807 311.690002441
577099.375 4179807.75 311.75
577099.375 4179808.25 312.170013428
577099.375 4179809 312.25
577099.3125 4179809.5 312.589996338
577099.3125 4179810.25 312.809997559
577099.25 4179810.75 312.850006104
577099.25 4179811.25 312.929992676
577099.25 4179812 313.239990234
577098.3125 4179827.75 313.140014648
577098.3125 4179828.25 313.089996338
577098.25 4179829 313.179992676
577098.25 4179829.5 312.980010986
577098.1875 4179830 313.010009766
577098.125 4179830.5 312.869995117
577098.125 4179831 312.709991455
577098.0625 4179831.75 312.739990234
577098.0625 4179832.25 312.660003662
577098 4179832.75 312.75
577098 4179833.5 312.769989014
577097.9375 4179834 313.049987793
577097.9375 4179834.5 312.899993896
577097.875 4179835 312.760009766
577097.875 4179835.75 312.709991455
577097.8125 4179836.25 312.720001221
577097.8125 4179836.75 312.859985352
577097.75 4179837.25 312.730010986
577097.75 4179838 313.049987793
577097.6875 4179838.5 312.970001221
577097.6875 4179839 312.989990234
577097.625 4179839.75 312.880004883
577097.625 4179840.25 313.170013428
577097.5625 4179840.75 313.029998779
577097.5625 4179841.5 312.980010986
577097.5 4179842 313.130004883
577097.5 4179842.5 313.109985352
577096.625 4179842.25 313.070007324
577096.6875 4179841.75 313.049987793
577096.6875 4179841 313.149993896
577096.75 4179840.5 313.019989014
577096.75 4179840 313.010009766
577096.75 4179839.25 312.940002441
577096.8125 4179838.75 312.959991455
577096.8125 4179838.25 312.850006104
577096.875 4179837.75 312.989990234
577096.9375 4179837 312.989990234
577096.9375 4179836.5 312.899993896
577097 4179836 312.839996338
577097 4179835.25 312.820007324
577097 4179834.75 312.859985352
577097.0625 4179834.25 312.779998779
577097.0625 4179833.5 312.649993896
577097.125 4179833 312.880004883
577097.1875 4179832.5 313.040008545
577097.1875 4179831.75 312.660003662
577097.25 4179831.25 312.660003662
577097.25 4179830.75 312.470001221
577097.3125 4179830 312.790008545
577097.3125 4179829.5 313.010009766
577097.375 4179829 313.089996338
577097.375 4179828.5 312.829986572
577097.4375 4179827.75 312.730010986
577097.4375 4179827.25 312.910003662
577097.5 4179826.75 313.200012207
577097.5625 4179825.5 313.049987793
577098.3125 4179811 312.859985352
577098.375 4179810.5 312.720001221
577098.375 4179809.75 312.369995117
577098.4375 4179809.25 312.309997559
577098.4375 4179808.75 312.160003662
577098.5 4179808 311.989990234
577098.5 4179807.5 311.760009766
577098.5 4179806.75 311.529998779
577098.5625 4179806.25 311.459991455
577098.1875 4179806.5 311.459991455
577098.125 4179807 311.410003662
577098.125 4179807.75 311.649993896
577098.125 4179808.25 311.850006104
577098.0625 4179809 312.220001221
577098.0625 4179809.5 312.239990234
577098 4179810 312.489990234
577098 4179810.75 312.600006104
577098 4179811.25 312.920013428
577097.9375 4179812 313.029998779
577097.125 4179826 313.140014648
577097.125 4179826.5 312.980010986
577097.0625 4179827.25 312.829986572
577097.0625 4179827.75 312.839996338
577097 4179828.25 312.75
577096.9375 4179828.75 312.640014648
577096.9375 4179829.5 312.619995117
577096.875 4179830 312.700012207
577096.875 4179830.5 312.600006104
577096.8125 4179831 312.619995117
577096.8125 4179831.75 312.579986572
577096.75 4179832.25 312.609985352
577096.75 4179832.75 312.679992676
577096.6875 4179833.5 312.609985352
577096.6875 4179834 312.690002441
577096.625 4179834.5 312.700012207
577096.625 4179835 312.820007324
577096.5625 4179835.75 312.649993896
577096.5625 4179836.25 313.019989014
577096.5 4179836.75 313.019989014
577096.5 4179837.5 313.029998779
577096.4375 4179838 312.929992676
577096.4375 4179838.5 312.890014648
577096.375 4179839 313.040008545
577096.375 4179839.75 312.910003662
577096.3125 4179840.25 313.190002441
577096.25 4179842 313.079986572
577096.1875 4179842.5 312.989990234
577096.1875 4179843.25 313.170013428
577096.125 4179843.75 313.109985352
577096.125 4179844.25 313.170013428
577095.25 4179844 312.940002441
577095.3125 4179843.5 313.149993896
577095.3125 4179843 312.959991455
577095.375 4179841.75 312.959991455
577095.4375 4179841.25 313.070007324
577095.4375 4179840.5 313.179992676
577095.5 4179840 312.980010986
577095.5 4179839.5 312.940002441
577095.5 4179838.75 312.839996338
577095.5625 4179838.25 312.75
577095.5625 4179837.75 312.739990234
577095.625 4179837.25 312.980010986
577095.625 4179836.5 312.720001221
577095.6875 4179836 312.709991455
577095.6875 4179835.25 312.549987793
577095.75 4179834.75 312.820007324
577095.75 4179834.25 312.75
577095.8125 4179833.5 312.5
577095.8125 4179833 312.559997559
577095.875 4179832.5 312.630004883
577095.875 4179832 312.459991455
577095.9375 4179831.25 312.519989014
577095.9375 4179830.75 312.480010986
577096 4179830.25 312.440002441
577096 4179829.5 312.660003662
577096.0625 4179829 312.480010986
577096.0625 4179828.5 312.609985352
577096.125 4179827.75 312.570007324
577096.1875 4179827.25 312.899993896
577096.1875 4179826.75 312.730010986
577096.25 4179826.25 312.829986572
577096.25 4179825.75 313.179992676
577096.3125 4179825 313.100006104
577096.375 4179824 312.989990234
577096.4375 4179823.25 313.209991455
577097 4179812.5 313.190002441
577097.0625 4179811.75 313.010009766
577097.0625 4179811.25 312.700012207
577097.0625 4179810.5 312.429992676
577097.125 4179809.75 312.149993896
577097.125 4179809.25 312.190002441
577097.1875 4179808.75 312.119995117
577097.1875 4179808 312.160003662
577097.25 4179807.5 312.079986572
577097.25 4179806.75 311.529998779
577096.875 4179807.75 311.589996338
577096.8125 4179808.25 311.470001221
577096.8125 4179809 311.730010986
577096.8125 4179809.5 312.070007324
577096.75 4179810 312.140014648
577096.75 4179810.75 312.630004883
577096.75 4179811.25 312.779998779
577096.6875 4179812 312.910003662
577096.6875 4179812.5 313.190002441
577096.0625 4179822.75 313.160003662
577096 4179823.75 313.149993896
577096 4179824.5 312.950012207
577095.9375 4179825 313.140014648
577095.9375 4179825.5 312.790008545
577095.875 4179826 312.779998779
577095.8125 4179826.5 312.720001221
577095.8125 4179827.25 312.529998779
577095.75 4179827.75 312.540008545
577095.75 4179828.25 312.440002441
577095.6875 4179828.75 312.640014648
577095.6875 4179829.5 312.570007324
577095.625 4179830 312.329986572
577095.625 4179830.5 312.570007324
577095.5625 4179831 312.420013428
577095.5 4179831.75 312.269989014
577095.5 4179832.25 312.339996338
577095.5 4179833 312.829986572
577095.4375 4179833.5 312.489990234
577095.4375 4179834 312.779998779
577095.375 4179834.5 312.690002441
577095.375 4179835 312.600006104
577095.3125 4179835.75 312.869995117
577095.3125 4179836.25 312.989990234
577095.1875 4179838 312.910003662
577095.1875 4179838.5 312.760009766
577095.125 4179839.25 313.019989014
577095.0625 4179839.75 312.769989014
577095.0625 4179840.25 312.970001221
577095 4179841.5 313.170013428
577095 4179842 313.029998779
577094.9375 4179842.5 312.929992676
577094.875 4179844.25 313.160003662
577094.8125 4179844.75 313.089996338
577094 4179844.25 313.040008545
577094 4179843.75 312.989990234
577094.0625 4179843.25 313.149993896
577094.125 4179842 313.040008545
577094.125 4179841.5 313.079986572
577094.1875 4179840.75 313.010009766
577094.1875 4179840.25 312.859985352
577094.1875 4179839.75 312.790008545
577094.25 4179839 312.829986572
577094.25 4179838.5 312.690002441
577094.3125 4179838 312.820007324
577094.375 4179837.25 312.880004883
577094.375 4179836.75 312.890014648
577094.4375 4179836.25 312.820007324
577094.4375 4179835.5 312.709991455
577094.5 4179835 312.859985352
577094.5 4179834.5 312.600006104
577094.5 4179834 312.679992676
577094.5625 4179833.25 312.540008545
577094.5625 4179832.75 312.480010986
577094.625 4179832 312.309997559
577094.625 4179831.5 312.369995117
577094.6875 4179831 312.429992676
577094.6875 4179830.5 312.350006104
577094.75 4179829.75 312.75
577094.75 4179829.25 312.549987793
577094.8125 4179828.75 312.260009766
577094.8125 4179828 312.489990234
577094.875 4179827.5 312.359985352
577094.875 4179827 312.309997559
577094.9375 4179826.25 312.529998779
577095 4179825.75 312.540008545
577095 4179825.25 312.510009766
577095.0625 4179824.75 312.660003662
577095.0625 4179824 312.640014648
577095.125 4179823.5 312.899993896
577095.1875 4179823 313.190002441
577095.1875 4179822.5 313.160003662
577095.75 4179812.5 312.899993896
577095.75 4179812 312.880004883
577095.75 4179811.25 312.730010986
577095.8125 4179810.75 312.470001221
577095.8125 4179810 312.279998779
577095.875 4179809.5 311.970001221
577095.875 4179808.75 311.730010986
577095.875 4179808.25 311.519989014
577095.9375 4179807.75 311.399993896
577095.625 4179807.75 311.489990234
577095.5625 4179808.25 311.559997559
577095.5625 4179808.75 311.720001221
577095.5 4179809.5 311.880004883
577095.5 4179810 312.100006104
577095.5 4179810.5 312.089996338
577095.4375 4179811.25 312.220001221
577095.4375 4179811.75 312.510009766
577095.375 4179812.5 312.769989014
577095.375 4179813 313.179992676
577095.375 4179813.5 313.070007324
577094.875 4179822 312.910003662
577094.8125 4179822.5 312.799987793
577094.8125 4179823.25 312.850006104
577094.75 4179823.75 312.769989014
577094.6875 4179824.25 312.549987793
577094.6875 4179824.75 312.510009766
577094.625 4179825.5 312.690002441
577094.625 4179826 312.660003662
577094.5625 4179826.5 312.420013428
577094.5625 4179827 312.350006104
577094.5 4179827.5 312.260009766
577094.5 4179828.25 312.279998779
577094.4375 4179828.75 312.559997559
577094.4375 4179829.25 312.540008545
577094.375 4179830 312.25
577094.3125 4179830.5 312.230010986
577094.3125 4179831 312.410003662
577094.3125 4179831.75 312.589996338
577094.25 4179832.25 312.309997559
577094.25 4179832.75 312.690002441
577094.1875 4179833.25 312.829986572
577094.1875 4179834 312.950012207
577094.125 4179834.5 312.630004883
577094.0625 4179835 312.619995117
577094.0625 4179835.5 312.579986572
577094.0625 4179836.25 312.839996338
577094 4179836.75 312.779998779
577094 4179837.25 312.769989014
577093.9375 4179838 313
577093.875 4179838.5 312.619995117
577093.875 4179839 312.739990234
577093.8125 4179839.75 312.839996338
577093.8125 4179840.25 312.959991455
577093.75 4179841.5 313.089996338
577093.6875 4179842 312.920013428
577093.6875 4179842.5 313.029998779
577093.6875 4179843 313.070007324
577093.625 4179843.75 313.059997559
577093.5625 4179844.75 313.079986572
577092.6875 4179845 313.040008545
577092.75 4179843.75 313.089996338
577092.875 4179841.5 313
577092.875 4179841 312.880004883
577092.9375 4179840.25 312.890014648
577092.9375 4179839.75 312.790008545
577093 4179839.25 312.709991455
577093 4179838.5 312.720001221
577093.0625 4179838 312.859985352
577093.0625 4179837.5 312.649993896
577093.125 4179837 312.839996338
577093.125 4179836.25 312.679992676
577093.1875 4179835.75 312.690002441
577093.1875 4179835 312.489990234
577093.25 4179834.5 312.690002441
577093.25 4179834 312.720001221
577093.3125 4179833.5 312.959991455
577093.3125 4179832.75 312.799987793
577093.375 4179832.25 312.450012207
577093.375 4179831.75 312.529998779
577093.4375 4179831 312.260009766
577093.4375 4179830.5 312.290008545
577093.5 4179830 312.390014648
577093.5 4179829.25 312.190002441
577093.5 4179828.75 312.160003662
577093.5625 4179828.25 312.309997559
577093.5625 4179827.5 312.190002441
577093.625 4179827 312.170013428
577093.6875 4179826.5 312.290008545
577093.6875 4179825.75 312.239990234
577093.75 4179825.25 312.399993896
577093.75 4179824.75 312.309997559
577093.8125 4179824.25 312.649993896
577093.8125 4179823.5 312.609985352
577093.875 4179823 312.489990234
577093.9375 4179822.5 312.839996338
577093.9375 4179822 312.950012207
577094 4179821.25 312.929992676
577094 4179820.75 312.899993896
577094.25 4179816.75 313.149993896
577094.3125 4179815.5 313.179992676
577094.3125 4179815 313.119995117
577094.375 4179814.5 313.160003662
577094.375 4179813.75 312.850006104
577094.4375 4179813.25 313.179992676
577094.4375 4179812.5 312.760009766
577094.5 4179812 312.549987793
577094.5 4179811.25 312.220001221
577094.5 4179810.75 311.920013428
577094.5625 4179810.25 312.070007324
577094.5625 4179809.5 311.720001221
577094.625 4179809 311.589996338
577094.625 4179808.25 311.619995117
577094.3125 4179808.25 311.660003662
577094.3125 4179808.75 311.75
577094.25 4179809.25 311.600006104
577094.25 4179810 311.619995117
577094.1875 4179810.5 311.890014648
577094.1875 4179811 312.119995117
577094.1875 4179811.75 312.660003662
577094.125 4179812.25 312.769989014
577094.125 4179813 312.720001221
577094.0625 4179813.5 312.760009766
577094.0625 4179814 312.809997559
577093.9375 4179815.75 313
577093.75 4179818.5 313.019989014
577093.75 4179819.25 312.970001221
577093.75 4179819.75 313.100006104
577093.625 4179821.5 313.179992676
577093.5625 4179822 313.079986572
577093.5625 4179822.5 312.690002441
577093.5 4179823 312.619995117
577093.5 4179823.75 312.410003662
577093.4375 4179824.25 312.25
577093.375 4179824.75 312.25
577093.375 4179825.25 312.279998779
577093.3125 4179826 312.209991455
577093.3125 4179826.5 312.260009766
577093.25 4179827 312.220001221
577093.25 4179827.5 312.410003662
577093.1875 4179828.25 312.200012207
577093.1875 4179828.75 312.290008545
577093.125 4179829.25 312.160003662
577093.125 4179830 312.359985352
577093.0625 4179830.5 312.239990234
577093 4179831 312.079986572
577093 4179831.5 312.190002441
577093 4179832.25 312.570007324
577092.9375 4179832.75 312.179992676
577092.9375 4179833.25 312.429992676
577092.875 4179833.75 312.299987793
577092.875 4179834.5 312.730010986
577092.8125 4179835 312.670013428
577092.8125 4179835.75 312.779998779
577092.75 4179836.25 312.589996338
577092.75 4179836.75 312.720001221
577092.6875 4179837.25 312.670013428
577092.6875 4179838 312.559997559
577092.625 4179838.5 312.829986572
577092.625 4179839 312.760009766
577092.5625 4179839.5 312.690002441
577092.5625 4179840.25 312.839996338
577092.5 4179840.75 312.940002441
577092.5 4179841.5 313.029998779
577092.4375 4179842 313.079986572
577092.4375 4179842.5 313.029998779
577092.375 4179843 312.869995117
577092.3125 4179843.75 312.910003662
577092.3125 4179844.25 312.959991455
577092.3125 4179844.75 313.100006104
577091.5 4179843.5 312.910003662
577091.5 4179843 312.880004883
577091.5625 4179842.25 312.829986572
577091.625 4179841.25 312.850006104
577091.625 4179840.75 312.869995117
577091.6875 4179840 312.739990234
577091.6875 4179839.5 312.660003662
577091.75 4179839 312.690002441
577091.75 4179838.25 312.649993896
577091.8125 4179837.75 312.679992676
577091.8125 4179837.25 312.640014648
577091.8125 4179836.5 312.489990234
577091.875 4179836 312.459991455
577091.9375 4179835.5 312.720001221
577091.9375 4179834.75 312.549987793
577092 4179834.25 312.380004883
577092 4179833.75 312.369995117
577092 4179833 312.390014648
577092.0625 4179832.5 312.269989014
577092.125 4179832 312.470001221
577092.125 4179831.25 312.299987793
577092.125 4179830.75 312.170013428
577092.1875 4179830.25 312.459991455
577092.25 4179829.5 312.220001221
577092.25 4179829 312.040008545
577092.25 4179828.5 311.980010986
577092.3125 4179827.75 311.950012207
577092.3125 4179827.25 312.040008545
577092.375 4179826.75 312.070007324
577092.4375 4179826.25 312.170013428
577092.4375 4179825.5 312.25
577092.5 4179825 312.040008545
577092.5 4179824.5 312.070007324
577092.5 4179823.75 312.010009766
577092.5625 4179823.25 312.290008545
577092.625 4179822.75 312.279998779
577092.625 4179822.25 312.470001221
577092.6875 4179821.5 312.459991455
577092.75 4179821 312.660003662
577092.75 4179820.5 312.679992676
577092.75 4179819.75 312.690002441
577092.8125 4179819.25 312.709991455
577092.875 4179818.75 312.899993896
577092.875 4179818.25 312.779998779
577092.9375 4179817.5 312.799987793
577092.9375 4179817 312.850006104
577093 4179816.5 312.760009766
577093 4179815.75 312.769989014
577093.0625 4179815.25 312.790008545
577093.0625 4179814.75 312.739990234
577093.125 4179814 312.600006104
577093.125 4179813.5 312.350006104
577093.1875 4179813 312.390014648
577093.1875 4179812.25 312.239990234
577093.1875 4179811.75 312.070007324
577093.25 4179811 311.869995117
577093.25 4179810.5 311.739990234
577093.25 4179809.75 311.429992676
577093.3125 4179809.25 311.440002441
577092.9375 4179810 311.429992676
577092.9375 4179810.5 311.679992676
577092.875 4179811.25 311.820007324
577092.875 4179811.75 311.869995117
577092.8125 4179812.5 312.130004883
577092.8125 4179813 312.339996338
577092.75 4179813.5 312.339996338
577092.75 4179814.25 312.670013428
577092.75 4179814.75 312.579986572
577092.6875 4179815.25 312.670013428
577092.6875 4179815.75 312.609985352
577092.625 4179816.5 312.690002441
577092.625 4179817 312.619995117
577092.5625 4179817.5 312.809997559
577092.5625 4179818.25 312.920013428
577092.5 4179818.75 312.869995117
577092.5 4179819.25 312.609985352
577092.4375 4179819.75 312.549987793
577092.4375 4179820.5 312.720001221
577092.375 4179821 312.260009766
577092.3125 4179821.5 312.350006104
577092.3125 4179822 312.559997559
577092.25 4179822.5 312.320007324
577092.25 4179823.25 312.679992676
577092.1875 4179823.75 312.549987793
577092.1875 4179824.5 312.619995117
577092.125 4179825 312.670013428
577092.125 4179825.5 312.540008545
577092.0625 4179826 312.579986572
577092 4179826.5 312.339996338
577092 4179827 311.880004883
577091.9375 4179827.75 312.190002441
577091.9375 4179828.25 312.290008545
577091.875 4179828.75 312.119995117
577091.875 4179829.5 311.980010986
577091.8125 4179830 312.119995117
577091.8125 4179830.5 312.260009766
577091.75 4179831.25 312.369995117
577091.75 4179831.75 312.25
577091.6875 4179832.25 312.230010986
577091.6875 4179833 312.540008545
577091.625 4179833.5 312.299987793
577091.625 4179834 312.320007324
577091.5625 4179834.5 312.579986572
577091.5625 4179835.25 312.559997559
577091.5 4179835.75 312.380004883
577091.5 4179836.25 312.429992676
577091.4375 4179836.75 312.519989014
577091.4375 4179837.5 312.679992676
577091.375 4179838 312.630004883
577091.375 4179838.5 312.670013428
577091.3125 4179839.25 312.700012207
577091.3125 4179839.75 312.549987793
577091.25 4179840.25 312.839996338
577091.25 4179840.75 312.739990234
577091.1875 4179841.5 312.850006104
577091.25 4179824.5 312.010009766
577091.25 4179823.75 312.149993896
577091.3125 4179823.25 312.179992676
577091.3125 4179822.75 312.079986572
577091.375 4179822 312.049987793
577091.375 4179821.5 312.140014648
577091.4375 4179821 312.089996338
577091.4375 4179820.5 312.230010986
577091.5 4179819.75 312.510009766
577091.5 4179819.25 312.369995117
577091.5625 4179818.75 312.290008545
577091.5625 4179818 312.209991455
577091.625 4179817.5 312.369995117
577091.625 4179817 312.480010986
577091.6875 4179816.5 312.399993896
577091.75 4179815.75 312.390014648
577091.75 4179815.25 312.420013428
577091.75 4179814.75 312.399993896
577091.8125 4179814 312.269989014
577091.8125 4179813.5 312.019989014
577091.875 4179812.75 312.070007324
577091.875 4179812.25 311.690002441
577091.9375 4179811.75 312.010009766
577091.9375 4179811 311.640014648
577092 4179810.5 311.859985352
577092 4179810 311.720001221
577091.625 4179811 311.350006104
577091.5625 4179811.5 311.579986572
577091.5625 4179812.25 311.609985352
577091.5625 4179812.75 311.820007324
577091.5 4179813.25 312.049987793
577091.5 4179814 312.149993896
577091.4375 4179814.5 312.190002441
577091.4375 4179815.25 312.679992676
577091.4375 4179815.75 312.739990234
577091.375 4179816.25 312.700012207
577091.3125 4179816.75 312.579986572
577091.3125 4179817.25 312.470001221
577091.25 4179818 312.260009766
577091.25 4179818.5 312.269989014
577091.1875 4179819 312.119995117
577186.625 4179838.5 314.609985352
577186.625 4179838 314.619995117
577186.6875 4179837.25 314.359985352
577186.75 4179836.75 314.320007324
577186.75 4179831.25 313.880004883
577186.6875 4179831.75 313.989990234
577186.625 4179832.5 314.230010986
577186.625 4179833 314.25
577186.5625 4179833.5 314.279998779
577186.5 4179834.25 314.220001221
577186.5 4179834.75 314.260009766
577186.4375 4179835.25 314.410003662
577186.375 4179835.75 314.290008545
577186.3125 4179836.5 314.25
577186.3125 4179837 314.559997559
577186.25 4179837.5 314.470001221
577186.1875 4179838.25 314.440002441
577186.1875 4179838.75 314.399993896
577186.125 4179839.25 314.589996338
577186.0625 4179840.5 314.579986572
577186 4179841 314.679992676
577184.9375 4179841.75 314.589996338
577184.9375 4179841.25 314.630004883
577185.0625 4179840 314.660003662
577185.0625 4179839.5 314.559997559
577185.125 4179839 314.609985352
577185.1875 4179838.5 314.549987793
577185.1875 4179837.75 314.480010986
577185.3125 4179836.75 314.390014648
577185.3125 4179836 314.290008545
577185.375 4179835.5 314.380004883
577185.4375 4179835 314.480010986
577185.5 4179834.25 314.279998779
577185.5 4179833.75 314.209991455
577185.5625 4179833 314.029998779
577185.625 4179832.5 314.149993896
577185.625 4179832 314.149993896
577185.6875 4179831.5 314.119995117
577185.75 4179830.75 314.149993896
577185.75 4179830.25 313.970001221
577185.8125 4179829.75 314.179992676
577185.875 4179829.25 314.239990234
577185.875 4179828.5 314.059997559
577185.9375 4179828 313.739990234
577186 4179827.25 313.720001221
577186 4179826.75 313.790008545
577186.0625 4179826.25 313.709991455
577186.125 4179825.5 313.760009766
577186.125 4179825 313.570007324
577186.1875 4179824.25 313.320007324
577186.25 4179823.75 313.440002441
577186.25 4179823.25 313.380004883
577186.3125 4179822.75 313.709991455
577186.375 4179822.25 313.799987793
577186.4375 4179821.5 313.690002441
577186.4375 4179820.75 313.079986572
577186.5 4179820.25 313.089996338
577186.5 4179819.75 313.049987793
577186.5625 4179819 313.019989014
577186.625 4179818.5 313.220001221
577186.6875 4179818 313.290008545
577186.6875 4179817.5 313.100006104
577186.75 4179816.75 312.799987793
577186.6875 4179813 313.109985352
577186.625 4179813.5 312.720001221
577186.5625 4179814 312.839996338
577186.5 4179814.5 312.940002441
577186.5 4179815 312.720001221
577186.4375 4179815.75 312.760009766
577186.375 4179816.25 313.029998779
577186.375 4179816.75 313.019989014
577186.3125 4179817.5 312.890014648
577186.25 4179818 312.920013428
577186.1875 4179818.5 312.829986572
577186.1875 4179819.25 312.890014648
577186.125 4179819.75 313.119995117
577186.0625 4179820.25 312.959991455
577186.0625 4179820.75 313.089996338
577186 4179821.5 313.109985352
577185.9375 4179822 313.220001221
577185.9375 4179822.75 313.529998779
577185.875 4179823.25 313.660003662
577185.8125 4179823.75 313.649993896
577185.75 4179824.25 313.410003662
577185.75 4179825 313.549987793
577185.6875 4179825.5 313.760009766
577185.6875 4179826 313.670013428
577185.625 4179826.75 313.730010986
577185.5625 4179827.25 313.929992676
577185.5 4179827.75 313.829986572
577185.5 4179828.5 314.029998779
577185.4375 4179829 313.880004883
577185.375 4179829.5 313.929992676
577185.375 4179830 314.070007324
577185.3125 4179830.75 314.160003662
577185.25 4179831.25 313.899993896
577185.25 4179831.75 314.049987793
577185.1875 4179832.5 314.239990234
577185.125 4179833 314.130004883
577185.0625 4179833.5 314.149993896
577185.0625 4179834 314.179992676
577185 4179834.75 314.450012207
577185 4179835.25 314.410003662
577184.9375 4179835.75 314.140014648
577184.875 4179836.5 314.309997559
577184.8125 4179837 314.429992676
577184.8125 4179837.5 314.510009766
577184.75 4179838 314.279998779
577184.6875 4179838.75 314.440002441
577184.6875 4179839.25 314.570007324
577184.625 4179839.75 314.519989014
577184.5625 4179840.5 314.410003662
577184.5 4179841.5 314.570007324
577184.4375 4179842 314.529998779
577183.4375 4179842 314.600006104
577183.5 4179841.25 314.660003662
577183.5625 4179840.25 314.609985352
577183.625 4179839 314.529998779
577183.75 4179838 314.600006104
577183.75 4179837.25 314.329986572
577183.8125 4179836.75 314.399993896
577183.875 4179836.25 314.440002441
577183.9375 4179835.5 314.420013428
577183.9375 4179835 314.320007324
577184 4179834.5 314.290008545
577184.0625 4179834 314.429992676
577184.0625 4179833.25 314.309997559
577184.125 4179832.75 314.260009766
577184.1875 4179832.25 314.290008545
577184.1875 4179831.5 314.179992676
577184.25 4179831 314.140014648
577184.3125 4179830.5 314.309997559
577184.3125 4179829.75 314.059997559
577184.375 4179829.25 313.970001221
577184.4375 4179828.75 314.119995117
577184.4375 4179828 314.079986572
577184.5 4179827.5 313.989990234
577184.5625 4179826.75 313.820007324
577184.5625 4179826.25 313.850006104
577184.625 4179825.75 313.910003662
577184.6875 4179825.25 313.839996338
577184.75 4179824.5 313.809997559
577184.75 4179824 313.690002441
577184.8125 4179823.25 313.690002441
577184.8125 4179822.75 313.570007324
577184.875 4179822.25 313.480010986
577184.9375 4179821.5 313.510009766
577185 4179821 313.410003662
577185 4179820.5 313.570007324
577185.0625 4179819.75 313.320007324
577185.125 4179819.25 313.429992676
577185.125 4179818.75 313.209991455
577185.1875 4179818 313.140014648
577185.25 4179817.5 313.230010986
577185.25 4179817 313.089996338
577185.3125 4179816.25 313.140014648
577185.3125 4179815.75 312.859985352
577185.375 4179815.25 313.029998779
577185.4375 4179814.5 312.940002441
577185.5 4179814 313.040008545
577185.5 4179813.5 312.890014648
577185.5625 4179812.75 312.920013428
577185.625 4179812.25 312.910003662
577185.6875 4179811 312.700012207
577185.75 4179810 312.619995117
577185.5 4179809 312.660003662
577185.4375 4179809.75 312.700012207
577185.375 4179810.25 312.600006104
577185.3125 4179810.75 312.739990234
577185.3125 4179811.25 312.679992676
577185.25 4179812 312.799987793
577185.1875 4179812.5 312.899993896
577185.1875 4179813 312.769989014
577185.125 4179813.75 312.890014648
577185.0625 4179814.25 313.220001221
577185.0625 4179815 313.260009766
577185 4179815.5 313.109985352
577184.9375 4179816 313.170013428
577184.9375 4179816.5 313.100006104
577184.875 4179817 313.119995117
577184.8125 4179817.75 313.230010986
577184.75 4179818.25 313.209991455
577184.75 4179818.75 313.109985352
577184.6875 4179819.5 313.160003662
577184.625 4179820 313.339996338
577184.625 4179820.5 313.429992676
577184.5625 4179821.25 313.700012207
577184.5 4179821.75 313.720001221
577184.5 4179822.25 313.570007324
577184.4375 4179823 313.640014648
577184.375 4179823.5 313.670013428
577184.375 4179824 313.670013428
577184.3125 4179824.75 313.739990234
577184.25 4179825.25 313.880004883
577184.25 4179825.75 313.950012207
577184.1875 4179826.5 314.130004883
577184.125 4179827 313.890014648
577184.0625 4179827.5 313.850006104
577184.0625 4179828 313.959991455
577184 4179828.75 314.290008545
577184 4179829.25 314.329986572
577183.9375 4179829.75 314.010009766
577183.875 4179830.25 314.029998779
577183.8125 4179831 314.200012207
577183.8125 4179831.5 314.209991455
577183.75 4179832 314.25
577183.6875 4179832.75 314.279998779
577183.6875 4179833.25 314.239990234
577183.625 4179833.75 314.589996338
577183.5625 4179834.5 314.359985352
577183.5625 4179835 314.619995117
577183.5 4179835.5 314.510009766
577183.4375 4179836 314.399993896
577183.4375 4179836.75 314.519989014
577183.375 4179837.25 314.549987793
577183.3125 4179837.75 314.510009766
577183.25 4179838.5 314.549987793
577183.25 4179839 314.510009766
577183.1875 4179839.5 314.5
577183.125 4179840 314.619995117
577183.0625 4179841.25 314.559997559
577182.8125 4179844 314.579986572
577181.5625 4179847.5 314.440002441
577181.6875 4179845.75 314.510009766
577181.75 4179845.25 314.570007324
577181.8125 4179844 314.519989014
577181.875 4179843.5 314.549987793
577181.875 4179843 314.600006104
577182 4179841.75 314.589996338
577182 4179841.25 314.559997559
577182.125 4179840 314.489990234
577182.1875 4179839 314.619995117
577182.25 4179838.5 314.579986572
577182.25 4179837.75 314.429992676
577182.3125 4179837.25 314.529998779
577182.375 4179836.75 314.480010986
577182.4375 4179836 314.410003662
577182.4375 4179835.5 314.429992676
577182.5 4179835 314.529998779
577182.5625 4179834.25 314.489990234
577182.5625 4179833.75 314.459991455
577182.625 4179833.25 314.470001221
577182.6875 4179832.5 314.220001221
577182.6875 4179832 314.470001221
577182.75 4179831.5 314.309997559
577182.8125 4179831 314.309997559
577182.8125 4179830.25 314.010009766
577182.875 4179829.75 314.350006104
577182.9375 4179829 314.320007324
577183 4179828.5 314.25
577183 4179828 314.230010986
577183.0625 4179827.25 314.130004883
577183.0625 4179826.75 314.200012207
577183.125 4179826.25 313.890014648
577183.1875 4179825.5 314.109985352
577183.25 4179825 314.070007324
577183.25 4179824.5 313.890014648
577183.3125 4179824 313.880004883
577183.3125 4179823.5 313.890014648
577183.375 4179822.75 313.980010986
577183.4375 4179822.25 313.850006104
577183.5 4179821.5 313.790008545
577183.5 4179821 313.75
577183.5625 4179820.25 313.779998779
577183.5625 4179819.75 313.329986572
577183.625 4179819.25 313.600006104
577183.6875 4179818.5 313.589996338
577183.75 4179818 313.459991455
577183.75 4179817.5 313.470001221
577183.8125 4179816.75 313.420013428
577183.875 4179816.25 313.769989014
577183.875 4179815.75 313.739990234
577183.9375 4179815 313.309997559
577183.9375 4179814.5 313.130004883
577184 4179814 313.140014648
577184.0625 4179813.25 313.149993896
577184.125 4179812.75 313.220001221
577184.125 4179812.25 313.179992676
577184.1875 4179811.5 313.119995117
577184.25 4179811 313.059997559
577184.25 4179810.5 312.839996338
577184.3125 4179809.75 312.730010986
577184.3125 4179809.25 312.600006104
577184.375 4179808.5 312.589996338
577184.4375 4179808 312.730010986
577184.3125 4179804.75 312.559997559
577184.1875 4179806 312.630004883
577184.1875 4179806.5 312.690002441
577184.125 4179807 312.720001221
577184.0625 4179807.75 312.700012207
577184.0625 4179808.25 312.700012207
577184 4179808.75 312.869995117
577183.9375 4179809.5 312.839996338
577183.9375 4179810 312.679992676
577183.875 4179810.5 313.130004883
577183.8125 4179811 313.029998779
577183.8125 4179811.75 313.029998779
577183.75 4179812.25 312.760009766
577183.6875 4179812.75 313.049987793
577183.6875 4179813.5 313.109985352
577183.625 4179814 313.149993896
577183.5625 4179814.5 313.140014648
577183.5 4179815 313.070007324
577183.5 4179815.75 313.790008545
577183.5 4179816.25 313.75
577183.4375 4179816.75 313.369995117
577183.375 4179817.25 313.269989014
577183.3125 4179818 313.760009766
577183.3125 4179818.5 313.720001221
577183.25 4179819.25 313.809997559
577183.1875 4179819.75 313.640014648
577183.1875 4179820.25 314.079986572
577183.125 4179821 314.230010986
577183.0625 4179821.5 314.160003662
577183.0625 4179822 314.200012207
577183 4179822.5 313.589996338
577182.9375 4179823.25 313.769989014
577182.9375 4179823.75 313.980010986
577182.875 4179824.25 313.829986572
577182.8125 4179825 314.100006104
577182.75 4179825.5 313.899993896
577182.75 4179826 314.260009766
577182.6875 4179826.5 314.109985352
577182.625 4179827.25 314.029998779
577182.625 4179827.75 313.970001221
577182.5625 4179828.25 314.140014648
577182.5 4179829 314.309997559
577182.5 4179829.5 314.119995117
577182.4375 4179830 314.109985352
577182.375 4179830.5 314.070007324
577182.375 4179831.25 314.25
577182.3125 4179831.75 314.299987793
577182.25 4179832.25 314.420013428
577182.1875 4179832.75 314.220001221
577182.1875 4179833.5 314.25
577182.125 4179834 314.440002441
577182.0625 4179834.5 314.279998779
577182.0625 4179835.25 314.359985352
577182 4179835.75 314.529998779
577182 4179836.25 314.609985352
577181.9375 4179836.75 314.309997559
577181.8125 4179838 314.320007324
577181.75 4179838.5 314.399993896
577181.75 4179839.25 314.440002441
577181.625 4179840.75 314.570007324
577181.5625 4179841.5 314.609985352
577181.5 4179842 314.5
577181.5 4179842.5 314.529998779
577181.4375 4179843.25 314.440002441
577181.375 4179843.75 314.510009766
577181.375 4179844.25 314.579986572
577181.3125 4179844.75 314.359985352
577181.25 4179845.5 314.420013428
577181.25 4179846 314.579986572
577181.1875 4179846.5 314.350006104
577181.125 4179847 314.329986572
577181.0625 4179847.75 314.320007324
577180.125 4179847 314.459991455
577180.1875 4179846.5 314.459991455
577180.25 4179845.75 314.549987793
577180.25 4179845.25 314.279998779
577180.3125 4179844.75 314.239990234
577180.375 4179844 314.440002441
577180.375 4179843.5 314.209991455
577180.4375 4179843 314.220001221
577180.5 4179842.5 314.450012207
577180.5 4179841.75 314.299987793
577180.5625 4179841.25 314.470001221
577180.625 4179840 314.579986572
577180.6875 4179839.5 314.459991455
577180.75 4179839 314.459991455
577180.875 4179837.25 314.559997559
577180.875 4179836.5 314.269989014
577180.9375 4179836 314.489990234
577181 4179835.5 314.320007324
577181.0625 4179835 314.630004883
577181.0625 4179834.25 314.429992676
577181.125 4179833.75 314.339996338
577181.1875 4179833.25 314.410003662
577181.1875 4179832.5 314.290008545
577181.25 4179832 314.149993896
577181.3125 4179831.5 314.369995117
577181.3125 4179830.75 314.279998779
577181.375 4179830.25 314.109985352
577181.4375 4179829.75 314.329986572
577181.4375 4179829.25 314.25
577181.5 4179828.5 314.260009766
577181.5 4179828 314.070007324
577181.5625 4179827.5 314.119995117
577181.625 4179826.75 313.970001221
577181.6875 4179826.25 314.119995117
577181.6875 4179825.75 314
577181.75 4179825 314.040008545
577181.8125 4179824.5 314.170013428
577181.8125 4179824 313.989990234
577181.875 4179823.25 313.890014648
577181.9375 4179822.75 313.989990234
577181.9375 4179822.25 314
577182 4179821.5 313.859985352
577182 4179821 313.660003662
577182.0625 4179820.5 313.970001221
577182.125 4179819.75 313.779998779
577182.1875 4179819.25 313.660003662
577182.1875 4179818.75 313.600006104
577182.25 4179818.25 314.010009766
577182.3125 4179817.5 313.899993896
577182.3125 4179817 313.489990234
577182.375 4179816.25 313.709991455
577182.4375 4179815.75 313.339996338
577182.4375 4179815.25 313.420013428
577182.5 4179814.5 313.630004883
577182.5625 4179814 313.420013428
577182.5625 4179813.5 313.399993896
577182.625 4179812.75 313.329986572
577182.6875 4179812.25 313.079986572
577182.6875 4179811.5 313.220001221
577182.75 4179811 313.239990234
577182.8125 4179810.5 313.339996338
577182.8125 4179809.75 313.059997559
577182.875 4179809.25 313.010009766
577182.9375 4179808.75 312.910003662
577182.9375 4179808 312.920013428
577183 4179807.5 312.899993896
577183.0625 4179807 313.019989014
577183.0625 4179806.25 312.769989014
577183.125 4179805.75 312.75
577183.1875 4179805 312.609985352
577183.1875 4179804.5 312.570007324
577183.25 4179804 312.809997559
577183.3125 4179803.5 312.660003662
577183.3125 4179802.75 312.649993896
577183.375 4179802.25 312.880004883
577183.4375 4179801.75 312.809997559
577183.4375 4179801 312.609985352
577183.5 4179800.5 312.609985352
577183.125 4179800.75 312.660003662
577183.0625 4179801.25 312.649993896
577182.9375 4179803 312.640014648
577182.875 4179803.5 312.649993896
577182.875 4179804 312.769989014
577182.8125 4179804.75 312.820007324
577182.75 4179805.25 312.850006104
577182.75 4179805.75 312.839996338
577182.6875 4179806.25 312.929992676
577182.6875 4179807 313.170013428
577182.625 4179807.5 313.070007324
577182.5625 4179808 313.089996338
577182.5 4179808.75 312.959991455
577182.5 4179809.25 313.109985352
577182.4375 4179809.75 313.380004883
577182.375 4179810.5 313.369995117
577182.375 4179811 313.140014648
577182.3125 4179811.5 313.070007324
577182.25 4179812 313.279998779
577182.25 4179812.75 313.260009766
577182.1875 4179813.25 313.429992676
