# .PCD v.7 - Point Cloud Data file format
VERSION .7
FIELDS x y z
SIZE 4 4 4
TYPE F F F
COUNT 1 1 1
WIDTH 87
HEIGHT 1
VIEWPOINT 0 0 0 1 0 0 0
POINTS 87
DATA ascii
577156.0625 4179861 318.459991455
577156.125 4179860.5 318.549987793
577156.125 4179860 318.709991455
577156.1875 4179859.5 318.329986572
577155.75 4179858.25 318.239990234
577155.75 4179858.75 318.309997559
577155.6875 4179859.5 318.700012207
577155.625 4179860 318.459991455
577155.625 4179860.5 318.720001221
577155.5625 4179861 318.489990234
577154.5625 4179861.5 318.589996338
577154.625 4179861 318.369995117
577154.625 4179860.5 318.630004883
577154.75 4179858.75 318.640014648
577154.8125 4179858.25 318.609985352
577154.8125 4179857.5 318.630004883
577154.875 4179857 318.489990234
577154.875 4179856.5 318.269989014
577154.9375 4179855.75 318.380004883
577155 4179855.25 318.399993896
577155 4179854.75 318.170013428
577154.625 4179853 318.329986572
577154.5625 4179853.5 318.489990234
577154.5625 4179854.25 318.299987793
577154.5 4179854.75 318.470001221
577154.5 4179855.25 318.359985352
577154.4375 4179856 318.609985352
577154.375 4179857 318.679992676
577154.125 4179860.5 318.470001221
577154.125 4179861 318.5
577154.0625 4179861.5 318.339996338
577153.0625 4179861.5 318.380004883
577153.5625 4179854.75 318.549987793
577153.625 4179853.75 318.660003662
577153.6875 4179852.5 318.529998779
577153.75 4179852 318.410003662
577153.75 4179851.25 318.429992676
577153.8125 4179850.75 318.559997559
577153.875 4179849.5 318.160003662
577153.4375 4179848.5 318.329986572
577153.4375 4179849 318.540008545
577153.375 4179849.75 318.339996338
577153.375 4179850.25 318.450012207
577153.3125 4179850.75 318.649993896
577153.25 4179851.25 318.299987793
577153.25 4179852 318.480010986
577153.1875 4179852.5 318.549987793
577152.625 4179861.5 318.540008545
577152.5625 4179862 318.559997559
577151.5625 4179862.25 318.179992676
577151.6875 4179861.25 318.5
577152.5 4179848.25 318.549987793
577152.5625 4179847.5 318.260009766
577152.625 4179846.5 318.489990234
577152.6875 4179845.75 318.290008545
577152.6875 4179845.25 318.309997559
577152.3125 4179844 318.170013428
577152.3125 4179844.5 318.470001221
577152.25 4179845 318.350006104
577152.25 4179845.75 318.519989014
577152.125 4179847.5 318.570007324
577152.0625 4179848 318.380004883
577152.0625 4179848.5 318.589996338
577151.125 4179862 318.25
577150.1875 4179862.5 318.350006104
577151.4375 4179843.25 318.470001221
577151.4375 4179842.5 318.459991455
577151.5625 4179841.5 318.450012207
577151.5625 4179840.75 318.399993896
577151.625 4179840.25 318.220001221
577151.25 4179839 318.600006104
577151.125 4179840.75 318.429992676
577151.125 4179841.25 318.309997559
577151.0625 4179841.75 318.470001221
577151 4179842.5 318.459991455
577151 4179843 318.519989014
577149.6875 4179862.75 318.040008545
577150.3125 4179838.75 318.459991455
577150.3125 4179838 318.380004883
577150.375 4179837.5 318.549987793
577150.5 4179835.75 318.510009766
577150.125 4179834.5 318.420013428
577150.0625 4179835 318.290008545
577150.0625 4179835.75 318.390014648
577150 4179836.25 318.410003662
577149.9375 4179838 318.510009766
577149.125 4179834.75 318.420013428
