# .PCD v.7 - Point Cloud Data file format
VERSION .7
FIELDS x y z
SIZE 4 4 4
TYPE F F F
COUNT 1 1 1
WIDTH 68
HEIGHT 1
VIEWPOINT 0 0 0 1 0 0 0
POINTS 68
DATA ascii
577177 4179875.5 324.329986572
577177.0625 4179875 324.350006104
577177.125 4179874.5 324.519989014
577177.125 4179873.75 324.109985352
577177.1875 4179873.25 324.290008545
577177.25 4179872 323.739990234
577177.3125 4179871.5 324.299987793
577176.8125 4179871.25 324.170013428
577176.6875 4179873 324.869995117
577176.6875 4179873.75 325.709991455
577176.625 4179874.25 325.420013428
577176.5625 4179874.75 324.239990234
577175.5625 4179875.75 324.779998779
577175.625 4179875.25 324.739990234
577175.6875 4179874.75 325.399993896
577175.75 4179874 325.130004883
577175.75 4179873.5 325.119995117
577175.3125 4179872.5 324.880004883
577175.3125 4179873 325.299987793
577175.25 4179873.5 324.920013428
577175.25 4179874.25 325.730010986
577175.1875 4179874.75 325.420013428
577174.3125 4179873.5 324.309997559
577174.3125 4179873 323.230010986
577174.3125 4179872.25 323.190002441
577173.9375 4179872 324.839996338
577173.9375 4179872.5 325.989990234
577173.875 4179873 325.839996338
577172.9375 4179874 326.040008545
577172.9375 4179873.25 325.239990234
577172.9375 4179872.5 324.119995117
577173 4179872 324.429992676
577173 4179871.5 323.619995117
577173.125 4179871 325.079986572
577173.0625 4179870.25 323.859985352
577173.25 4179870 326.109985352
577173.25 4179869.5 326.089996338
577173.3125 4179869 326.260009766
577173.3125 4179868.25 326.140014648
577173.375 4179867.75 325.630004883
577172.875 4179867.5 325.239990234
577172.875 4179868 326.429992676
577172.8125 4179868.75 326.880004883
577172.75 4179869.25 326.269989014
577172.75 4179869.75 327.029998779
577172.6875 4179870.25 326.450012207
577172.5625 4179870.75 325.089996338
577172.4375 4179871 322.929992676
577172.5 4179871.75 324.720001221
577172.4375 4179872.5 324.859985352
577172.375 4179872.75 324.049987793
577172.3125 4179873.25 323.440002441
577172.25 4179873.75 322.75
577171.5 4179872 324.230010986
577171.75 4179870.75 326.790008545
577171.75 4179870 325.839996338
577171.75 4179869.25 324.380004883
577171.875 4179869 326.75
577171.875 4179868.5 326.670013428
577171.875 4179867.75 325.709991455
577171.9375 4179867.25 325.440002441
577171.4375 4179867.25 325.140014648
577171.25 4179867.5 322.529998779
577171.25 4179868.25 323.089996338
577171.25 4179869 325.029998779
577171.1875 4179869.5 323.399993896
577171.125 4179870 323.339996338
577170.1875 4179869.75 323.279998779
