# .PCD v.7 - Point Cloud Data file format
VERSION .7
FIELDS x y z
SIZE 4 4 4
TYPE F F F
COUNT 1 1 1
WIDTH 61
HEIGHT 1
VIEWPOINT 0 0 0 1 0 0 0
POINTS 61
DATA ascii
577162.0625 4179797 324
577162.0625 4179796.25 323.190002441
577162.1875 4179795.75 324.679992676
577162.125 4179795 323.450012207
577162.25 4179794.75 324.760009766
577162.1875 4179793.75 323.109985352
577162.25 4179793.25 323.140014648
577162.25 4179792.5 322.640014648
577161.875 4179793 322.640014648
577161.875 4179793.75 323.540008545
577161.9375 4179794.5 324.820007324
577161.875 4179795 325.290008545
577161.8125 4179795.5 324.760009766
577161.8125 4179796.25 325
577161.75 4179796.5 323.779998779
577161.6875 4179797 324.329986572
577161.625 4179797.5 324.059997559
577161.5625 4179797.75 322.179992676
577160.4375 4179798.25 322.739990234
577160.4375 4179797.75 322.660003662
577160.5 4179797.25 322.609985352
577160.5625 4179797 324.559997559
577160.5625 4179795.5 322.660003662
577160.75 4179795.5 325.769989014
577160.75 4179794.75 324.670013428
577160.75 4179794 324.450012207
577160.75 4179793.25 323.549987793
577160.4375 4179792.75 323.339996338
577160.4375 4179793.25 323.450012207
577160.4375 4179794 324.200012207
577160.375 4179794.75 324.869995117
577160.375 4179795.25 324.450012207
577160.3125 4179795.75 324.489990234
577160.25 4179796.25 324.429992676
577160.25 4179796.75 324.119995117
577160.125 4179797 322.640014648
577160.0625 4179797.5 322.510009766
577160.0625 4179798.25 322.829986572
577158.875 4179798.25 322.320007324
577159.0625 4179797.5 324.149993896
577159.0625 4179796.75 324.059997559
577159.0625 4179796 323.200012207
577159.125 4179795.5 322.730010986
577159.1875 4179795 323.940002441
577159.25 4179794.5 324.190002441
577159.25 4179793.75 323.359985352
577159.25 4179793 322.510009766
577159.25 4179792.25 322.119995117
577158.875 4179792.5 322.089996338
577158.875 4179793.25 323.089996338
577158.875 4179793.75 323.029998779
577158.8125 4179794.25 323.450012207
577158.75 4179795.25 322.920013428
577158.6875 4179796 322.980010986
577158.6875 4179796.5 322.700012207
577158.625 4179797 322.519989014
577158.5625 4179797.5 322.929992676
577157.6875 4179793.75 322.010009766
577157.75 4179793.25 322.25
577157.75 4179792.5 322.450012207
577157.3125 4179794 321.929992676
