# .PCD v.7 - Point Cloud Data file format
VERSION .7
FIELDS x y z
SIZE 4 4 4
TYPE F F F
COUNT 1 1 1
WIDTH 1257
HEIGHT 1
VIEWPOINT 0 0 0 1 0 0 0
POINTS 1257
DATA ascii
577120.875 4179793.25 311.519989014
577120.875 4179793.75 311.559997559
577119.9375 4179792.5 311.589996338
577119.9375 4179791.75 311.410003662
577119.5625 4179792.75 311.579986572
577119.5 4179794.5 311.559997559
577118.25 4179798 311.619995117
577118.5625 4179792.75 311.549987793
577118.625 4179792 311.450012207
577118.3125 4179791.75 311.470001221
577118.3125 4179792.25 311.559997559
577118.25 4179792.75 311.589996338
577118.1875 4179794 311.529998779
577118.1875 4179794.5 311.519989014
577118.0625 4179796.25 311.570007324
577117 4179797 311.429992676
577117.0625 4179796.5 311.609985352
577117.125 4179794.75 311.570007324
577117.25 4179793 311.309997559
577117.25 4179792.25 311.279998779
577117.3125 4179791.75 311.179992676
577117 4179792 311.510009766
577116.8125 4179795.25 311.519989014
577116.75 4179795.75 311.390014648
577116.75 4179796.5 311.480010986
577116.6875 4179797 311.480010986
577116.625 4179798.75 311.559997559
577116.5625 4179799.25 311.579986572
577115.6875 4179797.75 311.529998779
577115.6875 4179797.25 311.519989014
577115.75 4179796.75 311.369995117
577115.8125 4179795 311.489990234
577115.875 4179794.25 311.470001221
577116 4179792 311.450012207
577115.6875 4179792 311.209991455
577115.625 4179792.5 311.279998779
577115.625 4179793 311.350006104
577115.5625 4179793.5 311.410003662
577115.5625 4179794.25 311.329986572
577115.5 4179794.75 311.450012207
577115.5 4179795.25 311.380004883
577115.4375 4179796 311.510009766
577115.375 4179797 311.470001221
577115.3125 4179798.25 311.489990234
577115.3125 4179798.75 311.529998779
577114.25 4179799.25 311.559997559
577114.3125 4179798.75 311.540008545
577114.3125 4179798.25 311.450012207
577114.375 4179797.5 311.299987793
577114.375 4179797 311.489990234
577114.4375 4179796.5 311.489990234
577114.5 4179795.25 311.420013428
577114.5 4179794.5 311.329986572
577114.5625 4179794 311.380004883
577114.5625 4179793.5 311.269989014
577114.625 4179792.75 311.200012207
577114.625 4179792.25 311.25
577114.6875 4179791.75 311.140014648
577114.375 4179792 311.260009766
577114.3125 4179792.75 311.429992676
577114.3125 4179793.25 311.260009766
577114.25 4179793.75 311.170013428
577114.25 4179794.25 311.230010986
577114.1875 4179795 311.209991455
577114.1875 4179795.5 311.440002441
577114.125 4179796 311.260009766
577114.125 4179796.5 311.320007324
577114.0625 4179797.25 311.540008545
577114.0625 4179797.75 311.559997559
577112.9375 4179799 311.470001221
577113 4179798.5 311.470001221
577113 4179797.75 311.459991455
577113.0625 4179797.25 311.410003662
577113.0625 4179796.75 311.390014648
577113.125 4179796 311.519989014
577113.125 4179795.5 311.320007324
577113.1875 4179795 311.420013428
577113.1875 4179794.25 311.260009766
577113.25 4179793.75 311.160003662
577113.25 4179793.25 311.299987793
577113.3125 4179792.5 311.279998779
577113.3125 4179792 311.100006104
577113.0625 4179791.75 311.350006104
577113 4179792.25 311.239990234
577113 4179792.75 311.059997559
577112.9375 4179793.5 311.209991455
577112.9375 4179794 311.100006104
577112.875 4179794.5 311.339996338
577112.875 4179795.25 311.290008545
577112.8125 4179795.75 311.25
577112.75 4179796.25 311.279998779
577112.75 4179797.5 311.459991455
577111.625 4179799.5 311.450012207
577111.6875 4179797.75 311.380004883
577111.75 4179797 311.260009766
577111.75 4179796.5 311.260009766
577111.8125 4179796 311.339996338
577111.8125 4179795.25 311.450012207
577111.875 4179794.75 311.130004883
577111.875 4179794.25 311.339996338
577111.9375 4179793.5 311.339996338
577111.9375 4179793 311.070007324
577112 4179792.5 311.149993896
577112 4179791.75 310.989990234
577111.6875 4179792.25 310.950012207
577111.6875 4179792.75 311.010009766
577111.625 4179793.25 311.119995117
577111.625 4179794 311.109985352
577111.4375 4179797.25 311.170013428
577111.375 4179797.75 311.320007324
577111.375 4179798.5 311.320007324
577111.3125 4179799 311.390014648
577111.3125 4179799.5 311.410003662
577110.25 4179801.25 311.480010986
577110.25 4179800 311.309997559
577110.3125 4179799.25 311.260009766
577110.3125 4179798.75 311.350006104
577110.4375 4179797 311.299987793
577110.5 4179796.5 311.260009766
577110.5 4179795.75 311.320007324
577110.5625 4179795.25 311.339996338
577110.5625 4179794.75 311.179992676
577110.5625 4179794 311.089996338
577110.625 4179793.5 311.100006104
577110.6875 4179793 311.100006104
577110.6875 4179792.25 310.910003662
577110.6875 4179791.75 310.809997559
577110.4375 4179791.75 311.269989014
577110.375 4179792.25 310.929992676
577110.375 4179792.75 311.119995117
577110.3125 4179793.25 311.130004883
577110.3125 4179794 311.109985352
577110.25 4179794.5 311.109985352
577110.25 4179795 311.149993896
577110.1875 4179795.5 311.029998779
577110.1875 4179796.25 311.040008545
577110.125 4179796.75 311.179992676
577110.125 4179797.25 311.290008545
577110.0625 4179798 311.299987793
577109.9375 4179800.75 311.380004883
577109 4179800.25 311.380004883
577109 4179799.75 311.459991455
577109 4179799 311.220001221
577109.0625 4179798.5 311.380004883
577109.125 4179798 311.309997559
577109.125 4179797.25 311.329986572
577109.1875 4179796.75 311.190002441
577109.1875 4179796 311.100006104
577109.25 4179795.5 311.429992676
577109.25 4179795 311.109985352
577109.25 4179794.25 310.989990234
577109.3125 4179793.75 311.010009766
577109.3125 4179793.25 310.880004883
577109.375 4179792.5 310.769989014
577109.375 4179792 310.829986572
577109.125 4179791.75 310.869995117
577109.125 4179792.25 310.880004883
577109.0625 4179793 310.869995117
577109.0625 4179793.5 311.040008545
577109 4179794 311.140014648
577109 4179794.75 311.170013428
577108.9375 4179795.25 311.209991455
577108.9375 4179795.75 311.089996338
577108.875 4179796.25 311.100006104
577108.875 4179796.75 311
577108.8125 4179797.5 311.459991455
577108.8125 4179798 311.260009766
577108.75 4179798.5 311.369995117
577108.75 4179799.25 311.25
577108.6875 4179799.75 311.339996338
577108.6875 4179800.25 311.329986572
577107.6875 4179801 311.369995117
577107.6875 4179800.5 311.320007324
577107.75 4179799.75 311.290008545
577107.75 4179799.25 311.279998779
577107.8125 4179798.5 311.190002441
577107.8125 4179798 311.309997559
577107.875 4179797.5 311.130004883
577107.875 4179796.75 311.130004883
577107.9375 4179796.25 311.079986572
577107.9375 4179795.5 310.910003662
577108 4179795 310.940002441
577108 4179794.5 310.809997559
577108 4179793.75 310.700012207
577108.0625 4179793.25 310.890014648
577108.125 4179792.75 310.760009766
577108.125 4179792 310.799987793
577107.875 4179791.75 311.140014648
577107.8125 4179793 311.239990234
577107.75 4179794 311.299987793
577107.75 4179794.5 311.209991455
577107.6875 4179795 310.859985352
577107.625 4179795.75 310.839996338
577107.625 4179796.25 311.059997559
577107.5625 4179796.75 311.029998779
577107.5625 4179797.25 311.059997559
577107.5 4179798 311.190002441
577107.5 4179798.5 311.160003662
577107.4375 4179800.25 311.459991455
577107.3125 4179801.25 311.350006104
577107.3125 4179802 311.309997559
577106.3125 4179802.5 311.470001221
577106.375 4179801.25 311.260009766
577106.4375 4179800.75 311.200012207
577106.4375 4179800.25 311.299987793
577106.5 4179799.5 311.109985352
577106.5 4179799 311.170013428
577106.5625 4179798.5 311.209991455
577106.5625 4179797.75 311.230010986
577106.625 4179797.25 311.179992676
577106.625 4179796.75 311.109985352
577106.625 4179796 310.920013428
577106.6875 4179795.5 310.880004883
577106.6875 4179794.75 310.690002441
577106.75 4179794.25 310.799987793
577106.75 4179793.75 310.839996338
577106.8125 4179793 310.549987793
577106.875 4179792.5 310.859985352
577106.875 4179792 310.890014648
577106.5625 4179791.75 310.600006104
577106.5625 4179792.5 310.790008545
577106.5 4179793 310.850006104
577106.5 4179793.5 310.769989014
577106.4375 4179794.25 310.790008545
577106.4375 4179794.75 310.739990234
577106.375 4179795.25 310.869995117
577106.375 4179796 311.100006104
577106.3125 4179796.5 311.059997559
577106.3125 4179797 310.970001221
577106.25 4179797.5 311.130004883
577106.25 4179798.25 311.049987793
577106.25 4179798.75 311.220001221
577106.1875 4179799.25 311.269989014
577106.1875 4179799.75 311.329986572
577106.125 4179800.5 311.230010986
577106.0625 4179801.5 311.429992676
577106 4179802.25 311.390014648
577105 4179803.25 311.410003662
577105.0625 4179802.25 311.339996338
577105.0625 4179801.5 311.119995117
577105.125 4179801 311.230010986
577105.25 4179799.25 311.369995117
577105.25 4179798.5 310.929992676
577105.25 4179798 310.859985352
577105.3125 4179797.5 311.119995117
577105.3125 4179797 311.029998779
577105.375 4179796.25 310.820007324
577105.375 4179795.75 310.820007324
577105.4375 4179795 310.950012207
577105.4375 4179794.5 310.670013428
577105.5 4179793.75 310.429992676
577105.5 4179793.25 310.670013428
577105.5625 4179792.75 310.809997559
577105.5625 4179792.25 310.820007324
577105.3125 4179792 310.579986572
577105.25 4179792.5 310.579986572
577105.25 4179793 310.619995117
577105.25 4179793.75 310.709991455
577105.1875 4179794.25 310.549987793
577105.1875 4179794.75 310.700012207
577105.125 4179795.25 310.609985352
577105.125 4179796 310.769989014
577105.0625 4179796.5 310.75
577105.0625 4179797 310.940002441
577105 4179797.75 311
577105 4179798.25 310.970001221
577104.9375 4179798.75 310.890014648
577104.9375 4179799.25 311.019989014
577104.875 4179800 311.290008545
577104.875 4179800.5 311.220001221
577104.8125 4179801 311.309997559
577104.8125 4179801.75 311.369995117
577104.75 4179802.25 311.239990234
577104.75 4179802.75 311.279998779
577103.75 4179803.5 311.390014648
577103.75 4179803 311.239990234
577103.8125 4179802.25 311.269989014
577103.8125 4179801.75 311.309997559
577103.875 4179801.25 311.200012207
577103.875 4179800.5 311.040008545
577103.9375 4179800 311
577103.9375 4179799.25 311.179992676
577104.0625 4179797.5 311.130004883
577104.0625 4179797 310.890014648
577104.125 4179796.5 310.839996338
577104.125 4179795.75 311
577104.1875 4179795.25 310.850006104
577104.1875 4179794.5 310.720001221
577104.25 4179794 310.670013428
577104.25 4179793.5 310.609985352
577104.25 4179792.75 310.589996338
577104.3125 4179792.25 310.679992676
577104.375 4179791.75 310.549987793
577104.0625 4179792 310.799987793
577104 4179792.5 310.600006104
577104 4179793 310.670013428
577103.9375 4179793.75 310.649993896
577103.875 4179794.25 310.399993896
577103.875 4179794.75 310.649993896
577103.875 4179795.25 310.619995117
577103.8125 4179796 310.779998779
577103.8125 4179796.5 310.709991455
577103.75 4179797 310.739990234
577103.75 4179797.75 310.820007324
577103.6875 4179798.25 310.950012207
577103.6875 4179798.75 310.890014648
577103.625 4179799.25 310.929992676
577103.625 4179800 311.279998779
577103.5625 4179800.5 311.179992676
577103.5625 4179801.25 311.369995117
577103.5 4179801.75 311.339996338
577103.5 4179802.25 311.149993896
577103.4375 4179802.75 311.390014648
577103.4375 4179803.25 311.170013428
577102.5 4179803.25 311.160003662
577102.5 4179802.75 311.320007324
577102.5625 4179802 311.190002441
577102.5625 4179801.5 311.279998779
577102.625 4179801 311.25
577102.625 4179800.25 311.040008545
577102.6875 4179799.75 310.910003662
577102.75 4179799.25 311.239990234
577102.75 4179798.5 310.899993896
577102.75 4179798 310.829986572
577102.8125 4179797.25 310.829986572
577102.8125 4179796.75 310.890014648
577102.875 4179796.25 310.630004883
577102.875 4179795.5 310.529998779
577102.9375 4179795 311.079986572
577102.9375 4179794.5 310.739990234
577103 4179793.75 310.510009766
577103 4179793.25 310.700012207
577103.0625 4179792.5 310.429992676
577103.0625 4179792 310.450012207
577102.8125 4179791.75 310.600006104
577102.75 4179792.25 310.589996338
577102.75 4179792.75 310.570007324
577102.6875 4179793.25 310.529998779
577102.6875 4179793.75 310.529998779
577102.625 4179794.5 310.769989014
577102.625 4179795 310.579986572
577102.5625 4179795.5 310.730010986
577102.5625 4179796.25 310.760009766
577102.5 4179796.75 310.779998779
577102.5 4179797.25 311
577102.4375 4179797.75 310.799987793
577102.4375 4179798.5 310.799987793
577102.375 4179799 311.260009766
577102.375 4179799.5 311.070007324
577102.3125 4179800.25 310.989990234
577102.3125 4179800.75 311.149993896
577102.25 4179801.25 311.220001221
577102.25 4179802 311.329986572
577102.1875 4179803 311.220001221
577102.125 4179803.5 311.209991455
577102.0625 4179804.75 311.410003662
577101.125 4179804.75 311.269989014
577101.25 4179803 311.220001221
577101.25 4179802.5 311.089996338
577101.25 4179801.75 311.089996338
577101.3125 4179801.25 310.950012207
577101.3125 4179800.5 310.839996338
577101.375 4179800 310.899993896
577101.4375 4179799.25 310.839996338
577101.4375 4179798.75 310.989990234
577101.5 4179798.25 311.019989014
577101.5 4179797.5 310.929992676
577101.5 4179797 310.609985352
577101.5625 4179796.25 310.559997559
577101.5625 4179795.75 310.540008545
577101.625 4179795.25 310.579986572
577101.6875 4179794.75 310.640014648
577101.6875 4179794 310.459991455
577101.75 4179793.5 310.519989014
577101.75 4179792.75 310.390014648
577101.75 4179792.25 310.429992676
577101.8125 4179791.75 310.570007324
577101.5 4179791.75 310.320007324
577101.5 4179792.25 310.309997559
577101.4375 4179792.75 310.320007324
577101.4375 4179793.5 310.779998779
577101.375 4179794 310.429992676
577101.375 4179794.5 310.700012207
577101.375 4179795.25 310.720001221
577101.3125 4179795.75 310.989990234
577101.3125 4179796.25 311.149993896
577101.25 4179797 311.190002441
577101.25 4179797.5 310.769989014
577101.1875 4179798 310.910003662
577101.1875 4179798.5 310.839996338
577101.125 4179799 310.850006104
577101.125 4179799.75 310.959991455
577101.0625 4179800.25 311.25
577101.0625 4179800.75 311.260009766
577101 4179801.25 310.929992676
577101 4179802 311.149993896
577100.9375 4179802.5 311.029998779
577100.9375 4179803 311.299987793
577100.875 4179803.75 311.109985352
577100.875 4179804.25 311.200012207
577099.875 4179804.25 311.399993896
577099.9375 4179803.75 311.079986572
577099.9375 4179803 310.980010986
577100 4179802.5 310.980010986
577100 4179802 311.049987793
577100.0625 4179801.25 311.019989014
577100.0625 4179800.75 311.010009766
577100.125 4179800 311.019989014
577100.125 4179799.5 311.029998779
577100.1875 4179799 310.660003662
577100.1875 4179798.25 310.700012207
577100.25 4179797.75 310.589996338
577100.25 4179797 310.640014648
577100.3125 4179796.5 310.779998779
577100.3125 4179796 310.739990234
577100.375 4179795.25 310.510009766
577100.375 4179794.75 310.600006104
577100.4375 4179794.25 310.420013428
577100.4375 4179793.5 310.600006104
577100.5 4179793 310.790008545
577100.5 4179792.5 310.730010986
577100.5625 4179791.75 310.339996338
577100.25 4179791.75 310.209991455
577100.1875 4179792.25 310.309997559
577100.1875 4179792.75 310.450012207
577100.125 4179793.25 310.260009766
577100.125 4179794 310.619995117
577100.0625 4179794.5 310.459991455
577100.0625 4179795 310.480010986
577100 4179795.5 310.489990234
577100 4179796.25 310.609985352
577100 4179796.75 310.630004883
577099.9375 4179797.25 310.399993896
577099.875 4179798 310.589996338
577099.875 4179798.5 310.540008545
577099.875 4179799 310.790008545
577099.8125 4179799.75 311.079986572
577099.75 4179800.25 310.820007324
577099.75 4179800.75 310.920013428
577099.75 4179801.25 310.790008545
577099.6875 4179802 310.859985352
577099.6875 4179802.5 311.220001221
577099.625 4179803 311.320007324
577099.625 4179803.75 311.149993896
577099.5625 4179804.25 311.079986572
577099.5625 4179804.75 311.109985352
577099.5 4179805.25 311.239990234
577098.5625 4179805.5 311.100006104
577098.625 4179805 311.220001221
577098.625 4179804.5 311.140014648
577098.6875 4179803.75 311.149993896
577098.6875 4179803.25 311.029998779
577098.75 4179802.5 310.989990234
577098.75 4179802 311.019989014
577098.75 4179801.5 311.089996338
577098.8125 4179801 311.070007324
577098.8125 4179800.25 310.769989014
577098.875 4179799.75 310.799987793
577098.875 4179799 310.720001221
577098.9375 4179798.5 310.779998779
577098.9375 4179797.75 310.570007324
577099 4179797.25 310.769989014
577099 4179796.75 310.75
577099.0625 4179796.25 310.859985352
577099.0625 4179795.5 310.429992676
577099.125 4179795 310.660003662
577099.125 4179794.25 310.5
577099.1875 4179793.75 310.25
577099.1875 4179793 310.25
577099.25 4179792.5 310.309997559
577099.25 4179792 310.359985352
577099 4179791.75 310.320007324
577098.9375 4179792.25 310.220001221
577098.9375 4179792.75 310.239990234
577098.875 4179793.5 310.640014648
577098.8125 4179794 310.239990234
577098.8125 4179794.5 310.380004883
577098.8125 4179795 310.549987793
577098.75 4179795.5 310.290008545
577098.75 4179796.25 310.429992676
577098.6875 4179796.75 310.640014648
577098.6875 4179797.25 310.679992676
577098.625 4179798 310.589996338
577098.625 4179798.5 310.720001221
577098.5625 4179799 310.700012207
577098.5625 4179799.75 311.119995117
577098.5 4179800.25 310.890014648
577098.5 4179800.75 310.760009766
577098.4375 4179801.25 311.109985352
577098.4375 4179802 311.299987793
577098.375 4179802.5 311.100006104
577098.3125 4179803.75 311.350006104
577098.3125 4179804.25 311.070007324
577098.25 4179804.75 311.140014648
577098.25 4179805.25 311.209991455
577098.1875 4179806 311.170013428
577097.25 4179806.25 311.140014648
577097.3125 4179805.5 311.200012207
577097.3125 4179804.5 310.940002441
577097.375 4179803.75 311.089996338
577097.4375 4179803.25 310.980010986
577097.4375 4179802.75 310.859985352
577097.5 4179802 311.149993896
577097.5 4179801.5 310.670013428
577097.5 4179801 310.670013428
577097.5625 4179800.25 310.700012207
577097.625 4179799.75 310.950012207
577097.625 4179799.25 311.029998779
577097.6875 4179798.5 310.820007324
577097.6875 4179798 310.619995117
577097.6875 4179797.25 310.320007324
577097.75 4179796.75 310.489990234
577097.75 4179796.25 310.410003662
577097.8125 4179795.5 310.299987793
577097.8125 4179795 310.239990234
577097.875 4179794.25 310.109985352
577097.875 4179793.75 310.339996338
577097.9375 4179793.25 310.679992676
577097.9375 4179792.5 310.209991455
577098 4179792 310.260009766
577097.6875 4179791.75 309.859985352
577097.6875 4179792.25 310.299987793
577097.625 4179792.75 310.040008545
577097.625 4179793.5 310.230010986
577097.5625 4179794 310.100006104
577097.5625 4179794.5 310.329986572
577097.5 4179795 310.190002441
577097.5 4179795.75 310.329986572
577097.5 4179796.25 310.359985352
577097.4375 4179796.75 310.559997559
577097.4375 4179797.5 310.890014648
577097.375 4179798 310.959991455
577097.375 4179798.5 310.820007324
577097.3125 4179799 310.720001221
577097.3125 4179799.75 310.760009766
577097.25 4179800.25 310.5
577097.25 4179800.75 310.589996338
577097.1875 4179801.5 310.790008545
577097.1875 4179802 310.679992676
577097.125 4179802.5 311.059997559
577097.125 4179803 310.869995117
577097.0625 4179803.75 311.059997559
577097 4179804.25 310.859985352
577097 4179804.75 310.959991455
577097 4179805.25 311.029998779
577096.9375 4179806 311.119995117
577096.9375 4179806.5 311.070007324
577096.875 4179807 311.359985352
577095.9375 4179807 311.100006104
577096 4179806.5 311.109985352
577096 4179805.75 311.019989014
577096 4179805.25 310.910003662
577096.0625 4179804.75 310.850006104
577096.125 4179804 311.089996338
577096.125 4179803.5 311
577096.125 4179802.75 310.839996338
577096.1875 4179802.25 310.899993896
577096.1875 4179801.75 310.720001221
577096.25 4179801 310.779998779
577096.25 4179800.5 310.570007324
577096.3125 4179799.75 310.390014648
577096.3125 4179799.25 310.559997559
577096.375 4179798.75 310.700012207
577096.375 4179798 310.309997559
577096.4375 4179797.5 310.350006104
577096.4375 4179797 310.380004883
577096.5 4179796.25 310.329986572
577096.5 4179795.75 310.299987793
577096.5625 4179795.25 310.149993896
577096.5625 4179794.75 310.459991455
577096.625 4179794 310.149993896
577096.625 4179793.25 310.109985352
577096.6875 4179792.75 310.130004883
577096.6875 4179792.25 310.200012207
577096.5 4179791.75 310.390014648
577096.4375 4179792.25 310.429992676
577096.375 4179792.75 310.059997559
577096.375 4179793.25 310.279998779
577096.3125 4179793.75 310.059997559
577096.3125 4179794.5 310.130004883
577096.25 4179795 310.220001221
577096.25 4179795.5 310.25
577096.1875 4179796 310.130004883
577096.1875 4179796.75 310.399993896
577096.125 4179797.25 310.179992676
577096.125 4179797.75 310.450012207
577096.0625 4179798.5 310.470001221
577096.0625 4179799 310.559997559
577096 4179799.5 310.390014648
577096 4179800.25 310.640014648
577096 4179800.75 310.809997559
577095.9375 4179801.25 310.769989014
577095.9375 4179802 310.950012207
577095.875 4179802.5 310.649993896
577095.8125 4179803 310.809997559
577095.8125 4179803.5 310.989990234
577095.75 4179804.25 310.959991455
577095.75 4179804.75 310.899993896
577095.6875 4179805.25 310.779998779
577095.6875 4179805.75 310.859985352
577095.625 4179806.5 310.989990234
577095.625 4179807 311.059997559
577094.625 4179807.75 311.170013428
577094.6875 4179807 310.959991455
577094.6875 4179806.5 310.839996338
577094.75 4179805.75 310.850006104
577094.75 4179805.25 310.869995117
577094.8125 4179804.75 310.720001221
577094.8125 4179804 310.529998779
577094.875 4179803.5 310.630004883
577094.875 4179803 310.850006104
577094.9375 4179802.25 310.709991455
577094.9375 4179801.75 310.720001221
577095 4179801.25 310.619995117
577095 4179800.75 310.679992676
577095.0625 4179800 310.549987793
577095.0625 4179799.5 310.470001221
577095.125 4179798.75 310.380004883
577095.125 4179798.25 310.350006104
577095.1875 4179797.5 310.190002441
577095.1875 4179797 310.260009766
577095.25 4179796.5 310.209991455
577095.25 4179795.75 310.25
577095.3125 4179795.25 310.299987793
577095.3125 4179794.75 310.410003662
577095.375 4179794 310.119995117
577095.375 4179793.5 310.010009766
577095.4375 4179792.75 310.040008545
577095.4375 4179792.25 310.079986572
577095.5 4179791.75 310.079986572
577095.125 4179792 309.880004883
577095.125 4179792.75 309.980010986
577095.0625 4179793.25 309.940002441
577095.0625 4179793.75 310.25
577095.0625 4179794.5 310.410003662
577095 4179795 310.609985352
577095 4179795.5 310.649993896
577094.9375 4179796.25 310.609985352
577094.9375 4179796.75 310.660003662
577094.875 4179797.25 310.529998779
577094.8125 4179797.75 310.290008545
577094.8125 4179798.25 310.260009766
577094.75 4179799 310.369995117
577094.75 4179799.5 310.619995117
577094.75 4179800 310.739990234
577094.6875 4179800.75 310.559997559
577094.6875 4179801.25 310.480010986
577094.625 4179801.75 310.510009766
577094.625 4179802.25 310.679992676
577094.5625 4179803 310.910003662
577094.5 4179803.5 310.660003662
577094.5 4179804 310.700012207
577094.5 4179804.75 310.660003662
577094.4375 4179805.25 310.700012207
577094.4375 4179805.75 310.859985352
577094.375 4179806.25 310.910003662
577094.375 4179807 310.820007324
577093.3125 4179808.5 311.079986572
577093.375 4179808 311.130004883
577093.375 4179807.25 310.790008545
577093.4375 4179806.75 310.790008545
577093.4375 4179806.25 310.660003662
577093.5 4179805.5 310.630004883
577093.5 4179805 310.600006104
577093.5625 4179804.5 310.809997559
577093.5625 4179803.75 310.75
577093.625 4179803.25 310.579986572
577093.625 4179802.75 310.660003662
577093.6875 4179802 310.589996338
577093.6875 4179801.5 310.5
577093.75 4179801 310.470001221
577093.75 4179800.25 310.350006104
577093.8125 4179799.75 310.429992676
577093.8125 4179799 310.230010986
577093.875 4179798.5 310.320007324
577093.875 4179798 310.450012207
577093.9375 4179797.25 310.329986572
577093.9375 4179796.75 310.010009766
577094 4179796.25 310.239990234
577094 4179795.5 310.130004883
577094 4179795 310.010009766
577094.0625 4179794.5 310.170013428
577094.125 4179793.75 309.989990234
577094.125 4179793.25 309.940002441
577094.1875 4179792.75 310.359985352
577094.1875 4179792 309.700012207
577093.9375 4179791.75 309.910003662
577093.875 4179792.25 309.950012207
577093.875 4179792.75 309.959991455
577093.8125 4179793.5 309.910003662
577093.8125 4179794 309.859985352
577093.75 4179794.5 310.100006104
577093.75 4179795 310.25
577093.6875 4179795.75 310.25
577093.6875 4179796.25 310.209991455
577093.625 4179796.75 310.149993896
577093.625 4179797.25 310.130004883
577093.5625 4179798 310.130004883
577093.5625 4179798.5 310.420013428
577093.5 4179799 310.459991455
577093.5 4179799.75 310.549987793
577093.4375 4179800.25 310.329986572
577093.4375 4179800.75 310.549987793
577093.375 4179801.5 310.679992676
577093.375 4179802 310.459991455
577093.3125 4179802.5 310.429992676
577093.3125 4179803 310.519989014
577093.25 4179803.5 310.529998779
577093.25 4179804.25 310.779998779
577093.1875 4179804.75 310.459991455
577093.1875 4179805.25 310.489990234
577093.125 4179806 310.519989014
577093.125 4179806.5 310.720001221
577093.0625 4179807 310.679992676
577093.0625 4179807.75 310.790008545
577093 4179808.25 310.820007324
577093 4179808.75 311.140014648
577093 4179809.5 311.239990234
577092.0625 4179808.5 310.890014648
577092.0625 4179808 310.839996338
577092.125 4179807.25 310.649993896
577092.125 4179806.75 310.579986572
577092.1875 4179806.25 310.579986572
577092.1875 4179805.5 310.600006104
577092.25 4179805 310.510009766
577092.25 4179804.5 310.399993896
577092.3125 4179803.75 310.529998779
577092.3125 4179803.25 310.630004883
577092.375 4179802.75 310.609985352
577092.375 4179802 310.619995117
577092.4375 4179801.5 310.5
577092.4375 4179801 310.359985352
577092.5 4179800.25 310.369995117
577092.5 4179799.75 310.350006104
577092.5 4179799 310.109985352
577092.5625 4179798.5 310.089996338
577092.625 4179798 310.459991455
577092.625 4179797.25 310.179992676
577092.6875 4179796.75 310.070007324
577092.6875 4179796.25 310.100006104
577092.6875 4179795.5 309.899993896
577092.75 4179795 310.369995117
577092.8125 4179794.5 310.380004883
577092.8125 4179793.75 310.149993896
577092.8125 4179793.25 309.670013428
577092.875 4179792.5 309.880004883
577092.9375 4179792 309.880004883
577092.625 4179792 309.700012207
577092.5625 4179792.75 309.75
577092.5625 4179793.25 309.730010986
577092.5 4179793.75 309.709991455
577092.5 4179794.25 309.910003662
577092.5 4179795 310.190002441
577092.4375 4179795.5 310.100006104
577092.375 4179796 309.890014648
577092.375 4179796.75 310.380004883
577092.3125 4179797.25 310.070007324
577092.3125 4179797.75 310.269989014
577092.3125 4179798.25 310.239990234
577092.25 4179799 310.239990234
577092.25 4179799.5 310.299987793
577092.1875 4179800 310.410003662
577092.1875 4179800.5 310.260009766
577092.125 4179801.25 310.290008545
577092.125 4179801.75 310.399993896
577092.0625 4179802.25 310.670013428
577092 4179803 310.429992676
577092 4179803.5 310.5
577092 4179804 310.559997559
577091.9375 4179804.5 310.540008545
577091.9375 4179805.25 310.600006104
577091.875 4179805.75 310.540008545
577091.8125 4179806.25 310.5
577091.8125 4179806.75 310.630004883
577091.8125 4179807.5 310.880004883
577091.75 4179808 310.929992676
577091.75 4179808.5 310.690002441
577091.6875 4179809.25 311.040008545
577091.6875 4179809.75 311.190002441
577091.625 4179810.25 311.239990234
577091.25 4179800.5 310.450012207
577091.25 4179800 310.320007324
577091.25 4179799.25 310.179992676
577091.3125 4179798.75 310.089996338
577091.3125 4179798.25 309.989990234
577091.375 4179797.5 309.959991455
577091.375 4179797 309.839996338
577091.4375 4179796.25 309.820007324
577091.4375 4179795.75 309.880004883
577091.5 4179795.25 309.959991455
577091.5 4179794.5 309.910003662
577091.5625 4179794 309.769989014
577091.5625 4179793.5 309.690002441
577091.625 4179792.75 309.700012207
577091.625 4179792.25 309.75
577091.6875 4179791.75 309.660003662
577091.375 4179792.25 309.730010986
577091.3125 4179792.75 309.720001221
577091.3125 4179793.25 309.470001221
577091.25 4179793.75 309.589996338
577091.25 4179794.25 309.619995117
577091.1875 4179795 309.600006104
577185.875 4179808 312.470001221
577185.9375 4179807.5 312.579986572
577186 4179807 312.549987793
577186.0625 4179805.75 312.540008545
577186.125 4179805.25 312.339996338
577186.1875 4179804 312.489990234
577186.25 4179803.5 312.350006104
577186.3125 4179802.75 312.179992676
577186.3125 4179802.25 312.480010986
577186.375 4179801.75 312.160003662
577186.4375 4179801 312.059997559
577186.4375 4179800.5 311.970001221
577186.5 4179800 312.260009766
577186.5625 4179799.25 312.359985352
577186.5625 4179798.75 311.940002441
577186.625 4179798 311.869995117
577186.6875 4179797.5 311.880004883
577186.75 4179797 311.850006104
577186.6875 4179792.5 311.649993896
577186.6875 4179793 311.609985352
577186.625 4179793.75 311.720001221
577186.5625 4179794.25 311.75
577186.5625 4179795 312
577186.5 4179795.5 311.959991455
577186.4375 4179796 311.660003662
577186.4375 4179796.5 311.850006104
577186.375 4179797 311.869995117
577186.3125 4179797.75 311.940002441
577186.25 4179798.25 312.149993896
577186.25 4179798.75 312.019989014
577186.1875 4179799.5 312.100006104
577186.125 4179800 312.089996338
577186.125 4179800.5 312.130004883
577186.0625 4179801 311.869995117
577186 4179801.75 312.100006104
577186 4179802.25 312.230010986
577185.9375 4179802.75 312.200012207
577185.875 4179803.25 312.109985352
577185.8125 4179804 312.079986572
577185.8125 4179804.5 312.279998779
577185.75 4179805 312.420013428
577185.75 4179805.75 312.260009766
577185.625 4179806.75 312.399993896
577185.5625 4179807.5 312.510009766
577185.5625 4179808 312.459991455
577185.5 4179808.5 312.489990234
577184.5 4179807.5 312.540008545
577184.5 4179806.75 312.529998779
577184.5625 4179806.25 312.510009766
577184.5625 4179805.75 312.440002441
577184.625 4179805 312.359985352
577184.6875 4179804.5 312.399993896
577184.75 4179804 312.359985352
577184.75 4179803.25 312.25
577184.9375 4179801 312.329986572
577185 4179800.25 312.160003662
577185 4179799.75 312.170013428
577185.0625 4179799.25 312.029998779
577185.125 4179798.5 312.089996338
577185.125 4179798 311.950012207
577185.1875 4179797.5 311.940002441
577185.25 4179796.75 312.119995117
577185.25 4179796.25 311.899993896
577185.3125 4179795.75 311.940002441
577185.375 4179795 311.980010986
577185.4375 4179794.5 312.059997559
577185.4375 4179794 311.910003662
577185.5 4179793.25 311.859985352
577185.5625 4179792.75 311.739990234
577185.5625 4179792 311.790008545
577185.25 4179792.25 311.670013428
577185.1875 4179792.75 311.820007324
577185.125 4179793.5 311.910003662
577185.125 4179794 311.739990234
577185.0625 4179794.5 311.809997559
577185 4179795 311.869995117
577185 4179795.75 311.839996338
577184.9375 4179796.25 311.980010986
577184.875 4179796.75 312.089996338
577184.875 4179797.5 312.049987793
577184.8125 4179798 311.959991455
577184.75 4179798.5 312.059997559
577184.6875 4179799 311.940002441
577184.6875 4179799.75 312.329986572
577184.625 4179800.25 312.339996338
577184.5625 4179800.75 312.279998779
577184.5625 4179801.25 312.25
577184.5 4179802 312.359985352
577184.5 4179802.5 312.540008545
577184.4375 4179803 312.480010986
577184.375 4179803.75 312.369995117
577184.3125 4179804.25 312.470001221
577184.25 4179805.25 312.510009766
577183.5625 4179799.75 312.480010986
577183.5625 4179799.25 312.369995117
577183.625 4179798.75 312.350006104
577183.6875 4179798 312.279998779
577183.6875 4179797.5 312.260009766
577183.75 4179797 312.380004883
577183.8125 4179796.25 312.089996338
577183.8125 4179795.75 312.049987793
577183.875 4179795 312.049987793
577183.9375 4179794.5 312
577184 4179794 312.079986572
577184 4179793.25 311.839996338
577184.0625 4179792.75 311.950012207
577184.125 4179792.25 312.079986572
577183.75 4179792 311.920013428
577183.6875 4179792.75 312.350006104
577183.625 4179793.25 311.899993896
577183.625 4179793.75 312.079986572
577183.5625 4179794.25 311.929992676
577183.5 4179795 311.989990234
577183.5 4179795.5 311.980010986
577183.4375 4179796 312.290008545
577183.375 4179796.75 312.220001221
577183.375 4179797.25 312.089996338
577183.3125 4179797.75 312.179992676
577183.25 4179798.25 312.299987793
577183.25 4179799 312.369995117
577183.1875 4179799.5 312.359985352
577183.125 4179800 312.529998779
577183 4179801.75 312.429992676
577183 4179802.25 312.510009766
577182.1875 4179798.25 312.510009766
577182.25 4179797 312.380004883
577182.3125 4179796.5 312.369995117
577182.3125 4179795.75 312.179992676
577182.375 4179795.25 312.489990234
577182.4375 4179794.75 312.410003662
577182.4375 4179794 312.109985352
577182.5 4179793.5 312.290008545
577182.5625 4179792.25 312.049987793
577182.625 4179791.75 312.25
577182.25 4179792 312.149993896
577182.1875 4179792.75 312.410003662
577182.1875 4179793.25 312.380004883
577182.125 4179793.75 312.399993896
577182.0625 4179794.5 312.429992676
577182 4179795 312.260009766
577181.8125 4179797.75 312.420013428
577173.375 4179874.5 316.980010986
577172.375 4179875.25 317
577172.4375 4179874.75 317.019989014
577171.9375 4179873.75 316.929992676
577171.9375 4179874.25 316.980010986
577171.875 4179875 317.170013428
577171.8125 4179875.5 317.070007324
577171.8125 4179876 317
577171.6875 4179877.25 316.910003662
577170.9375 4179875.25 316.970001221
577171 4179874.75 316.920013428
577171 4179874.25 316.980010986
577171.0625 4179873.5 317.239990234
577171.125 4179873 317.130004883
577171.125 4179872.5 317.220001221
577171.1875 4179871.75 316.890014648
577170.6875 4179872 316.989990234
577170.625 4179872.75 317.089996338
577170.5625 4179873.25 317.029998779
577170.5 4179873.75 316.869995117
577170.5 4179874.25 316.910003662
577170.4375 4179875 317.019989014
577169.4375 4179875.75 316.920013428
577169.5625 4179874 317.029998779
577169.625 4179873.5 317.089996338
577169.625 4179873 316.980010986
577169.6875 4179872.5 317
577169.75 4179871.75 317
577169.75 4179871.25 316.929992676
577169.875 4179869.5 317
577169.9375 4179868.5 316.869995117
577169.5 4179868 316.959991455
577169.3125 4179870.25 316.910003662
577169.3125 4179870.75 316.869995117
577169.1875 4179872.5 316.899993896
577169.125 4179873.25 317.029998779
577169.0625 4179873.75 317.019989014
577169 4179874.75 316.859985352
577168 4179875.5 316.959991455
577168.0625 4179875 317.179992676
577168.0625 4179874.5 316.910003662
577168.1875 4179873.25 316.869995117
577168.1875 4179872.75 316.959991455
577168.25 4179872.25 316.890014648
577168.3125 4179871.75 317.029998779
577168.3125 4179871 316.940002441
577168.5 4179868.75 317.029998779
577168 4179868 317.019989014
577167.9375 4179869.25 317.089996338
577167.9375 4179869.75 317.010009766
577167.8125 4179870.75 316.950012207
577167.75 4179871.5 316.920013428
577167.6875 4179872.5 316.890014648
577167.625 4179873 316.829986572
577167.5625 4179874.75 317.010009766
577167.5 4179875.5 317.200012207
577166.4375 4179877.5 316.910003662
577166.5 4179876.75 316.910003662
577166.5 4179876.25 316.970001221
577166.5625 4179875.75 316.809997559
577166.625 4179875.25 317.079986572
577166.625 4179874.5 316.980010986
577166.6875 4179874 316.940002441
577166.875 4179871.25 316.940002441
577167 4179868.75 316.880004883
577166.5 4179869 316.910003662
577166.3125 4179871.75 316.850006104
577166.25 4179872.5 316.839996338
577166.125 4179874 316.989990234
577166.125 4179874.75 316.880004883
577166.0625 4179875.25 316.970001221
577166 4179875.75 316.829986572
577166 4179876.5 316.940002441
577165.9375 4179877 316.910003662
577165.9375 4179877.5 316.890014648
577164.875 4179879.25 316.880004883
577164.9375 4179878.5 316.850006104
577165 4179877.5 316.940002441
577165.0625 4179876.75 316.899993896
577165.0625 4179876.25 316.980010986
577165.125 4179875.75 316.980010986
577164.875 4179872 316.799987793
577164.6875 4179875 316.839996338
577164.625 4179875.5 317.160003662
577164.625 4179876.25 317.25
577164.5625 4179876.75 317.089996338
577164.5 4179877.25 317.130004883
577164.5 4179877.75 316.940002441
577164.3125 4179880 316.880004883
577164.25 4179880.75 316.880004883
577164.25 4179881.25 316.880004883
577164.1875 4179881.75 316.799987793
577163.4375 4179879.25 316.809997559
577163.5 4179878.5 316.809997559
577163.5625 4179878 316.760009766
577163.5625 4179877.5 316.760009766
577163.625 4179876.25 316.779998779
577163.75 4179874.75 316.829986572
577163.8125 4179874 316.910003662
577164 4179871.25 316.769989014
577163.4375 4179872.25 316.829986572
577163.1875 4179875.75 316.899993896
577163.0625 4179878 316.899993896
577163 4179878.5 316.75
577162.9375 4179879 316.869995117
577162.9375 4179879.5 316.920013428
577161.9375 4179880.5 316.829986572
577162 4179880 317.149993896
577162.0625 4179878.75 317.019989014
577162.125 4179878.25 317.209991455
577162.1875 4179877 316.839996338
577162.1875 4179876.5 316.940002441
577162.375 4179874.25 316.989990234
577162.4375 4179873.75 316.910003662
577162.4375 4179873.25 316.959991455
577162.5 4179872.5 316.970001221
577161.6875 4179876.75 316.839996338
577161.5 4179879 316.829986572
577161.5 4179879.5 316.769989014
577161.4375 4179880.25 316.75
577161.4375 4179880.75 316.859985352
577161.375 4179881.25 316.720001221
577160.4375 4179881.25 316.75
577160.5 4179880.5 316.720001221
577160.5 4179880 316.820007324
577160.5625 4179879.5 316.739990234
577160.75 4179876.75 316.739990234
577160.8125 4179876 316.899993896
577160.875 4179875 316.720001221
577160.25 4179876 316.700012207
577160.0625 4179879 316.739990234
577160 4179880 316.779998779
577160 4179880.75 316.720001221
577159.875 4179881.75 316.760009766
577158.9375 4179881.75 316.790008545
577159 4179881.25 316.730010986
577159 4179880.75 316.700012207
577159.0625 4179880 316.880004883
577159.125 4179879.5 316.839996338
577159.25 4179877.75 316.700012207
577159.0625 4179872 316.730010986
577159 4179873.75 316.730010986
577158.8125 4179876 316.829986572
577158.8125 4179876.5 316.850006104
577158.625 4179878.75 316.709991455
577158.5625 4179879.5 316.760009766
577158.5 4179880.5 316.679992676
577158.5 4179881 316.929992676
577157.5 4179881.75 317.040008545
577157.5625 4179881.25 316.929992676
577157.625 4179880.75 316.920013428
577157.625 4179880.25 316.75
577157.8125 4179878 316.829986572
577157.8125 4179877.25 316.660003662
577157.875 4179876.75 316.910003662
577157.9375 4179875.5 316.690002441
577158 4179875 316.769989014
577158.125 4179872.75 316.700012207
577157.5 4179873.75 316.850006104
577157.5 4179874.25 316.869995117
577157.4375 4179874.75 316.720001221
577157.4375 4179875.25 316.700012207
577157.375 4179876 316.730010986
577157.3125 4179876.5 316.820007324
577157.3125 4179877 316.779998779
577157.1875 4179878.25 316.640014648
577157.1875 4179878.75 316.679992676
577157.0625 4179879.75 316.670013428
577157 4179881 316.690002441
577157 4179881.5 316.679992676
577156.0625 4179882 316.809997559
577156.125 4179881.5 316.880004883
577156.125 4179881 316.859985352
577156.1875 4179880.25 316.670013428
577156.1875 4179879.75 316.660003662
577156.25 4179878.5 316.829986572
577156.3125 4179878 317
577156.375 4179877.5 316.970001221
577156.375 4179877 316.820007324
577156.5625 4179874 316.720001221
577156.625 4179873.5 316.839996338
577156.6875 4179873 316.839996338
577156.6875 4179872.5 316.809997559
577156.75 4179871.75 316.760009766
577156.75 4179871.25 316.739990234
577156.1875 4179872.5 316.679992676
577156.0625 4179873.5 316.679992676
577156.0625 4179874.25 316.679992676
577156 4179874.75 316.700012207
577156 4179875.25 316.859985352
577155.9375 4179876 316.929992676
577155.875 4179876.5 316.720001221
577155.875 4179877 316.739990234
577155.75 4179878.75 316.660003662
577155.6875 4179879.75 317.109985352
577155.625 4179880.5 316.630004883
577155.5625 4179881.5 316.809997559
577155.5 4179882 316.690002441
577154.625 4179882 316.890014648
577154.6875 4179881.25 316.890014648
577154.6875 4179880.75 316.929992676
577154.75 4179880.25 316.709991455
577154.8125 4179878.5 316.869995117
577154.9375 4179877.25 316.720001221
577154.9375 4179876.75 316.75
577155 4179876.25 316.660003662
577155.0625 4179875.75 316.950012207
577155.0625 4179875 316.760009766
577155.125 4179874 316.730010986
577155.1875 4179872.75 316.720001221
577155.25 4179872.25 316.730010986
577155.3125 4179871.75 316.839996338
577155.3125 4179871 316.660003662
577154.6875 4179872.75 316.839996338
577154.6875 4179873.25 316.809997559
577154.625 4179874 316.779998779
577154.5625 4179874.5 316.820007324
577154.5 4179875.5 316.730010986
577154.4375 4179876.25 316.670013428
577154.4375 4179876.75 316.739990234
577154.375 4179877.75 316.75
577154.3125 4179878.5 316.929992676
577154.25 4179879 316.700012207
577154.1875 4179880.25 316.760009766
577154.125 4179880.75 316.600006104
577154.125 4179881.25 316.670013428
577154.0625 4179881.75 316.859985352
577153.1875 4179881.75 316.700012207
577153.1875 4179881.25 316.929992676
577153.25 4179880.5 316.690002441
577153.25 4179880 316.679992676
577153.3125 4179879.5 316.720001221
577153.375 4179878.75 316.630004883
577153.375 4179878.25 316.690002441
577153.4375 4179877.75 316.869995117
577153.4375 4179877.25 316.709991455
577153.5 4179876.5 316.630004883
577153.5625 4179876 316.869995117
577153.625 4179875 316.820007324
577153.625 4179874.25 316.679992676
577153.6875 4179873.75 316.799987793
577153.75 4179873.25 316.739990234
577153.75 4179872.75 316.709991455
577153.8125 4179872 316.609985352
577153.3125 4179871.5 316.589996338
577153 4179876 316.850006104
577153 4179876.5 316.950012207
577152.9375 4179877.25 316.670013428
577152.875 4179877.75 316.769989014
577152.875 4179878.25 316.859985352
577152.8125 4179879 316.709991455
577152.75 4179879.5 316.850006104
577152.75 4179880 316.720001221
577152.6875 4179880.5 316.779998779
577152.625 4179881.25 316.809997559
577152.625 4179881.75 316.660003662
577151.6875 4179881.75 316.779998779
577151.75 4179881.25 316.959991455
577151.75 4179880.75 317
577151.8125 4179880 316.829986572
577151.8125 4179879.5 316.829986572
577151.875 4179879 316.720001221
577151.9375 4179878.5 316.75
577151.9375 4179877.75 316.839996338
577152 4179876.75 316.859985352
577152.0625 4179876.25 316.890014648
577152.1875 4179874.5 316.720001221
577152.25 4179872.75 316.760009766
577152.3125 4179872.25 316.589996338
577152.4375 4179870.5 316.609985352
577151.8125 4179872 316.589996338
577151.75 4179873.25 316.720001221
577151.625 4179875 316.850006104
577151.5625 4179876 316.859985352
577151.5 4179876.75 316.850006104
577151.5 4179877.25 316.880004883
577151.4375 4179877.75 316.880004883
577151.375 4179878.25 317
577151.375 4179879 317.089996338
577151.3125 4179879.5 316.980010986
577151.25 4179880 317.029998779
577151.25 4179880.5 316.920013428
577151.1875 4179881.25 316.839996338
577151.1875 4179881.75 317.029998779
577150.25 4179882 317.100006104
577150.3125 4179881.5 317.100006104
577150.3125 4179881 317.010009766
577150.4375 4179879.25 316.769989014
577150.5 4179878.5 316.940002441
577150.6875 4179875.25 316.859985352
577150.9375 4179871.25 316.579986572
577150.375 4179872 316.609985352
577150.0625 4179877.25 316.970001221
577150 4179878.25 316.959991455
577149.9375 4179879 316.940002441
577149.875 4179880 316.910003662
577149.8125 4179880.5 316.940002441
577149.8125 4179881.25 317.119995117
577149.75 4179881.75 317.190002441
577148.875 4179881.5 317.070007324
577148.9375 4179881 316.920013428
577148.9375 4179880.5 316.850006104
577149 4179880 317
577149 4179879.25 316.970001221
577149.0625 4179878.75 317.010009766
577148.875 4179873.5 316.700012207
577148.5 4179879.25 316.899993896
577148.4375 4179881 316.940002441
577148.375 4179881.5 317.109985352
577148.3125 4179882 316.880004883
577147.5 4179881.75 316.890014648
577147.625 4179879.5 316.910003662
577147 4179880.75 317.049987793
577146.9375 4179881.75 317.019989014
