# .PCD v.7 - Point Cloud Data file format
VERSION .7
FIELDS x y z
SIZE 4 4 4
TYPE F F F
COUNT 1 1 1
WIDTH 275
HEIGHT 1
VIEWPOINT 0 0 0 1 0 0 0
POINTS 275
DATA ascii
577181.4 4179810 313.44
577182.1 4179815 313.44
577093.1 4179852 313.44
577175.4 4179805 313.45
577178.2 4179812 313.45
577181.9 4179817 313.45
577174.1 4179822 313.45
577092.1 4179848 313.45
577178.4 4179809 313.46
577176.4 4179811 313.46
577166 4179792 312.97
577094.4 4179853 313.46
577091.6 4179857 313.46
577091.6 4179858 313.46
577182 4179816 313.47
577093.5 4179853 313.47
577091.8 4179854 313.47
577092.8 4179858 313.47
577176.6 4179809 313.48
577178 4179810 313.48
577180.8 4179812 313.48
577176.8 4179812 313.48
577094.7 4179848 313.48
577167.7 4179793 312.99
577093.7 4179850 313.48
577091.8 4179854 313.48
577093 4179855 313.48
577178.6 4179807 313.49
577178.1 4179808 313.49
577182.3 4179817 313.49
577096.2 4179849 313.49
577095.8 4179850 313.49
577178.8 4179804 313.5
577178.2 4179812 313.5
577173.9 4179826 313.5
577095.6 4179853 313.5
577093.5 4179854 313.5
577094.7 4179854 313.5
577178.8 4179805 313.52
577177.2 4179806 313.51
577178.2 4179808 313.52
577176.9 4179810 313.52
577178 4179810 313.52
577179.3 4179812 313.52
577176.1 4179816 313.52
577180.9 4179815 313.51
577173.9 4179825 313.51
577097.7 4179846 313.51
577097 4179851 313.51
577094.3 4179854 313.52
577168.7 4179795 313.03
577178.5 4179809 313.53
577178.4 4179810 313.53
577097.6 4179847 313.53
577096.3 4179848 313.53
577097 4179852 313.53
577178.3 4179806 313.54
577178.2 4179807 313.55
577179.2 4179813 313.55
577179.6 4179814 313.55
577098.6 4179845 313.54
577096.4 4179846 313.55
577097.2 4179846 313.54
577095.9 4179849 313.55
577094.9 4179851 313.54
577178.3 4179811 313.56
577166.2 4179793 313.08
577167.3 4179794 313.07
577096.1 4179852 313.56
577098.6 4179846 313.57
577098.4 4179848 313.58
577097.6 4179848 313.58
577098.4 4179849 313.58
577172.1 4179794 313.11
577167.6 4179795 313.1
577167.2 4179795 313.1
577096.8 4179854 313.59
577100.3 4179845 313.61
577098.8 4179848 313.6
577171.9 4179796 313.12
577170.3 4179798 313.12
577172.2 4179792 313.13
577099.7 4179849 313.62
577171.8 4179792 313.13
577173.4 4179796 313.13
577173.6 4179793 313.14
577099.5 4179852 313.63
577173 4179796 313.14
577101 4179848 313.64
577171.8 4179794 313.15
577170.4 4179796 313.15
577168.6 4179797 313.15
577100.1 4179848 313.65
577170.2 4179794 313.16
577171.6 4179796 313.16
577170.7 4179793 313.17
577171.7 4179795 313.17
577167.6 4179796 313.17
577170.1 4179796 313.17
577174.9 4179797 313.17
577168.5 4179798 313.17
577174.8 4179798 313.17
577170.7 4179792 313.18
577171.9 4179797 313.18
577174 4179804 313.18
577172.1 4179793 313.19
577176 4179797 313.19
577174.4 4179798 313.19
577170.2 4179814 313.19
577175.1 4179792 313.2
577170.3 4179793 313.2
577173.6 4179794 313.2
577173.6 4179794 313.2
577176.5 4179795 313.2
577169 4179795 313.2
577170.5 4179795 313.2
577174.9 4179796 313.2
577171.8 4179798 313.2
577168.4 4179799 313.2
577170.4 4179792 313.21
577176.2 4179798 313.21
577173.2 4179800 313.21
577174.2 4179800 313.21
577177.8 4179794 313.22
577174.7 4179794 313.22
577173.1 4179796 313.22
577168.9 4179796 313.22
577173.4 4179797 313.22
577168.6 4179798 313.22
577176.2 4179799 313.22
577169.8 4179800 313.22
577175.6 4179802 313.22
577173.2 4179793 313.23
577171.5 4179797 313.23
577176 4179797 313.23
577174.5 4179801 313.23
577177.4 4179798 313.24
577173.2 4179799 313.24
577170.6 4179816 313.24
577174.9 4179796 313.25
577173.4 4179796 313.25
577172.9 4179798 313.25
577175.8 4179801 313.25
577177 4179803 313.25
577171.4 4179798 313.26
577171.3 4179800 313.27
577169.8 4179800 313.26
577172.8 4179805 313.27
577176.8 4179806 313.27
577170.6 4179814 313.27
577171.7 4179815 313.27
577173.5 4179795 313.28
577173.1 4179796 313.28
577171.9 4179796 313.28
577174.4 4179798 313.28
577172.8 4179800 313.28
577178.8 4179800 313.28
577172.8 4179800 313.28
577172.6 4179802 313.28
577171 4179804 313.28
577176.9 4179805 313.28
577170.7 4179814 313.28
577173.3 4179792 313.3
577175 4179794 313.3
577172 4179795 313.29
577174.8 4179798 313.29
577175.8 4179800 313.3
577176.1 4179800 313.29
577174.6 4179800 313.3
577174.6 4179801 313.3
577179 4179801 313.29
577174.1 4179802 313.29
577176.6 4179809 313.3
577173.3 4179793 313.31
577179.2 4179798 313.31
577174.7 4179799 313.31
577176.9 4179804 313.31
577177.2 4179805 313.31
577091.4 4179845 313.31
577173.8 4179792 313.33
577173.7 4179792 313.33
577173.3 4179798 313.32
577173.2 4179798 313.33
577172.9 4179799 313.32
577174.3 4179800 313.32
577174.7 4179800 313.33
577177.2 4179801 313.32
577176 4179802 313.33
577177.1 4179802 313.33
577180 4179802 313.33
577174.4 4179804 313.33
577171.8 4179814 313.33
577173.2 4179820 313.32
577172.7 4179822 313.33
577179.2 4179798 313.34
577178.7 4179806 313.34
577179.7 4179807 313.34
577091.7 4179855 313.34
577174.1 4179803 313.36
577175.8 4179804 313.36
577177.3 4179805 313.36
577178.1 4179809 313.35
577171.9 4179818 313.35
577092.5 4179848 313.35
577178.1 4179793 313.37
577178.1 4179794 313.37
577173.1 4179800 313.37
577177.4 4179804 313.37
577174.2 4179806 313.37
577179.6 4179808 313.37
577175.6 4179808 313.37
577179.8 4179810 313.37
577176.8 4179813 313.37
577170.5 4179817 313.37
577093.2 4179851 313.37
577092.2 4179854 313.37
577091.6 4179856 313.37
577175.9 4179799 313.38
577177.3 4179800 313.38
577177.6 4179801 313.38
577174.4 4179803 313.38
577177 4179804 313.38
577175.3 4179806 313.38
577092.4 4179850 313.38
577176.1 4179801 313.39
577178.9 4179803 313.39
577179.8 4179806 313.39
577176.8 4179806 313.39
577178.1 4179809 313.39
577177.8 4179814 313.39
577173.1 4179816 313.39
577171.5 4179818 313.39
577173 4179818 313.39
577092.7 4179846 313.39
577093.6 4179852 313.39
577092.1 4179855 313.39
577175.6 4179802 313.4
577174 4179804 313.4
577176.9 4179805 313.4
577173.4 4179818 313.4
577093.6 4179852 313.4
577178.8 4179804 313.41
577178.6 4179806 313.41
577179.5 4179810 313.41
577172 4179817 313.41
577173.4 4179818 313.41
577172.9 4179819 313.41
577172.8 4179820 313.41
577174.5 4179823 313.41
577093.5 4179846 313.41
577093.3 4179850 313.41
577093.6 4179850 313.41
577178.6 4179802 313.42
577175.8 4179805 313.42
577173.9 4179810 313.42
577176.5 4179810 313.42
577179.2 4179813 313.42
577092.6 4179847 313.42
577092.1 4179855 313.42
577092.1 4179856 313.42
577177.4 4179803 313.43
577178.9 4179803 313.43
577175.4 4179806 313.43
577175.8 4179806 313.43
577175.7 4179806 313.43
577179.9 4179808 313.43
577179.5 4179809 313.43
577182.2 4179813 313.43
577180.6 4179815 313.43
577173.2 4179820 313.43
577174.2 4179820 313.43
577095.1 4179846 313.43
577093.8 4179847 313.43
577092.3 4179851 313.43
577093.6 4179851 313.43
