# .PCD v.7 - Point Cloud Data file format
VERSION .7
FIELDS x y z
SIZE 4 4 4
TYPE F F F
COUNT 1 1 1
WIDTH 541
HEIGHT 1
VIEWPOINT 0 0 0 1 0 0 0
POINTS 541
DATA ascii
578173.8 4179278 295.35
578173.8 4179278 295.36
578173.8 4179278 295.38
578173.8 4179278 295.4
578173.8 4179278 295.43
578173.8 4179278 295.47
578173.8 4179269 295.48
578173.8 4179269 295.49
578173.8 4179278 295.5
578173.8 4179269 295.53
578173.8 4179279 295.54
578173.8 4179279 295.57
578173.8 4179268 295.59
578173.8 4179279 295.59
578179.7 4179275 295.6
578173.8 4179279 295.61
578173.8 4179280 295.62
578173.8 4179280 295.62
578173.8 4179280 295.62
578173.8 4179280 295.62
578173.8 4179280 295.62
578173.9 4179269 295.63
578173.8 4179281 295.63
578173.8 4179281 295.64
578173.8 4179268 295.65
578173.9 4179269 295.65
578173.8 4179281 295.65
578173.8 4179274 295.66
578173.8 4179273 295.67
578178.8 4179280 295.67
578173.9 4179269 295.68
578178.9 4179280 295.68
578178.9 4179280 295.7
578179.5 4179276 295.71
578173.9 4179279 295.71
578175.4 4179266 295.72
578173.8 4179268 295.72
578178.6 4179280 295.72
578173.9 4179268 295.73
578174.1 4179278 295.73
578178.6 4179280 295.73
578178.9 4179281 295.73
578178.8 4179279 295.74
578173.9 4179280 295.74
578173.9 4179280 295.74
578178.8 4179277 295.75
578178.6 4179280 295.75
578178.9 4179279 295.75
578173.9 4179280 295.75
578173.9 4179281 295.75
578174.1 4179264 295.76
578179.1 4179276 295.76
578174.1 4179277 295.76
578178.8 4179279 295.76
578179.1 4179280 295.77
578173.9 4179281 295.76
578178.9 4179281 295.77
578173.8 4179268 295.78
578178.6 4179280 295.78
578179.1 4179281 295.78
578173.9 4179281 295.78
578178.8 4179264 295.8
578173.9 4179268 295.79
578173.9 4179272 295.79
578173.9 4179275 295.79
578179.1 4179276 295.79
578178.8 4179276 295.79
578178.9 4179276 295.8
578174.1 4179278 295.79
578178.8 4179278 295.8
578179.1 4179281 295.8
578179.9 4179265 295.81
578178.8 4179278 295.81
578178.4 4179280 295.81
578175.6 4179268 295.83
578173.9 4179273 295.83
578179.7 4179276 295.83
578178.8 4179276 295.83
578178.8 4179277 295.83
578178.4 4179280 295.82
578178.2 4179280 295.82
578178.6 4179281 295.82
578177.9 4179265 295.84
578173.8 4179268 295.84
578179.9 4179276 295.84
578178.9 4179276 295.84
578179.1 4179276 295.84
578178.9 4179278 295.84
578178.4 4179280 295.84
578179.1 4179279 295.84
578177.9 4179264 295.85
578173.9 4179273 295.85
578177.7 4179273 295.85
578173.9 4179274 295.85
578174.2 4179276 295.86
578178.1 4179276 295.86
578176.2 4179276 295.86
578178.6 4179276 295.85
578178.6 4179278 295.85
578174.1 4179279 295.86
578177.5 4179280 295.85
578174.1 4179280 295.86
578174.8 4179281 295.85
578174.1 4179263 295.87
578173.9 4179266 295.87
578176.2 4179266 295.87
578173.9 4179274 295.87
578173.9 4179274 295.87
578177.2 4179276 295.87
578177.7 4179263 295.88
578176.1 4179265 295.88
578178.6 4179264 295.88
578173.9 4179266 295.88
578174.1 4179266 295.88
578173.8 4179266 295.88
578173.8 4179268 295.88
578178.4 4179270 295.88
578174.6 4179270 295.88
578176.1 4179275 295.88
578178.9 4179277 295.88
578178.4 4179278 295.88
578178.4 4179280 295.88
578177.9 4179264 295.89
578178.1 4179264 295.89
578178.4 4179264 295.89
578178.8 4179264 295.89
578174.2 4179265 295.89
578174.1 4179266 295.89
578173.8 4179267 295.89
578174.2 4179269 295.89
578174.1 4179276 295.89
578174.2 4179276 295.89
578176.2 4179279 295.89
578177.3 4179280 295.89
578174.6 4179263 295.9
578173.8 4179264 295.9
578173.9 4179263 295.9
578177 4179264 295.9
578177.2 4179264 295.9
578177.5 4179264 295.9
578177.7 4179264 295.9
578177.9 4179264 295.9
578177.7 4179264 295.9
578178.8 4179264 295.9
578174.2 4179269 295.9
578174.2 4179270 295.9
578174.8 4179272 295.9
578175.9 4179275 295.9
578174.2 4179277 295.9
578174.2 4179278 295.9
578176.2 4179278 295.9
578178.2 4179278 295.9
578176.2 4179280 295.9
578177.2 4179263 295.91
578174.1 4179263 295.91
578176.8 4179264 295.91
578177.3 4179264 295.91
578176.8 4179264 295.91
578177.5 4179264 295.91
578177.7 4179264 295.91
578174.2 4179266 295.91
578174.1 4179266 295.91
578173.8 4179267 295.91
578173.8 4179268 295.91
578176.4 4179270 295.91
578176.6 4179274 295.91
578177 4179274 295.91
578176.6 4179275 295.91
578176.6 4179276 295.91
578177.2 4179277 295.91
578177.3 4179279 295.91
578177.3 4179282 295.91
578174.8 4179263 295.92
578173.9 4179264 295.92
578174.2 4179263 295.92
578176.6 4179264 295.92
578177.5 4179264 295.92
578176.8 4179264 295.92
578176.1 4179264 295.92
578177.2 4179264 295.92
578175 4179265 295.92
578175.9 4179264 295.92
578178.1 4179264 295.92
578174.2 4179266 295.92
578174.2 4179266 295.92
578173.8 4179267 295.92
578173.8 4179267 295.92
578176.1 4179268 295.92
578176.4 4179269 295.92
578175.4 4179269 295.92
578174.1 4179272 295.92
578176.6 4179275 295.92
578174.2 4179278 295.92
578176.4 4179279 295.92
578176.2 4179279 295.92
578176.4 4179280 295.92
578176.6 4179264 295.93
578176.8 4179264 295.93
578177 4179264 295.93
578177 4179264 295.93
578173.8 4179265 295.93
578174.4 4179266 295.93
578175.4 4179266 295.93
578174.1 4179266 295.93
578175.4 4179267 295.93
578174.2 4179269 295.93
578174.2 4179270 295.93
578177.3 4179270 295.93
578176.6 4179270 295.93
578174.1 4179272 295.93
578176.6 4179274 295.93
578176.2 4179275 295.93
578176.4 4179275 295.93
578176.6 4179275 295.93
578174.1 4179275 295.93
578176.8 4179275 295.93
578176.2 4179276 295.93
578176.4 4179276 295.93
578174.2 4179277 295.93
578176.2 4179279 295.93
578176.2 4179280 295.93
578176.6 4179280 295.93
578177.5 4179281 295.93
578175 4179263 295.94
578174.1 4179264 295.94
578177.5 4179263 295.94
578176.6 4179264 295.94
578177.2 4179264 295.94
578177.9 4179264 295.94
578173.9 4179265 295.94
578175 4179265 295.94
578174.4 4179266 295.94
578174.2 4179266 295.94
578174.2 4179266 295.94
578177 4179266 295.94
578174.4 4179266 295.94
578175.4 4179267 295.94
578177 4179268 295.94
578173.8 4179270 295.94
578175.8 4179271 295.94
578175.9 4179272 295.94
578176.6 4179274 295.94
578176.8 4179275 295.94
578176.2 4179276 295.94
578176.8 4179276 295.94
578174.2 4179277 295.94
578177.2 4179277 295.94
578174.2 4179278 295.94
578174.2 4179278 295.94
578176.2 4179279 295.94
578176.6 4179279 295.94
578176.6 4179280 295.94
578177.7 4179264 295.95
578176.1 4179264 295.95
578177 4179264 295.95
578177.7 4179264 295.95
578174.1 4179265 295.95
578174.4 4179266 295.95
578176.2 4179267 295.95
578177.2 4179269 295.95
578174.6 4179272 295.95
578173.9 4179273 295.95
578174.1 4179273 295.95
578177 4179274 295.95
578176.8 4179275 295.95
578174.1 4179275 295.95
578176.2 4179276 295.95
578176.8 4179276 295.95
578175.2 4179278 295.95
578175.2 4179263 295.96
578176.2 4179263 295.96
578177 4179264 295.96
578176.2 4179264 295.96
578176.2 4179264 295.96
578176.2 4179264 295.96
578175.2 4179265 295.96
578176.1 4179267 295.96
578176.2 4179267 295.96
578176.1 4179267 295.96
578176.2 4179268 295.96
578176.4 4179268 295.96
578176.2 4179270 295.96
578174.1 4179270 295.96
578175.9 4179273 295.96
578176.2 4179274 295.96
578176.8 4179274 295.96
578176.1 4179275 295.96
578176.8 4179275 295.96
578175.9 4179276 295.96
578177 4179276 295.96
578176.2 4179276 295.96
578175.2 4179277 295.96
578176.1 4179279 295.96
578174.6 4179280 295.96
578175.6 4179279 295.96
578176.1 4179280 295.96
578176.2 4179280 295.96
578174.2 4179280 295.96
578175.4 4179263 295.97
578173.9 4179263 295.97
578176.6 4179263 295.97
578176.1 4179264 295.97
578173.9 4179264 295.97
578176.1 4179264 295.97
578176.1 4179264 295.97
578176.2 4179264 295.97
578176.8 4179264 295.97
578177 4179265 295.97
578174.2 4179265 295.97
578176.2 4179266 295.97
578174.4 4179266 295.97
578174.2 4179266 295.97
578176.1 4179267 295.97
578176.2 4179267 295.97
578176.4 4179267 295.97
578176.1 4179268 295.97
578174.6 4179272 295.97
578176.4 4179271 295.97
578176.8 4179273 295.97
578176.6 4179274 295.97
578176.8 4179274 295.97
578176.8 4179274 295.97
578176.1 4179275 295.97
578177 4179275 295.97
578176.2 4179276 295.97
578174.1 4179277 295.97
578174.4 4179278 295.97
578176.2 4179278 295.97
578176.4 4179278 295.97
578176.2 4179280 295.97
578175.4 4179263 295.98
578176.1 4179264 295.98
578175 4179264 295.98
578177 4179264 295.98
578175.9 4179264 295.98
578175.9 4179264 295.98
578174.1 4179265 295.98
578175.9 4179265 295.98
578174.6 4179266 295.98
578175.9 4179267 295.98
578176.2 4179267 295.98
578176.4 4179267 295.98
578175.9 4179267 295.98
578174.4 4179269 295.98
578176.6 4179274 295.98
578176.8 4179274 295.98
578176.8 4179274 295.98
578176.1 4179274 295.98
578176.8 4179275 295.98
578176.1 4179276 295.98
578176.1 4179276 295.98
578175.9 4179276 295.98
578174.2 4179276 295.98
578176.4 4179276 295.98
578176.6 4179276 295.98
578176.2 4179277 295.98
578174.2 4179278 295.98
578174.2 4179280 295.98
578176.4 4179280 295.98
578176.6 4179280 295.98
578175.9 4179264 295.99
578175.9 4179264 295.99
578176.8 4179264 295.99
578174.8 4179264 295.99
578175.8 4179264 295.99
578173.9 4179265 295.99
578175.8 4179264 295.99
578176.6 4179265 295.99
578174.2 4179265 295.99
578175.8 4179265 295.99
578175.9 4179265 295.99
578176.1 4179265 295.99
578175 4179266 295.99
578175.9 4179267 295.99
578176.1 4179267 295.99
578175.9 4179268 295.99
578176.1 4179268 295.99
578174.4 4179269 295.99
578176.4 4179270 295.99
578174.2 4179270 295.99
578176.6 4179270 295.99
578176.4 4179270 295.99
578173.9 4179272 295.99
578176.1 4179274 295.99
578174.1 4179275 295.99
578174.2 4179276 295.99
578176.1 4179276 295.99
578176.4 4179277 295.99
578174.4 4179277 295.99
578176.1 4179280 295.99
578175.8 4179264 296
578174.1 4179264 296
578174.4 4179265 296
578175.4 4179265 296
578176.1 4179265 296
578176.2 4179265 296
578175.2 4179265 296
578175.4 4179265 296
578175.6 4179265 296
578175.2 4179266 296
578175.4 4179266 296
578176.1 4179266 296
578176.2 4179266 296
578174.4 4179268 296
578175.9 4179268 296
578176.1 4179268 296
578176.2 4179268 296
578176.4 4179268 296
578176.6 4179268 296
578176.2 4179268 296
578174.4 4179269 296
578174.6 4179269 296
578174.4 4179270 296
578176.4 4179270 296
578176.2 4179270 296
578176.2 4179270 296
578174.1 4179273 296
578176.1 4179274 296
578176.1 4179276 296
578176.1 4179277 296
578176.2 4179277 296
578176.1 4179278 296
578176.2 4179278 296
578174.2 4179279 296
578176.1 4179280 296
578175.9 4179263 296.01
578174.8 4179264 296.01
578175 4179264 296.02
578175.2 4179264 296.02
578174.2 4179264 296.02
578175.9 4179264 296.02
578174.1 4179264 296.015
578175.2 4179265 296.02
578175.4 4179265 296.01
578174.8 4179265 296.015
578175 4179265 296.015
578175.2 4179265 296.01
578175.2 4179266 296.01
578175.4 4179266 296.02
578175.6 4179266 296.02
578175.8 4179266 296.01
578175.9 4179266 296.01
578176.1 4179266 296.02
578174.1 4179266 296.01
578175.8 4179266 296.02
578175.9 4179266 296.01
578176.1 4179266 296.01
578176.2 4179266 296.01
578175.8 4179268 296.01
578175.9 4179268 296.01
578174.2 4179268 296.01
578174.4 4179268 296.01
578176.1 4179268 296.02
578174.4 4179269 296.01
578174.4 4179270 296.02
578176.2 4179270 296.01
578174.2 4179270 296.02
578173.9 4179271 296.02
578176.2 4179271 296.01
578176.1 4179274 296.02
578175.9 4179274 296.02
578174.1 4179275 296.01
578175.9 4179275 296.02
578175.9 4179275 296.02
578175.9 4179278 296.02
578175.9 4179279 296.01
578174.2 4179280 296.02
578174.4 4179280 296.01
578174.6 4179264 296.03
578174.8 4179264 296.03
578175 4179264 296.03
578174.2 4179265 296.03
578175.2 4179264 296.03
578175.2 4179266 296.03
578175.6 4179266 296.03
578174.8 4179266 296.03
578175 4179266 296.03
578175.2 4179266 296.03
578174.4 4179270 296.03
578175.8 4179270 296.03
578175.6 4179272 296.03
578174.1 4179274 296.03
578173.9 4179274 296.03
578175.8 4179274 296.03
578174.2 4179276 296.03
578174.4 4179278 296.03
578175.6 4179281 296.03
578175 4179264 296.05
578175 4179264 296.05
578175.2 4179264 296.04
578174.2 4179264 296.04
578174.8 4179264 296.05
578175 4179264 296.045
578174.1 4179266 296.04
578174.2 4179266 296.05
578175 4179266 296.05
578175.6 4179266 296.04
578175.6 4179266 296.04
578174.1 4179267 296.04
578175.6 4179267 296.04
578175.6 4179268 296.04
578174.1 4179268 296.05
578175.6 4179268 296.05
578174.4 4179268 296.04
578174.4 4179270 296.04
578174.6 4179271 296.05
578174.1 4179274 296.04
578174.1 4179274 296.04
578174.2 4179276 296.04
578174.4 4179277 296.04
578174.4 4179278 296.04
578175.2 4179279 296.05
578174.4 4179281 296.05
578174.8 4179264 296.06
578175.2 4179266 296.06
578174.1 4179267 296.06
578174.6 4179269 296.06
578174.6 4179270 296.06
578173.9 4179276 296.06
578174.4 4179278 296.06
578174.2 4179279 296.06
578174.4 4179280 296.06
578174.1 4179268 296.07
578174.6 4179269 296.07
578174.4 4179270 296.08
578174.4 4179272 296.07
578174.4 4179272 296.08
578174.2 4179275 296.08
578174.2 4179276 296.08
578174.4 4179277 296.08
578174.4 4179277 296.07
578174.2 4179278 296.07
578174.4 4179280 296.07
578174.2 4179267 296.09
578174.4 4179267 296.09
578173.9 4179272 296.09
578174.4 4179272 296.09
578174.4 4179278 296.09
578173.9 4179264 296.1
578174.1 4179264 296.11
578174.1 4179274 296.1
