# .PCD v.7 - Point Cloud Data file format
VERSION .7
FIELDS x y z
SIZE 4 4 4
TYPE F F F
COUNT 1 1 1
WIDTH 149
HEIGHT 1
VIEWPOINT 0 0 0 1 0 0 0
POINTS 149
DATA ascii
578197.9 4179269 294.7
578197.9 4179270 294.75
578197.9 4179268 294.76
578197.7 4179269 294.77
578197.7 4179270 294.76
578198 4179270 294.76
578198 4179269 294.78
578198 4179269 294.79
578198.2 4179274 294.79
578198.4 4179274 294.79
578198.2 4179274 294.8
578198.4 4179276 294.8
578197.7 4179268 294.81
578197.9 4179270 294.81
578198 4179274 294.81
578197.5 4179268 294.82
578198 4179272 294.83
578198 4179273 294.82
578198 4179274 294.83
578198.4 4179275 294.82
578198 4179268 294.84
578197.7 4179270 294.84
578197.9 4179268 294.85
578197.9 4179270 294.86
578198 4179270 294.85
578198 4179273 294.86
578198.6 4179275 294.85
578198 4179271 294.87
578198 4179275 294.87
578198 4179275 294.87
578198.6 4179276 294.88
578198.2 4179269 294.89
578198.2 4179276 294.89
578197.7 4179268 294.9
578197.9 4179270 294.9
578197.3 4179272 294.9
578198 4179273 294.9
578198.4 4179274 294.9
578198.4 4179276 294.9
578198.2 4179276 294.92
578196.9 4179268 294.93
578196.9 4179269 294.93
578198.2 4179272 294.93
578197.1 4179272 294.93
578197.1 4179268 294.94
578196.8 4179269 294.94
578197.9 4179272 294.94
578198.2 4179274 294.94
578198.2 4179274 294.94
578198.2 4179276 294.94
578198.4 4179276 294.94
578196.8 4179268 294.95
578198.2 4179273 294.95
578198.2 4179268 294.96
578197.3 4179273 294.96
578198 4179270 294.97
578198.2 4179274 294.97
578198.2 4179275 294.97
578197.5 4179276 294.97
578196.9 4179270 294.98
578198.2 4179275 294.98
578198.2 4179275 294.98
578197.3 4179268 294.99
578197.1 4179270 294.99
578198.2 4179273 294.99
578197.3 4179270 295
578198 4179268 295.02
578197.9 4179272 295.01
578196.4 4179270 295.03
578196.9 4179268 295.05
578196.8 4179268 295.05
578196.6 4179272 295.05
578196.9 4179272 295.04
578197.3 4179274 295.04
578196.6 4179269 295.06
578197.1 4179270 295.07
578196.2 4179269 295.09
578196.1 4179269 295.1
578194.9 4179290 296.76
578194.1 4179289 296.79
578195.1 4179290 296.8
578196.1 4179290 296.8
578193 4179288 296.81
578194.6 4179289 296.81
578194.1 4179288 296.82
578193.7 4179288 296.83
578195.3 4179290 296.82
578195.1 4179291 296.83
578193.7 4179288 296.85
578193 4179288 296.87
578194.6 4179289 296.88
578193.2 4179288 296.89
578194.8 4179288 296.9
578195.9 4179290 296.91
578192.6 4179287 296.92
578194.8 4179289 296.92
578195.1 4179288 296.93
578195.5 4179290 296.93
578193.5 4179288 296.96
578192.6 4179287 296.98
578193.4 4179288 296.98
578195.7 4179290 297
578194.2 4179288 297.02
578194.8 4179289 297.02
578193 4179287 297.03
578194.1 4179288 297.03
578193.7 4179288 297.05
578193.9 4179288 297.04
578194.9 4179288 297.04
578194.6 4179289 297.04
578195.5 4179290 297.04
578193.5 4179288 297.06
578194.8 4179289 297.06
578195.9 4179290 297.07
578193.7 4179288 297.09
578195.7 4179289 297.09
578193.2 4179287 297.1
578193.9 4179288 297.12
578194.8 4179288 297.12
578194.9 4179288 297.12
578194.8 4179289 297.12
578195.3 4179289 297.12
578193.7 4179288 297.13
578194.6 4179288 297.13
578195.1 4179288 297.13
578194.1 4179288 297.14
578194.2 4179288 297.14
578194.4 4179288 297.14
578194.6 4179288 297.14
578193.4 4179287 297.15
578194.4 4179288 297.15
578194.6 4179288 297.15
578195.5 4179289 297.15
578194.4 4179288 297.16
578194.9 4179289 297.16
578194.2 4179288 297.17
578194.9 4179288 297.17
578195.3 4179289 297.17
578193.5 4179287 297.18
578191.8 4179288 297.18
578193.5 4179287 297.18
578193.7 4179287 297.18
578193.9 4179288 297.18
578194.1 4179288 297.18
578195.1 4179289 297.18
578195.7 4179290 297.21
578193.9 4179288 297.22
578194.6 4179288 297.33
578193.5 4179287 297.41
