# .PCD v.7 - Point Cloud Data file format
VERSION .7
FIELDS x y z
SIZE 4 4 4
TYPE F F F
COUNT 1 1 1
WIDTH 2031
HEIGHT 1
VIEWPOINT 0 0 0 1 0 0 0
POINTS 2031
DATA ascii
578191.8 4179275 295.35
578196.6 4179278 295.36
578193.9 4179285 295.35
578194.4 4179285 295.35
578194.6 4179285 295.36
578194.8 4179285 295.35
578194.6 4179286 295.35
578194.9 4179286 295.36
578196.8 4179286 295.36
578194.1 4179270 295.37
578192.8 4179271 295.37
578193.4 4179271 295.37
578191.8 4179273 295.37
578195.9 4179278 295.37
578196.2 4179282 295.37
578196.2 4179283 295.37
578196.8 4179287 295.37
578194.1 4179270 295.38
578194.4 4179270 295.38
578198.2 4179271 295.38
578192.2 4179271 295.38
578193.2 4179271 295.38
578191.9 4179272 295.38
578191.8 4179274 295.38
578196.4 4179283 295.38
578193.7 4179285 295.38
578193.7 4179285 295.38
578194.8 4179285 295.38
578194.9 4179285 295.38
578194.8 4179286 295.38
578196.6 4179268 295.39
578193.7 4179271 295.39
578192.6 4179271 295.39
578193.4 4179271 295.39
578191.9 4179272 295.39
578191.8 4179273 295.39
578191.8 4179275 295.39
578196.2 4179278 295.39
578197.3 4179282 295.39
578192.4 4179283 295.39
578196.9 4179283 295.39
578193.9 4179285 295.39
578196.8 4179268 295.4
578194.2 4179269 295.4
578194.2 4179270 295.4
578193.2 4179271 295.4
578193.5 4179271 295.4
578191.8 4179274 295.4
578195.7 4179277 295.4
578196.1 4179278 295.4
578196.6 4179283 295.4
578194.8 4179286 295.4
578195.1 4179269 295.41
578194.6 4179270 295.41
578192.8 4179271 295.41
578193.4 4179271 295.41
578192.8 4179272 295.41
578191.8 4179272 295.41
578192.4 4179283 295.41
578196.9 4179283 295.41
578194.6 4179286 295.41
578194.4 4179270 295.42
578193.5 4179270 295.42
578192.6 4179271 295.42
578193.5 4179271 295.42
578193.4 4179271 295.42
578196.4 4179282 295.42
578193.9 4179284 295.42
578194.6 4179286 295.42
578194.9 4179286 295.42
578194.9 4179269 295.43
578194.2 4179270 295.43
578193.4 4179270 295.43
578193.4 4179272 295.43
578191.8 4179275 295.43
578196.8 4179278 295.43
578195.7 4179278 295.43
578196.4 4179283 295.43
578192.4 4179283 295.43
578196.4 4179283 295.43
578194.8 4179285 295.43
578194.9 4179286 295.43
578194.9 4179286 295.43
578193 4179270 295.44
578193.2 4179270 295.44
578193.5 4179270 295.44
578191.6 4179272 295.44
578191.8 4179274 295.44
578195.9 4179277 295.44
578194.8 4179269 295.45
578195.3 4179269 295.45
578194.1 4179270 295.45
578193.4 4179270 295.45
578191.8 4179272 295.45
578191.8 4179272 295.45
578191.8 4179272 295.45
578196.6 4179278 295.45
578196.6 4179283 295.45
578197.1 4179283 295.45
578194.9 4179286 295.45
578196.4 4179286 295.45
578194.8 4179286 295.45
578194.9 4179286 295.45
578193.5 4179270 295.46
578193.2 4179270 295.46
578193.4 4179270 295.46
578191.8 4179272 295.46
578191.8 4179274 295.46
578195.1 4179286 295.46
578195.1 4179269 295.47
578191.6 4179273 295.47
578191.6 4179273 295.47
578197.3 4179283 295.47
578194.8 4179286 295.47
578196.6 4179286 295.47
578197.5 4179268 295.48
578195.5 4179269 295.48
578193.9 4179270 295.48
578191.6 4179273 295.48
578191.6 4179274 295.48
578194.6 4179284 295.48
578195.1 4179286 295.48
578195.1 4179286 295.48
578194.9 4179269 295.49
578193.4 4179270 295.49
578196.1 4179278 295.49
578197.1 4179282 295.49
578195.3 4179286 295.49
578195.7 4179286 295.49
578196.6 4179287 295.49
578195.9 4179287 295.49
578196.9 4179287 295.49
578194.1 4179269 295.5
578192.4 4179270 295.5
578192.8 4179270 295.5
578194.2 4179270 295.5
578191.8 4179272 295.5
578195.5 4179286 295.5
578195.7 4179287 295.5
578196.8 4179287 295.5
578197.3 4179268 295.52
578195.1 4179268 295.52
578195.7 4179269 295.51
578194.4 4179269 295.51
578195.1 4179269 295.51
578193.5 4179270 295.52
578193.7 4179270 295.52
578193.4 4179270 295.52
578192.2 4179270 295.51
578193.2 4179270 295.51
578191.8 4179272 295.52
578191.6 4179272 295.52
578191.6 4179272 295.51
578191.6 4179274 295.51
578195.9 4179277 295.51
578195.9 4179278 295.52
578196.9 4179282 295.51
578196.4 4179283 295.52
578192.8 4179284 295.51
578193.9 4179286 295.52
578195.3 4179286 295.52
578195.3 4179286 295.52
578196.4 4179286 295.51
578195.7 4179287 295.51
578195.9 4179287 295.52
578196.1 4179287 295.52
578196.4 4179287 295.51
578195.7 4179287 295.51
578196.6 4179287 295.52
578196.1 4179287 295.51
578196.4 4179287 295.52
578195.7 4179268 295.53
578195.9 4179268 295.53
578193.9 4179269 295.53
578194.2 4179269 295.53
578192.6 4179270 295.53
578191.6 4179274 295.53
578195.3 4179286 295.53
578196.6 4179287 295.53
578195.1 4179270 295.55
578192.2 4179270 295.54
578192.8 4179270 295.55
578194.4 4179270 295.55
578196.9 4179272 295.54
578191.9 4179275 295.54
578195.5 4179286 295.55
578195.9 4179286 295.54
578195.3 4179286 295.54
578195.5 4179286 295.54
578195.5 4179287 295.54
578196.8 4179287 295.54
578196.9 4179287 295.55
578195.9 4179287 295.54
578196.6 4179287 295.55
578196.1 4179268 295.56
578194.4 4179269 295.56
578194.9 4179269 295.56
578192.4 4179270 295.56
578191.6 4179272 295.56
578196.2 4179283 295.56
578195.7 4179286 295.56
578196.1 4179286 295.56
578195.7 4179268 295.58
578194.8 4179269 295.58
578194.9 4179269 295.58
578195.1 4179269 295.57
578195.3 4179269 295.57
578194.2 4179269 295.58
578193.4 4179270 295.57
578193.5 4179270 295.57
578193.2 4179270 295.57
578191.6 4179272 295.58
578197.1 4179272 295.58
578196.1 4179277 295.58
578196.1 4179278 295.57
578195.5 4179286 295.57
578195.7 4179286 295.57
578195.9 4179286 295.58
578195.9 4179287 295.58
578197.7 4179267 295.59
578195.7 4179268 295.59
578196.6 4179268 295.59
578193.4 4179269 295.59
578192.6 4179270 295.59
578191.4 4179272 295.59
578195.7 4179286 295.59
578196.1 4179286 295.59
578197.3 4179264 295.61
578195.9 4179268 295.61
578195.3 4179268 295.61
578194.1 4179269 295.61
578191.6 4179272 295.61
578191.4 4179272 295.61
578195.7 4179277 295.6
578195.7 4179286 295.6
578196.1 4179286 295.6
578195.7 4179287 295.6
578194.8 4179268 295.62
578194.9 4179268 295.62
578195.1 4179268 295.62
578191.6 4179273 295.62
578195.5 4179286 295.62
578195.9 4179286 295.62
578195.9 4179286 295.62
578196.9 4179268 295.63
578193.5 4179269 295.63
578191.8 4179271 295.63
578193.5 4179271 295.63
578191.6 4179272 295.63
578195.9 4179278 295.63
578195.7 4179267 295.65
578194.9 4179268 295.65
578195.3 4179268 295.65
578195.5 4179268 295.65
578193.9 4179269 295.65
578191.4 4179272 295.65
578196.4 4179268 295.66
578194.1 4179268 295.66
578192.6 4179270 295.66
578197.5 4179266 295.67
578196.6 4179268 295.67
578195.7 4179278 295.67
578178.8 4179280 295.67
578196.8 4179288 295.67
578196.8 4179268 295.68
578194.1 4179269 295.68
578194.9 4179270 295.68
578192.2 4179270 295.68
578191.6 4179271 295.68
578191.4 4179272 295.68
578178.9 4179280 295.68
578196.4 4179264 295.69
578196.6 4179267 295.69
578194.9 4179268 295.69
578196.1 4179268 295.69
578194.9 4179268 295.69
578195.1 4179268 295.69
578195.3 4179268 295.69
578195.5 4179268 295.69
578193.5 4179269 295.69
578191.6 4179270 295.69
578196.8 4179287 295.69
578189.1 4179265 295.7
578194.2 4179268 295.7
578178.9 4179280 295.7
578196.9 4179288 295.7
578194.9 4179267 295.71
578195.9 4179268 295.71
578194.8 4179268 295.71
578192.4 4179270 295.71
578191.2 4179275 295.71
578196.6 4179288 295.71
578196.2 4179264 295.72
578175.4 4179266 295.72
578195.1 4179268 295.72
578195.3 4179268 295.72
578195.7 4179268 295.72
578196.4 4179268 295.72
578194.4 4179268 295.72
578193.9 4179269 295.72
578178.6 4179280 295.72
578190.1 4179286 295.72
578196.4 4179288 295.72
578196.8 4179288 295.72
578198 4179264 295.73
578194.8 4179268 295.73
578194.9 4179268 295.73
578192.6 4179270 295.73
578191.8 4179270 295.73
578192.1 4179270 295.73
578191.2 4179274 295.73
578178.6 4179280 295.73
578178.9 4179281 295.73
578195.5 4179285 295.73
578198.2 4179264 295.74
578196.6 4179266 295.74
578191.2 4179272 295.74
578178.8 4179279 295.74
578197.3 4179288 295.74
578197.5 4179264 295.75
578194.8 4179268 295.75
578195.5 4179268 295.75
578195.7 4179268 295.75
578195.9 4179268 295.75
578193.2 4179269 295.75
578193.4 4179269 295.75
578178.6 4179280 295.75
578178.9 4179279 295.75
578174.4 4179290 295.75
578190.8 4179265 295.77
578194.8 4179264 295.77
578197.3 4179265 295.76
578198.2 4179265 295.76
578193.4 4179268 295.76
578191.4 4179271 295.77
578191 4179272 295.77
578191 4179272 295.77
578190.8 4179272 295.76
578191 4179275 295.76
578178.8 4179279 295.76
578179.1 4179280 295.77
578178.9 4179281 295.77
578185.8 4179285 295.77
578196.6 4179288 295.77
578197.3 4179288 295.77
578191.2 4179265 295.78
578196.4 4179266 295.78
578196.8 4179267 295.78
578192.4 4179269 295.78
578191.8 4179270 295.78
578189.8 4179272 295.78
578178.6 4179280 295.78
578179.1 4179281 295.78
578185.6 4179285 295.78
578197.5 4179288 295.78
578196.9 4179290 295.78
578189.1 4179264 295.8
578197.3 4179264 295.8
578197.5 4179264 295.8
578198.2 4179264 295.8
578178.8 4179264 295.8
578197.3 4179264 295.8
578197.5 4179264 295.8
578197.7 4179264 295.8
578197.9 4179264 295.8
578197.3 4179264 295.8
578197.5 4179264 295.79
578197.9 4179264 295.8
578196.4 4179265 295.79
578197.1 4179265 295.8
578197.3 4179265 295.8
578197.5 4179265 295.795
578197.7 4179265 295.79
578197.1 4179265 295.8
578197.3 4179265 295.8
578196.6 4179266 295.8
578193.9 4179266 295.79
578194.1 4179266 295.8
578196.6 4179267 295.8
578197.3 4179267 295.8
578197.5 4179267 295.79
578195.1 4179268 295.8
578194.1 4179268 295.8
578186.1 4179268 295.8
578193.9 4179268 295.79
578191.4 4179270 295.8
578191.6 4179270 295.8
578184.6 4179272 295.8
578184.9 4179272 295.8
578178.6 4179272 295.8
578191 4179273 295.79
578191 4179274 295.79
578178.8 4179278 295.8
578179.1 4179281 295.8
578179.7 4179284 295.79
578185.4 4179285 295.79
578190.1 4179287 295.79
578196.6 4179288 295.8
578196.6 4179288 295.79
578197.3 4179288 295.8
578197.5 4179288 295.8
578174.2 4179290 295.79
578197.9 4179291 295.8
578197.1 4179264 295.81
578197.3 4179264 295.81
578197.1 4179264 295.81
578197.3 4179264 295.81
578197.9 4179264 295.81
578198 4179264 295.81
578197.1 4179264 295.81
578198 4179264 295.81
578191.2 4179266 295.81
578194.6 4179266 295.81
578196.4 4179267 295.81
578196.6 4179267 295.81
578196.8 4179267 295.81
578196.9 4179267 295.81
578197.1 4179267 295.81
578196.1 4179267 295.81
578193.2 4179268 295.81
578196.6 4179268 295.81
578193 4179268 295.81
578195.9 4179268 295.81
578192.4 4179268 295.81
578193 4179269 295.81
578181.1 4179270 295.81
578192.4 4179270 295.81
578178.4 4179280 295.81
578185.6 4179285 295.81
578186.3 4179285 295.81
578188.9 4179285 295.81
578185.4 4179286 295.81
578185.8 4179286 295.81
578197.5 4179288 295.81
578197.1 4179288 295.81
578197.3 4179288 295.81
578197.7 4179288 295.81
578190.3 4179289 295.81
578197.5 4179289 295.81
578191 4179289 295.81
578179.1 4179290 295.81
578174.2 4179290 295.81
578174.4 4179290 295.81
578192.4 4179290 295.81
578196.9 4179290 295.81
578191.8 4179264 295.83
578196.9 4179264 295.82
578197.9 4179264 295.82
578198 4179264 295.83
578196.9 4179264 295.82
578198 4179264 295.82
578198.2 4179264 295.83
578189.1 4179264 295.83
578198.2 4179264 295.83
578184.9 4179265 295.82
578196.8 4179265 295.83
578194.6 4179266 295.83
578196.6 4179266 295.82
578196.8 4179266 295.82
578197.1 4179266 295.82
578197.5 4179266 295.83
578196.4 4179266 295.83
578196.6 4179266 295.82
578185.1 4179266 295.82
578195.9 4179266 295.83
578196.4 4179266 295.82
578196.6 4179266 295.82
578196.8 4179266 295.83
578196.2 4179266 295.83
578196.4 4179266 295.82
578196.6 4179266 295.82
578196.8 4179266 295.83
578193.9 4179267 295.82
578195.9 4179267 295.83
578195.7 4179267 295.83
578195.9 4179267 295.82
578175.6 4179268 295.83
578194.9 4179268 295.82
578184.4 4179272 295.82
578185.1 4179272 295.82
578184.2 4179272 295.82
578191 4179274 295.82
578190.8 4179274 295.82
578178.4 4179280 295.82
578178.2 4179280 295.82
578178.6 4179281 295.82
578187.6 4179284 295.83
578183.4 4179285 295.83
578185.8 4179285 295.82
578185.6 4179286 295.825
578186.3 4179286 295.82
578185.8 4179288 295.82
578196.4 4179288 295.83
578196.9 4179288 295.82
578197.5 4179288 295.83
578192.4 4179290 295.82
578174.4 4179290 295.83
578174.6 4179290 295.83
578174.6 4179291 295.8267
578196.6 4179264 295.84
578198.2 4179264 295.84
578193.9 4179264 295.84
578195.7 4179265 295.84
578198.2 4179265 295.84
578177.9 4179265 295.84
578198.2 4179265 295.84
578195.7 4179265 295.84
578196.6 4179265 295.84
578197.5 4179265 295.84
578196.4 4179266 295.84
578197.1 4179266 295.84
578197.3 4179266 295.84
578197.7 4179266 295.84
578196.2 4179266 295.84
578196.1 4179267 295.84
578197.5 4179267 295.84
578195.1 4179268 295.84
578193.7 4179268 295.84
578191.6 4179270 295.84
578189.8 4179271 295.84
578184.2 4179272 295.84
578184.6 4179272 295.84
578185.2 4179272 295.84
578191 4179272 295.84
578191.4 4179272 295.84
578190.8 4179272 295.84
578191 4179274 295.84
578178.9 4179276 295.84
578178.9 4179278 295.84
578178.4 4179280 295.84
578181.8 4179284 295.84
578181.6 4179284 295.84
578185.4 4179285 295.84
578186.5 4179285 295.84
578197.3 4179289 295.84
578175.2 4179290 295.84
578192.1 4179290 295.84
578174.6 4179290 295.84
578196.2 4179264 295.86
578196.4 4179264 295.85
578177.9 4179264 295.85
578196.4 4179264 295.85
578198 4179264 295.85
578188.9 4179264 295.86
578196.4 4179264 295.86
578196.6 4179264 295.85
578196.4 4179264 295.86
578196.6 4179264 295.85
578191.8 4179264 295.86
578193.9 4179265 295.85
578195.5 4179264 295.85
578196.6 4179264 295.85
578198.4 4179264 295.86
578196.6 4179265 295.85
578198 4179265 295.85
578198.2 4179265 295.86
578197.3 4179266 295.86
578197.5 4179266 295.85
578197.7 4179266 295.86
578198 4179266 295.86
578196.2 4179266 295.85
578196.4 4179266 295.86
578197.1 4179266 295.86
578195.7 4179267 295.85
578195.9 4179267 295.86
578197.3 4179267 295.85
578197.7 4179267 295.85
578188.3 4179267 295.85
578194.9 4179268 295.86
578190.5 4179268 295.86
578194.8 4179268 295.85
578195.9 4179268 295.85
578185.2 4179268 295.85
578193 4179269 295.86
578188.5 4179270 295.86
578183.2 4179270 295.85
578184.2 4179272 295.86
578184 4179272 295.85
578190.8 4179272 295.85
578177.7 4179273 295.85
578191 4179274 295.855
578191 4179274 295.85
578190.8 4179274 295.86
578180.1 4179274 295.86
578178.1 4179276 295.86
578176.2 4179276 295.86
578178.6 4179276 295.85
578178.6 4179278 295.85
578177.5 4179280 295.85
578174.8 4179281 295.85
578180.1 4179282 295.86
578179.5 4179283 295.86
578181.6 4179284 295.86
578187.4 4179284 295.85
578178.6 4179285 295.85
578185.2 4179286 295.85
578185.4 4179286 295.86
578186.5 4179286 295.86
578185.8 4179286 295.86
578195.7 4179286 295.85
578191 4179286 295.85
578175 4179288 295.85
578196.8 4179288 295.85
578186.9 4179289 295.86
578182.9 4179290 295.86
578174.4 4179290 295.86
578196.2 4179264 295.87
578196.2 4179264 295.87
578196.2 4179264 295.87
578196.4 4179264 295.87
578196.4 4179265 295.87
578196.4 4179265 295.87
578191.9 4179266 295.87
578198.2 4179266 295.87
578176.2 4179266 295.87
578189.4 4179267 295.87
578191.9 4179267 295.87
578195.5 4179267 295.87
578196.8 4179267 295.87
578194.2 4179268 295.87
578193.2 4179269 295.87
578191.6 4179270 295.87
578190.6 4179270 295.87
578191.8 4179270 295.87
578185.2 4179270 295.87
578191.4 4179270 295.87
578185.2 4179271 295.87
578185.4 4179272 295.87
578179.5 4179272 295.87
578190.8 4179273 295.87
578179.7 4179275 295.87
578177.2 4179276 295.87
578180.2 4179283 295.87
578181.5 4179284 295.87
578177 4179285 295.87
578182.6 4179286 295.87
578183.8 4179288 295.87
578196.9 4179288 295.87
578178.1 4179288 295.87
578174.2 4179290 295.87
578177.5 4179291 295.87
578196.1 4179264 295.88
578189.1 4179264 295.88
578189.2 4179264 295.88
578196.1 4179264 295.88
578176.1 4179265 295.88
578178.6 4179264 295.88
578188.1 4179264 295.88
578191 4179264 295.88
578196.2 4179264 295.88
578185.1 4179266 295.88
578197.3 4179266 295.88
578174.1 4179266 295.88
578180.9 4179266 295.88
578187.2 4179266 295.88
578195.9 4179266 295.88
578193 4179267 295.88
578189.4 4179268 295.88
578194.6 4179268 295.88
578178.4 4179270 295.88
578174.6 4179270 295.88
578181.1 4179271 295.88
578184.4 4179272 295.88
578190.8 4179272 295.88
578176.1 4179275 295.88
578178.4 4179278 295.88
578178.4 4179280 295.88
578180.2 4179282 295.88
578180.1 4179283 295.88
578183.2 4179285 295.88
578186.7 4179285 295.88
578185.1 4179286 295.88
578185.6 4179286 295.88
578190.8 4179286 295.88
578182.4 4179286 295.88
578191.2 4179287 295.88
578190.1 4179288 295.88
578197.1 4179289 295.88
578174.4 4179289 295.88
578174.2 4179290 295.88
578174.6 4179290 295.88
578186 4179290 295.88
578174.8 4179290 295.88
578197.1 4179291 295.88
578189.2 4179264 295.89
578192.8 4179264 295.89
578189.1 4179264 295.89
578189.2 4179264 295.89
578177.9 4179264 295.89
578178.1 4179264 295.89
578196.1 4179264 295.89
578178.4 4179264 295.89
578178.8 4179264 295.89
578196.2 4179265 295.89
578196.2 4179265 295.89
578174.1 4179266 295.89
578196.1 4179266 295.89
578197.5 4179266 295.89
578197.3 4179266 295.89
578197.5 4179266 295.89
578197.7 4179266 295.89
578197.9 4179266 295.89
578192.2 4179267 295.89
578192.8 4179267 295.89
578193 4179267 295.89
578193.2 4179267 295.89
578195.9 4179267 295.89
578192.8 4179267 295.89
578193 4179267 295.89
578194.8 4179268 295.89
578180.9 4179268 295.89
578174.2 4179269 295.89
578192.4 4179270 295.89
578189.6 4179270 295.89
578180.2 4179270 295.89
578186.3 4179271 295.89
578183.8 4179272 295.89
578189.6 4179272 295.89
578190.8 4179272 295.89
578190.8 4179273 295.89
578179.3 4179273 295.89
578179.7 4179273 295.89
578190.8 4179274 295.89
578176.2 4179279 295.89
578177.3 4179280 295.89
578178.9 4179281 295.89
578179.1 4179281 295.89
578180.1 4179282 295.89
578178.4 4179284 295.89
578182 4179284 295.89
578181.6 4179284 295.89
578185.4 4179285 295.89
578186.9 4179285 295.89
578190.6 4179286 295.89
578190.6 4179286 295.89
578190.8 4179286 295.89
578191 4179286 295.89
578191.2 4179288 295.89
578180.9 4179288 295.89
578176.4 4179289 295.89
578187.1 4179288 295.89
578189.2 4179289 295.89
578174.1 4179290 295.89
578174.4 4179290 295.89
578180.8 4179290 295.89
578174.6 4179290 295.89
578174.8 4179290 295.89
578178.2 4179290 295.89
578193.2 4179291 295.89
578196.9 4179291 295.89
578189.1 4179264 295.9
578177 4179264 295.9
578177.2 4179264 295.9
578188.9 4179264 295.9
578189.6 4179264 295.9
578194.4 4179264 295.9
578194.6 4179264 295.9
578194.8 4179264 295.9
578195.7 4179264 295.9
578177.5 4179264 295.9
578177.7 4179264 295.9
578177.9 4179264 295.9
578195.7 4179264 295.9
578177.7 4179264 295.9
578188.9 4179264 295.9
578178.8 4179264 295.9
578193.7 4179264 295.9
578195.9 4179264 295.9
578196.1 4179264 295.9
578193.7 4179265 295.9
578191.8 4179265 295.9
578193 4179266 295.9
578180.9 4179266 295.9
578188.3 4179266 295.9
578195.7 4179267 295.9
578185.1 4179268 295.9
578192.8 4179268 295.9
578182.8 4179268 295.9
578174.2 4179269 295.9
578192.6 4179269 295.9
578174.2 4179270 295.9
578191.4 4179270 295.9
578192.1 4179270 295.9
578179.3 4179270 295.9
578191.4 4179270 295.9
578185.4 4179271 295.9
578174.8 4179272 295.9
578179.5 4179274 295.9
578175.9 4179275 295.9
578176.2 4179278 295.9
578178.2 4179278 295.9
578176.2 4179280 295.9
578179.5 4179282 295.9
578177 4179284 295.9
578182.4 4179284 295.9
578182.6 4179284 295.9
578183.6 4179285 295.9
578186.5 4179285 295.9
578186.7 4179285 295.9
578190.8 4179286 295.9
578191 4179286 295.9
578178.9 4179290 295.9
578183.6 4179290 295.9
578191.2 4179290 295.9
578196.8 4179290 295.9
578176.4 4179290 295.9
578197.9 4179290 295.9
578196.8 4179291 295.9
578177.3 4179264 295.91
578189.6 4179264 295.91
578176.8 4179264 295.91
578177.5 4179264 295.91
578177.7 4179264 295.91
578194.8 4179264 295.91
578195.1 4179264 295.91
578195.3 4179264 295.91
578195.5 4179264 295.91
578195.5 4179264 295.91
578195.7 4179264 295.91
578188.9 4179264 295.91
578189.1 4179264 295.91
578191.8 4179265 295.91
578192.8 4179265 295.91
578195.9 4179264 295.91
578196.1 4179265 295.91
578196.2 4179264 295.91
578191.9 4179265 295.91
578195.5 4179265 295.91
578191.4 4179265 295.91
578174.2 4179266 295.91
578191.4 4179266 295.91
578197.7 4179266 295.91
578198 4179266 295.91
578174.1 4179266 295.91
578184.9 4179266 295.91
578190.1 4179266 295.91
578191.9 4179266 295.91
578192.1 4179266 295.91
578195.9 4179266 295.91
578197.5 4179266 295.91
578187.1 4179266 295.91
578180.9 4179267 295.91
578185.1 4179267 295.91
578192.6 4179267 295.91
578193.4 4179267 295.91
578194.1 4179267 295.91
578193.2 4179267 295.91
578193 4179268 295.91
578194.1 4179268 295.91
578191.4 4179268 295.91
578179.3 4179269 295.91
578176.4 4179270 295.91
578191.8 4179270 295.91
578189.4 4179270 295.91
578191.6 4179270 295.91
578183.1 4179270 295.91
578190.8 4179272 295.91
578183.2 4179272 295.91
578190.6 4179272 295.91
578182.6 4179272 295.91
578176.6 4179274 295.91
578177 4179274 295.91
578179.9 4179274 295.91
578176.6 4179275 295.91
578176.6 4179276 295.91
578177.2 4179277 295.91
578177.3 4179279 295.91
578178.4 4179281 295.91
578177.3 4179282 295.91
578180.6 4179283 295.91
578181.5 4179284 295.91
578182.6 4179284 295.91
578180.6 4179284 295.91
578182 4179284 295.91
578177.9 4179285 295.91
578186.3 4179286 295.91
578190.6 4179286 295.91
578191 4179286 295.91
578190.6 4179286 295.91
578190.8 4179286 295.91
578188.9 4179288 295.91
578196.8 4179288 295.91
578191 4179288 295.91
578192.2 4179289 295.91
578174.6 4179290 295.91
578184 4179290 295.91
578197.1 4179291 295.91
578177.5 4179264 295.92
578189.8 4179264 295.92
578188.7 4179264 295.92
578189.8 4179264 295.92
578194.4 4179264 295.92
578194.6 4179264 295.92
578176.8 4179264 295.92
578176.1 4179264 295.92
578177.2 4179264 295.92
578188.7 4179264 295.92
578175 4179265 295.92
578175.9 4179264 295.92
578178.1 4179264 295.92
578178.9 4179264 295.92
578191.8 4179264 295.92
578191.9 4179264 295.92
578195.7 4179264 295.92
578191.2 4179265 295.92
578191.2 4179265 295.92
578191.9 4179265 295.92
578174.2 4179266 295.92
578174.2 4179266 295.92
578180.6 4179266 295.92
578180.8 4179266 295.92
578184.9 4179266 295.92
578193 4179266 295.92
578193.7 4179266 295.92
578197.7 4179266 295.92
578193.7 4179266 295.92
578195.7 4179266 295.92
578195.1 4179267 295.92
578193.4 4179267 295.92
578192.4 4179268 295.92
578194.6 4179268 295.92
578176.1 4179268 295.92
578192.4 4179268 295.92
578179.9 4179268 295.92
578193.4 4179268 295.92
578176.4 4179269 295.92
578193.2 4179269 295.92
578175.4 4179269 295.92
578182 4179269 295.92
578186.1 4179269 295.92
578192.2 4179270 295.92
578191.4 4179271 295.92
578188.5 4179272 295.92
578190.6 4179272 295.92
578190.6 4179272 295.92
578190.6 4179272 295.92
578190.8 4179274 295.92
578176.6 4179275 295.92
578178.6 4179276 295.92
578176.4 4179279 295.92
578178.4 4179279 295.92
578176.2 4179279 295.92
578176.4 4179280 295.92
578178.2 4179280 295.92
578179.3 4179281 295.92
578180.4 4179283 295.92
578187.8 4179285 295.92
578183.4 4179285 295.92
578186.3 4179285 295.92
578176.1 4179286 295.92
578186.7 4179286 295.92
578185.4 4179286 295.92
578181.8 4179287 295.92
578190.1 4179288 295.92
578190.3 4179288 295.92
578190.1 4179288 295.92
578190.3 4179288 295.92
578196.8 4179288 295.92
578190.1 4179288 295.92
578190.3 4179288 295.92
578174.2 4179290 295.92
578174.4 4179290 295.92
578190.3 4179290 295.92
578196.9 4179291 295.92
578188.7 4179264 295.93
578194.2 4179264 295.93
578176.6 4179264 295.93
578194.8 4179264 295.93
578194.9 4179264 295.93
578176.8 4179264 295.93
578177 4179264 295.93
578195.3 4179264 295.93
578177 4179264 295.93
578188.7 4179264 295.93
578191.2 4179265 295.93
578192.1 4179264 295.93
578194.6 4179265 295.93
578195.5 4179264 295.93
578195.7 4179264 295.93
578192.1 4179265 295.93
578195.9 4179265 295.93
578192.1 4179265 295.93
578174.4 4179266 295.93
578175.4 4179266 295.93
578191.2 4179266 295.93
578184.9 4179266 295.93
578185.1 4179266 295.93
578195.9 4179266 295.93
578181.6 4179266 295.93
578184.7 4179266 295.93
578192.8 4179266 295.93
578193.2 4179266 295.93
578193.7 4179266 295.93
578174.1 4179266 295.93
578185.1 4179266 295.93
578184.9 4179267 295.93
578195.5 4179267 295.93
578175.4 4179267 295.93
578191.4 4179268 295.93
578192.2 4179268 295.93
578192.4 4179268 295.93
578193.5 4179268 295.93
578174.2 4179269 295.93
578191.2 4179269 295.93
578191.4 4179269 295.93
578192.4 4179269 295.93
578174.2 4179270 295.93
578181.1 4179270 295.93
578192.1 4179270 295.93
578177.3 4179270 295.93
578191.6 4179270 295.93
578191.4 4179270 295.93
578176.6 4179270 295.93
578179.1 4179270 295.93
578191.2 4179270 295.93
578185.1 4179271 295.93
578185.6 4179271 295.93
578190.6 4179272 295.93
578183.4 4179272 295.93
578176.6 4179274 295.93
578179.7 4179274 295.93
578176.2 4179275 295.93
578176.4 4179275 295.93
578176.6 4179275 295.93
578176.8 4179275 295.93
578176.2 4179276 295.93
578176.4 4179276 295.93
578178.4 4179278 295.93
578176.2 4179279 295.93
578176.2 4179280 295.93
578176.6 4179280 295.93
578178.2 4179280 295.93
578178.2 4179280 295.93
578177.5 4179281 295.93
578180.1 4179283 295.93
578176.6 4179284 295.93
578181.6 4179284 295.93
578181.5 4179284 295.93
578176.6 4179285 295.93
578183.1 4179285 295.93
578186.9 4179285 295.93
578185.6 4179286 295.93
578191.2 4179286 295.93
578176.2 4179288 295.93
578190.1 4179288 295.93
578190.1 4179289 295.93
578190.5 4179289 295.93
578174.1 4179290 295.93
578179.1 4179291 295.93
578197.3 4179291 295.93
578189.9 4179264 295.94
578194.1 4179264 295.94
578194.4 4179264 295.94
578176.6 4179264 295.94
578191.8 4179264 295.94
578194.9 4179264 295.94
578195.1 4179264 295.94
578177.2 4179264 295.94
578177.9 4179264 295.94
578179.7 4179265 295.94
578189.1 4179264 295.94
578191 4179265 295.94
578195.3 4179264 295.94
578191 4179265 295.94
578192.2 4179265 295.94
578195.9 4179265 295.94
578175 4179265 295.94
578191 4179265 295.94
578174.4 4179266 295.94
578184.9 4179266 295.94
578185.1 4179266 295.94
578192.1 4179266 295.94
578174.2 4179266 295.94
578193.5 4179266 295.94
578174.2 4179266 295.94
578177 4179266 295.94
578180.9 4179266 295.94
578193 4179266 295.94
578193.9 4179266 295.94
578174.4 4179266 295.94
578193.9 4179266 295.94
578175.4 4179267 295.94
578181.1 4179267 295.94
578184.7 4179267 295.94
578185.1 4179267 295.94
578193.2 4179267 295.94
578193.5 4179267 295.94
578177 4179268 295.94
578190.1 4179268 295.94
578192.2 4179268 295.94
578188.3 4179268 295.94
578192.6 4179268 295.94
578194.1 4179268 295.94
578192.1 4179268 295.94
578192.2 4179268 295.94
578183.1 4179269 295.94
578192.2 4179269 295.94
578183.2 4179270 295.94
578191.4 4179270 295.94
578187.6 4179270 295.94
578185.2 4179271 295.94
578175.8 4179271 295.94
578187.4 4179271 295.94
578187.8 4179272 295.94
578181.1 4179272 295.94
578179.3 4179272 295.94
578175.9 4179272 295.94
578181.3 4179272 295.94
578189.9 4179273 295.94
578190.6 4179273 295.94
578190.8 4179274 295.94
578190.1 4179274 295.94
578176.6 4179274 295.94
578176.8 4179275 295.94
578176.2 4179276 295.94
578176.8 4179276 295.94
578177.2 4179277 295.94
578176.2 4179279 295.94
578176.6 4179279 295.94
578176.6 4179280 295.94
578178.4 4179280 295.94
578179.9 4179282 295.94
578180.6 4179284 295.94
578176.8 4179284 295.94
578176.8 4179285 295.94
578176.4 4179285 295.94
578176.6 4179285 295.94
578187.4 4179285 295.94
578191 4179286 295.94
578191.2 4179286 295.94
578191.2 4179286 295.94
578190.8 4179287 295.94
578190.1 4179288 295.94
578190.3 4179288 295.94
578181.6 4179288 295.94
578189.9 4179288 295.94
578190.1 4179289 295.94
578190.3 4179289 295.94
578174.8 4179290 295.94
578180.1 4179291 295.94
578196.8 4179291 295.94
578177.7 4179264 295.95
578176.1 4179264 295.95
578177.9 4179264 295.95
578189.8 4179264 295.95
578189.9 4179264 295.95
578193.9 4179264 295.95
578194.2 4179264 295.95
578189.8 4179264 295.95
578191.9 4179264 295.95
578192.1 4179264 295.95
578194.8 4179264 295.95
578177 4179264 295.95
578177.7 4179264 295.95
578188.9 4179265 295.95
578189.2 4179264 295.95
578191.2 4179264 295.95
578191.9 4179264 295.95
578195.1 4179264 295.95
578195.3 4179264 295.95
578195.5 4179265 295.95
578196.4 4179264 295.95
578178.8 4179265 295.95
578178.9 4179265 295.95
578195.7 4179265 295.95
578196.6 4179265 295.95
578183.8 4179266 295.95
578191.4 4179266 295.95
578191.9 4179266 295.95
578192.1 4179266 295.95
578193.9 4179266 295.95
578195.9 4179266 295.95
578193.2 4179266 295.95
578193.7 4179266 295.95
578174.4 4179266 295.95
578185.2 4179266 295.95
578184.9 4179267 295.95
578192.2 4179267 295.95
578193.7 4179267 295.95
578194.8 4179267 295.95
578194.9 4179267 295.95
578176.2 4179267 295.95
578192.2 4179267 295.95
578192.1 4179268 295.95
578188.5 4179268 295.95
578192.2 4179268 295.95
578192.4 4179268 295.95
578193.2 4179268 295.95
578177.2 4179269 295.95
578191.6 4179269 295.95
578193 4179269 295.95
578178.9 4179269 295.95
578180.1 4179269 295.95
578191.4 4179269 295.95
578191.6 4179269 295.95
578193.2 4179269 295.95
578191.4 4179270 295.95
578191.6 4179270 295.95
578179.3 4179270 295.95
578184.2 4179270 295.95
578178.4 4179270 295.95
578188.7 4179270 295.95
578188.9 4179270 295.95
578191.2 4179270 295.95
578174.6 4179272 295.95
578183.1 4179272 295.95
578182.4 4179272 295.95
578190.8 4179274 295.95
578178.6 4179274 295.95
578177 4179274 295.95
578176.8 4179275 295.95
578176.2 4179276 295.95
578176.8 4179276 295.95
578178.2 4179278 295.95
578175.2 4179278 295.95
578178.2 4179280 295.95
578178.2 4179280 295.95
578179.1 4179282 295.95
578175.8 4179283 295.95
578182.2 4179284 295.95
578176.6 4179284 295.95
578175.8 4179285 295.95
578187.9 4179285 295.95
578176.8 4179285 295.95
578184.7 4179286 295.95
578186.5 4179286 295.95
578186.9 4179286 295.95
578187.8 4179286 295.95
578189.9 4179288 295.95
578189.9 4179289 295.95
578190.8 4179289 295.95
578196.9 4179289 295.95
578190.3 4179289 295.95
578190.5 4179289 295.95
578178.2 4179290 295.95
578181.8 4179290 295.95
578178.9 4179290 295.95
578179.1 4179290 295.95
578179.1 4179290 295.95
578175.2 4179291 295.95
578196.9 4179291 295.95
578193.5 4179264 295.96
578176.2 4179264 295.96
578193.7 4179264 295.96
578176.2 4179264 295.96
578178.6 4179264 295.96
578191.6 4179264 295.96
578191.8 4179264 295.96
578191.9 4179264 295.96
578193.9 4179264 295.96
578191.2 4179264 295.96
578194.6 4179264 295.96
578176.2 4179264 295.96
578177.7 4179264 295.96
578178.8 4179265 295.96
578179.1 4179264 295.96
578189.1 4179265 295.96
578190.1 4179265 295.96
578191 4179264 295.96
578175.2 4179265 295.96
578188.3 4179265 295.96
578188.9 4179265 295.96
578190.8 4179265 295.96
578195.7 4179265 295.96
578188.3 4179265 295.96
578184.9 4179266 295.96
578187.9 4179266 295.96
578188.1 4179266 295.96
578188.3 4179266 295.96
578191 4179266 295.96
578191.2 4179266 295.96
578192.2 4179266 295.96
578193.7 4179266 295.96
578187.9 4179266 295.96
578191.8 4179266 295.96
578191.9 4179266 295.96
578192.1 4179266 295.96
578193 4179266 295.96
578193.9 4179266 295.96
578188.1 4179266 295.96
578192.4 4179266 295.96
578195.7 4179266 295.96
578195.5 4179266 295.96
578176.1 4179267 295.96
578176.2 4179267 295.96
578184.7 4179267 295.96
578192.2 4179267 295.96
578176.1 4179267 295.96
578194.6 4179267 295.96
578176.2 4179268 295.96
578176.4 4179268 295.96
578193.9 4179268 295.96
578192.1 4179268 295.96
578178.2 4179268 295.96
578193.4 4179268 295.96
578192.2 4179268 295.96
578191.4 4179269 295.96
578191.2 4179269 295.96
578191.4 4179269 295.96
578192.1 4179269 295.96
578192.2 4179269 295.96
578188.3 4179270 295.96
578191.2 4179270 295.96
578188.3 4179270 295.96
578188.5 4179270 295.96
578188.7 4179270 295.96
578191.2 4179270 295.96
578176.2 4179270 295.96
578191.2 4179270 295.96
578188.3 4179270 295.96
578188.5 4179270 295.96
578189.1 4179270 295.96
578183.2 4179271 295.96
578185.4 4179271 295.96
578190.6 4179272 295.96
578190.5 4179272 295.96
578177.7 4179272 295.96
578175.9 4179273 295.96
578181.6 4179273 295.96
578190.8 4179273 295.96
578190.6 4179274 295.96
578176.2 4179274 295.96
578176.8 4179274 295.96
578176.1 4179275 295.96
578176.8 4179275 295.96
578175.9 4179276 295.96
578177 4179276 295.96
578176.2 4179276 295.96
578175.2 4179277 295.96
578176.1 4179279 295.96
578174.6 4179280 295.96
578175.6 4179279 295.96
578176.1 4179280 295.96
578176.2 4179280 295.96
578178.9 4179282 295.96
578189.6 4179284 295.96
578175.9 4179284 295.96
578178.6 4179284 295.96
578181.3 4179284 295.96
578176.1 4179284 295.96
578177 4179284 295.96
578178.8 4179284 295.96
578177 4179285 295.96
578182.4 4179285 295.96
578176.2 4179285 295.96
578178.8 4179285 295.96
578179.7 4179285 295.96
578179.9 4179286 295.96
578175.2 4179286 295.96
578180.8 4179286 295.96
578184.7 4179286 295.96
578191 4179287 295.96
578190.8 4179287 295.96
578178.9 4179288 295.96
578189.9 4179288 295.96
578182.6 4179288 295.96
578175.4 4179288 295.96
578180.8 4179289 295.96
578183.8 4179289 295.96
578190.1 4179289 295.96
578191 4179289 295.96
578197.1 4179289 295.96
578174.4 4179290 295.96
578174.6 4179290 295.96
578185.1 4179290 295.96
578189.1 4179290 295.96
578189.2 4179290 295.96
578178.6 4179290 295.96
578178.9 4179290 295.96
578179.3 4179290 295.96
578196.8 4179290 295.96
578175.2 4179291 295.96
578177.2 4179291 295.96
578188.9 4179264 295.97
578176.1 4179264 295.97
578190.1 4179264 295.97
578176.1 4179264 295.97
578193.7 4179264 295.97
578194.6 4179264 295.97
578189.9 4179264 295.97
578190.1 4179264 295.97
578194.2 4179264 295.97
578176.1 4179264 295.97
578176.2 4179264 295.97
578176.8 4179264 295.97
578177.5 4179264 295.97
578177.9 4179264 295.97
578178.1 4179265 295.97
578188.3 4179264 295.97
578189.2 4179265 295.97
578190.8 4179264 295.97
578192.6 4179264 295.97
578195.3 4179265 295.97
578177 4179265 295.97
578188.1 4179265 295.97
578195.5 4179265 295.97
578174.2 4179265 295.97
578188.1 4179265 295.97
578187.9 4179266 295.97
578192.8 4179266 295.97
578176.2 4179266 295.97
578180.6 4179266 295.97
578191.4 4179266 295.97
578195.7 4179266 295.97
578174.4 4179266 295.97
578181.1 4179266 295.97
578187.9 4179266 295.97
578188.3 4179266 295.97
578192.2 4179266 295.97
578194.1 4179266 295.97
578174.2 4179266 295.97
578184.9 4179266 295.97
578192.2 4179266 295.97
578194.1 4179266 295.97
578176.1 4179267 295.97
578176.2 4179267 295.97
578176.4 4179267 295.97
578193.9 4179267 295.97
578176.1 4179268 295.97
578194.2 4179268 295.97
578186.3 4179268 295.97
578191.9 4179268 295.97
578193 4179268 295.97
578193.2 4179268 295.97
578193.7 4179268 295.97
578193.9 4179268 295.97
578191.6 4179268 295.97
578192.8 4179268 295.97
578193 4179268 295.97
578193.2 4179268 295.97
578192.4 4179268 295.97
578187.4 4179269 295.97
578190.5 4179269 295.97
578192.2 4179269 295.97
578192.4 4179269 295.97
578187.4 4179269 295.97
578192.2 4179269 295.97
578179.1 4179270 295.97
578179.5 4179270 295.97
578188.1 4179270 295.97
578188.5 4179270 295.97
578187.6 4179270 295.97
578188.7 4179270 295.97
578189.2 4179270 295.97
578177.5 4179271 295.97
578174.6 4179272 295.97
578176.4 4179271 295.97
578187.1 4179272 295.97
578190.8 4179271 295.97
578176.8 4179273 295.97
578179.1 4179273 295.97
578179.3 4179272 295.97
578179.5 4179272 295.97
578189.9 4179274 295.97
578176.6 4179274 295.97
578176.8 4179274 295.97
578176.8 4179274 295.97
578179.7 4179274 295.97
578176.1 4179275 295.97
578177 4179275 295.97
578176.2 4179276 295.97
578176.2 4179278 295.97
578176.4 4179278 295.97
578176.2 4179280 295.97
578179.3 4179282 295.97
578175.9 4179282 295.97
578176.8 4179284 295.97
578177.7 4179284 295.97
578178.9 4179284 295.97
578186.7 4179285 295.97
578176.1 4179285 295.97
578176.2 4179285 295.97
578187.6 4179285 295.97
578177.7 4179286 295.97
578184.6 4179286 295.97
578186.9 4179286 295.97
578190.8 4179286 295.97
578191.2 4179286 295.97
578190.1 4179286 295.97
578185.8 4179286 295.97
578182.2 4179287 295.97
578190.1 4179287 295.97
578190.1 4179287 295.97
578182.4 4179287 295.97
578186.7 4179288 295.97
578181.8 4179288 295.97
578189.8 4179288 295.97
578190.8 4179289 295.97
578175.6 4179289 295.97
578174.2 4179290 295.97
578188.1 4179290 295.97
578188.3 4179290 295.97
578188.9 4179290 295.97
578189.1 4179290 295.97
578189.2 4179290 295.97
578189.4 4179290 295.97
578189.8 4179290 295.97
578189.9 4179290 295.97
578190.1 4179290 295.97
578191 4179290 295.97
578191.2 4179290 295.97
578178.6 4179290 295.97
578178.9 4179290 295.97
578179.3 4179290 295.97
578178.8 4179290 295.97
578179.5 4179290 295.97
578176.6 4179291 295.97
578177.3 4179291 295.97
578179.3 4179291 295.97
578193.4 4179291 295.97
578197.1 4179291 295.97
578177.9 4179264 295.98
578193.5 4179264 295.98
578175 4179264 295.98
578177 4179264 295.98
578192.4 4179264 295.98
578193.5 4179264 295.98
578175.9 4179264 295.98
578191 4179264 295.98
578194.1 4179264 295.98
578175.9 4179264 295.98
578190.8 4179264 295.98
578192.8 4179264 295.98
578194.4 4179264 295.98
578194.6 4179264 295.98
578175.9 4179265 295.98
578192.6 4179265 295.98
578195.3 4179265 295.98
578187.9 4179265 295.98
578184.7 4179266 295.98
578184.9 4179266 295.98
578185.1 4179266 295.98
578187.8 4179266 295.98
578187.9 4179266 295.98
578188.7 4179266 295.98
578191 4179266 295.98
578192.6 4179266 295.98
578192.8 4179266 295.98
578195.7 4179266 295.98
578180.8 4179266 295.98
578191.2 4179266 295.98
578194.1 4179266 295.98
578197.3 4179266 295.98
578174.6 4179266 295.98
578188.3 4179266 295.98
578188.5 4179266 295.98
578192.1 4179266 295.98
578193.2 4179266 295.98
578185.4 4179266 295.98
578187.9 4179266 295.98
578188.1 4179266 295.98
578175.9 4179267 295.98
578176.2 4179267 295.98
578176.4 4179267 295.98
578185.1 4179267 295.98
578192.1 4179267 295.98
578194.1 4179267 295.98
578175.9 4179267 295.98
578193.9 4179267 295.98
578194.1 4179268 295.98
578191.9 4179268 295.98
578193.2 4179268 295.98
578193.4 4179268 295.98
578193.7 4179268 295.98
578194.1 4179268 295.98
578193 4179268 295.98
578193.2 4179268 295.98
578192.6 4179268 295.98
578174.4 4179269 295.98
578179.9 4179269 295.98
578185.8 4179269 295.98
578186.1 4179269 295.98
578188.3 4179269 295.98
578191.2 4179269 295.98
578179.3 4179270 295.98
578186.5 4179270 295.98
578188.9 4179270 295.98
578188.3 4179270 295.98
578187.4 4179271 295.98
578185.6 4179271 295.98
578179.3 4179272 295.98
578179.5 4179272 295.98
578179.5 4179273 295.98
578179.7 4179272 295.98
578190.5 4179272 295.98
578178.8 4179273 295.98
578178.9 4179273 295.98
578179.3 4179273 295.98
578181.6 4179273 295.98
578176.6 4179274 295.98
578176.8 4179274 295.98
578176.8 4179274 295.98
578180.8 4179274 295.98
578176.1 4179274 295.98
578177 4179275 295.98
578176.8 4179275 295.98
578177 4179275 295.98
578176.1 4179276 295.98
578176.1 4179276 295.98
578177 4179276 295.98
578175.9 4179276 295.98
578176.4 4179276 295.98
578176.6 4179276 295.98
578176.2 4179277 295.98
578178.2 4179278 295.98
578177.2 4179280 295.98
578177.3 4179280 295.98
578176.4 4179280 295.98
578176.6 4179280 295.98
578179.1 4179280 295.98
578178.6 4179281 295.98
578177.7 4179282 295.98
578178.6 4179284 295.98
578178.8 4179284 295.98
578181.5 4179284 295.98
578188.5 4179284 295.98
578182.2 4179285 295.98
578182.6 4179285 295.98
578187.6 4179285 295.98
578176.8 4179285 295.98
578182.9 4179285 295.98
578189.8 4179285 295.98
578190.1 4179286 295.98
578190.6 4179286 295.98
578190.8 4179286 295.98
578185.4 4179286 295.98
578190.1 4179286 295.98
578182.6 4179287 295.98
578189.9 4179287 295.98
578181.8 4179287 295.98
578189.8 4179288 295.98
578190.1 4179288 295.98
578189.9 4179288 295.98
578191 4179289 295.98
578183.8 4179289 295.98
578184 4179289 295.98
578187.9 4179289 295.98
578188.1 4179289 295.98
578191.2 4179289 295.98
578183.8 4179290 295.98
578184 4179290 295.98
578191.2 4179290 295.98
578178.4 4179290 295.98
578179.1 4179290 295.98
578178.4 4179290 295.98
578175.4 4179291 295.98
578177.2 4179291 295.98
578177.3 4179291 295.98
578179.5 4179291 295.98
578183.8 4179291 295.98
578193 4179291 295.98
578193.2 4179291 295.98
578197.7 4179291 295.98
578175.9 4179264 295.99
578176.8 4179264 295.99
578178.4 4179264 295.99
578191.2 4179264 295.99
578192.6 4179264 295.99
578174.8 4179264 295.99
578175.8 4179264 295.99
578193.5 4179264 295.99
578193.7 4179264 295.99
578175.8 4179264 295.99
578176.6 4179265 295.99
578182.8 4179265 295.99
578188.1 4179265 295.99
578189.9 4179264 295.99
578190.6 4179264 295.99
578193 4179264 295.99
578194.1 4179264 295.99
578194.6 4179264 295.99
578194.9 4179265 295.99
578175.8 4179265 295.99
578175.9 4179265 295.99
578176.1 4179265 295.99
578192.8 4179265 295.99
578186.9 4179265 295.99
578175 4179266 295.99
578190.8 4179266 295.99
578192.8 4179266 295.99
578193 4179266 295.99
578193.2 4179266 295.99
578193.9 4179266 295.99
578194.1 4179266 295.99
578187.4 4179266 295.99
578191 4179266 295.99
578188.1 4179266 295.99
578191.9 4179266 295.99
578189.2 4179266 295.99
578192.1 4179266 295.99
578175.9 4179267 295.99
578176.1 4179267 295.99
578187.9 4179267 295.99
578188.1 4179267 295.99
578188.3 4179267 295.99
578189.1 4179267 295.99
578189.2 4179267 295.99
578192.1 4179267 295.99
578194.6 4179267 295.99
578180.8 4179267 295.99
578189.1 4179267 295.99
578189.2 4179267 295.99
578189.4 4179267 295.99
578194.1 4179267 295.99
578194.2 4179267 295.99
578177.2 4179268 295.99
578181.8 4179268 295.99
578189.1 4179268 295.99
578175.9 4179268 295.99
578176.1 4179268 295.99
578183.1 4179268 295.99
578191.4 4179268 295.99
578191.2 4179269 295.99
578174.4 4179269 295.99
578179.1 4179269 295.99
578179.3 4179269 295.99
578179.9 4179269 295.99
578185.6 4179269 295.99
578186.3 4179269 295.99
578187.9 4179269 295.99
578188.1 4179269 295.99
578188.3 4179269 295.99
578188.5 4179269 295.99
578176.4 4179270 295.99
578179.9 4179270 295.99
578176.6 4179270 295.99
578179.5 4179270 295.99
578188.3 4179270 295.99
578176.4 4179270 295.99
578189.4 4179270 295.99
578190.3 4179270 295.99
578179.1 4179271 295.99
578182.2 4179271 295.99
578185.1 4179271 295.99
578188.7 4179271 295.99
578184.6 4179271 295.99
578190.8 4179271 295.99
578190.5 4179272 295.99
578187.4 4179272 295.99
578177.7 4179272 295.99
578179.1 4179272 295.99
578178.8 4179273 295.99
578178.6 4179273 295.99
578178.6 4179273 295.99
578178.8 4179273 295.99
578176.8 4179274 295.99
578177 4179274 295.99
578180.6 4179274 295.99
578190.1 4179274 295.99
578190.6 4179274 295.99
578177 4179274 295.99
578176.1 4179274 295.99
578177 4179274 295.99
578177 4179275 295.99
578178.9 4179276 295.99
578176.1 4179276 295.99
578176.8 4179276 295.99
578178.6 4179276 295.99
578176.4 4179277 295.99
578178.2 4179277 295.99
578178.9 4179279 295.99
578176.1 4179280 295.99
578176.1 4179284 295.99
578176.8 4179284 295.99
578178.4 4179284 295.99
578188.9 4179284 295.99
578178.4 4179284 295.99
578178.6 4179284 295.99
578180.4 4179284 295.99
578182 4179285 295.99
578174.8 4179285 295.99
578176.1 4179285 295.99
578177 4179285 295.99
578176.6 4179286 295.99
578187.8 4179286 295.99
578182.6 4179286 295.99
578185.6 4179286 295.99
578186.5 4179286 295.99
578182.6 4179287 295.99
578182.8 4179287 295.99
578189.9 4179287 295.99
578190.8 4179287 295.99
578182.6 4179288 295.99
578175.4 4179289 295.99
578187.2 4179289 295.99
578191.2 4179289 295.99
578196.9 4179288 295.99
578189.4 4179289 295.99
578196.9 4179289 295.99
578174.2 4179289 295.99
578174.4 4179289 295.99
578174.6 4179289 295.99
578191.4 4179290 295.99
578197.1 4179290 295.99
578175.2 4179290 295.99
578178.2 4179290 295.99
578178.4 4179290 295.99
578178.9 4179290 295.99
578179.3 4179290 295.99
578189.9 4179290 295.99
578193.2 4179290 295.99
578196.9 4179290 295.99
578175.4 4179291 295.99
578176.4 4179291 295.99
578189.9 4179264 296
578175.8 4179264 296
578190.6 4179264 296
578190.8 4179264 296
578191 4179264 296
578192.4 4179264 296
578192.6 4179264 296
578193 4179264 296
578197.1 4179264 296
578190.6 4179264 296
578190.8 4179264 296
578192.8 4179264 296
578193 4179264 296
578176.8 4179265 296
578177.9 4179265 296
578188.1 4179264 296
578190.1 4179264 296
578193.9 4179264 296
578194.2 4179264 296
578194.4 4179264 296
578194.8 4179265 296
578174.4 4179265 296
578175.4 4179265 296
578176.1 4179265 296
578176.2 4179265 296
578177.7 4179265 296
578189.2 4179265 296
578193 4179265 296
578193.2 4179265 296
578175.2 4179265 296
578175.4 4179265 296
578175.6 4179265 296
578185.1 4179265 296
578187.1 4179265 296
578187.8 4179265 296
578175.2 4179266 296
578175.4 4179266 296
578180.6 4179266 296
578184.7 4179266 296
578188.9 4179266 296
578189.1 4179266 296
578190.8 4179266 296
578193 4179266 296
578193.2 4179266 296
578193.7 4179266 296
578193.9 4179266 296
578194.1 4179266 296
578189.2 4179266 296
578194.2 4179266 296
578176.1 4179266 296
578176.2 4179266 296
578187.2 4179266 296
578191.8 4179266 296
578194.2 4179266 296
578195.5 4179266 296
578191.9 4179266 296
578185.2 4179267 296
578187.6 4179267 296
578188.3 4179267 296
578188.5 4179267 296
578188.9 4179267 296
578189.1 4179267 296
578189.2 4179267 296
578189.4 4179267 296
578191.2 4179267 296
578194.2 4179267 296
578194.4 4179267 296
578180.6 4179267 296
578184.9 4179267 296
578185.1 4179267 296
578189.2 4179268 296
578189.4 4179268 296
578192.1 4179268 296
578174.4 4179268 296
578175.9 4179268 296
578176.1 4179268 296
578176.2 4179268 296
578176.4 4179268 296
578176.6 4179268 296
578176.2 4179268 296
578188.3 4179268 296
578174.4 4179269 296
578174.6 4179269 296
578179.1 4179269 296
578179.3 4179269 296
578180.1 4179269 296
578184 4179269 296
578185.4 4179269 296
578187.6 4179269 296
578188.5 4179269 296
578191 4179269 296
578174.4 4179270 296
578176.4 4179270 296
578176.6 4179270 296
578179.1 4179270 296
578180.1 4179270 296
578183.2 4179270 296
578187.2 4179270 296
578187.6 4179270 296
578176.2 4179270 296
578176.6 4179270 296
578179.1 4179270 296
578179.3 4179270 296
578182.2 4179270 296
578176.2 4179270 296
578176.6 4179270 296
578179.5 4179270 296
578188.1 4179270 296
578188.3 4179270 296
578189.4 4179270 296
578185.2 4179271 296
578189.4 4179271 296
578191.6 4179271 296
578177.5 4179272 296
578186 4179271 296
578178.6 4179273 296
578179.7 4179273 296
578182.2 4179272 296
578189.6 4179273 296
578190.5 4179273 296
578178.4 4179273 296
578179.5 4179273 296
578178.4 4179273 296
578189.8 4179273 296
578176.6 4179274 296
578177.2 4179274 296
578176.1 4179274 296
578177 4179276 296
578176.1 4179276 296
578177.9 4179276 296
578176.1 4179277 296
578176.2 4179277 296
578176.1 4179278 296
578176.2 4179278 296
578177.2 4179278 296
578178.2 4179279 296
578176.1 4179280 296
578176.8 4179280 296
578176.6 4179282 296
578180.6 4179284 296
578181.1 4179284 296
578175.9 4179284 296
578177.5 4179285 296
578177.7 4179285 296
578175.9 4179285 296
578177.2 4179285 296
578187.8 4179285 296
578176.8 4179286 296
578186.5 4179286 296
578189.9 4179286 296
578188.9 4179286 296
578189.9 4179286 296
578176.1 4179286 296
578186.5 4179286 296
578182.2 4179286 296
578182.4 4179286 296
578188.9 4179286 296
578189.9 4179286 296
578181.8 4179287 296
578189.9 4179287 296
578181.6 4179287 296
578191 4179287 296
578181.6 4179287 296
578176.2 4179288 296
578186.9 4179288 296
578187.1 4179288 296
578190.8 4179288 296
578196.6 4179288 296
578180.9 4179289 296
578187.1 4179289 296
578196.8 4179288 296
578188.1 4179289 296
578189.2 4179289 296
578191.2 4179289 296
578174.1 4179289 296
578183.6 4179289 296
578184.4 4179289 296
578183.6 4179290 296
578183.8 4179290 296
578184 4179290 296
578190.3 4179290 296
578190.5 4179290 296
578190.6 4179290 296
578191.4 4179290 296
578191.6 4179290 296
578178.1 4179290 296
578189.9 4179290 296
578190.1 4179290 296
578178.1 4179290 296
578185.1 4179290 296
578175.6 4179290 296
578177.3 4179290 296
578177.5 4179290 296
578197.1 4179290 296
578192.4 4179291 296
578193 4179291 296
578193.4 4179291 296
578197.5 4179291 296
578197.9 4179291 296
578178.1 4179264 296.02
578188.4 4179264 296.0167
578191 4179264 296.01
578191.2 4179264 296.01
578191.9 4179264 296.01
578192.1 4179264 296.01
578192.8 4179264 296.01
578175.9 4179264 296.02
578178.9 4179264 296.02
578183.2 4179264 296.02
578183.4 4179264 296.01
578192.6 4179264 296.02
578197.1 4179264 296.02
578175.2 4179265 296.02
578175.4 4179265 296.01
578177 4179265 296.01
578177.5 4179265 296.02
578177.7 4179265 296.01
578187.9 4179265 296.02
578189.8 4179265 296.02
578189.9 4179264 296.01
578190.1 4179264 296.02
578193.5 4179264 296.01
578193.7 4179264 296.01
578193.9 4179264 296.01
578194.1 4179264 296.01
578174.8 4179265 296.015
578175 4179265 296.015
