# .PCD v.7 - Point Cloud Data file format
VERSION .7
FIELDS x y z
SIZE 4 4 4
TYPE F F F
COUNT 1 1 1
WIDTH 78
HEIGHT 1
VIEWPOINT 0 0 0 1 0 0 0
POINTS 78
DATA ascii
578186.5 4179280 303.05
578186.1 4179280 303.04
578184.4 4179280 303.08
578185.6 4179278 303.09
578184 4179278 303.09
578184.2 4179278 303.1
578186.5 4179279 303.1
578184.2 4179280 303.11
578184 4179278 303.12
578186.1 4179278 303.12
578186.5 4179279 303.12
578184 4179279 303.12
578184.6 4179280 303.12
578185.6 4179280 303.13
578186.1 4179279 303.14
578185.2 4179280 303.14
578185.4 4179280 303.14
578184 4179279 303.15
578185.1 4179280 303.15
578184 4179278 303.16
578186.3 4179278 303.16
578186.5 4179280 303.16
578185.2 4179278 303.17
578184 4179279 303.17
578184.9 4179278 303.18
578185.1 4179278 303.19
578184.2 4179278 303.19
578184.4 4179280 303.19
578185.4 4179280 303.19
578186.3 4179279 303.21
578186.3 4179279 303.23
578184.6 4179280 303.24
578186.3 4179279 303.25
578184.2 4179279 303.27
578184.2 4179278 303.28
578184.9 4179278 303.3
578185.1 4179278 303.3
578184.2 4179279 303.29
578185.1 4179280 303.3
578185.1 4179280 303.3
578185.2 4179280 303.3
578184.6 4179278 303.33
578186.1 4179279 303.32
578184.2 4179279 303.33
578186.1 4179279 303.33
578184.4 4179279 303.34
578186.1 4179279 303.36
578186.5 4179279 303.36
578184.4 4179279 303.38
578184.9 4179278 303.39
578185.1 4179278 303.39
578184.4 4179278 303.39
578184.4 4179279 303.4
578185.4 4179278 303.42
578186 4179279 303.42
578184.4 4179280 303.42
578185.4 4179280 303.42
578185.2 4179280 303.43
578185.2 4179278 303.46
578185.1 4179279 303.48
578185.4 4179278 303.5
578185.8 4179279 303.5
578184.9 4179279 303.51
578185.1 4179279 303.52
578184.7 4179278 303.53
578185.2 4179278 303.53
578185.1 4179278 303.54
578184.9 4179279 303.56
578184.9 4179278 303.57
578185.6 4179279 303.57
578185.1 4179278 303.59
578185.1 4179279 303.59
578185.2 4179278 303.61
578185.4 4179279 303.6
578185.1 4179278 303.62
578185.2 4179279 303.62
578185.2 4179278 303.78
578185.2 4179279 303.91
