# .PCD v.7 - Point Cloud Data file format
VERSION .7
FIELDS x y z
SIZE 4 4 4
TYPE F F F
COUNT 1 1 1
WIDTH 1406
HEIGHT 1
VIEWPOINT 0 0 0 1 0 0 0
POINTS 1406
DATA ascii
577606.1599 4180943.9000 296.33 
577606.6799 4180944.3199 296.70 
577607.5801 4180944.0200 296.63 
577608.0901 4180944.1800 296.69 
577608.9900 4180944.0699 296.48 
577609.4900 4180944.1500 296.56 
577610.3701 4180944.1700 296.48 
577610.8999 4180943.9900 296.63 
577611.7400 4180944.1500 296.47 
577613.1101 4180944.1700 296.53 
577613.6201 4180944.2500 296.50 
577614.4600 4180944.1800 296.31 
577614.9900 4180944.1000 296.27 
577615.8501 4180944.2700 296.54 
577616.3899 4180944.0000 296.60 
577617.2200 4180944.3300 296.58 
577617.7700 4180943.8600 296.48 
577618.6101 4180943.9300 296.23 
577619.1499 4180943.9000 296.31 
577619.9900 4180944.0200 296.49 
577620.5200 4180943.8199 296.34 
577621.3401 4180944.2200 296.36 
577621.8801 4180943.8300 296.22 
577622.7100 4180944.2300 296.35 
577591.7800 4180944.6899 295.98 
577592.5901 4180944.6700 296.33 
577593.0801 4180944.6100 296.37 
577593.8801 4180944.7300 296.28 
577594.3899 4180944.4000 296.20 
577595.1799 4180944.6600 296.16 
577595.6999 4180944.5300 296.26 
577596.5100 4180944.9000 296.42 
577597.0200 4180944.7100 296.38 
577597.8601 4180944.5601 296.26 
577598.3501 4180944.6600 296.01 
577599.2200 4180944.6700 296.40 
577599.7300 4180944.7800 296.65 
577600.0801 4180944.8101 302.92 
577600.5801 4180944.7500 296.51 
577601.0901 4180944.7100 296.68 
577601.9399 4180944.8300 296.43 
577602.4499 4180944.6400 296.79 
577603.3301 4180944.5601 296.69 
577603.8401 4180944.7100 296.74 
577604.6899 4180944.7400 296.52 
577605.2400 4180944.7300 296.68 
577606.1201 4180944.4900 296.53 
577606.6101 4180944.8800 296.45 
577607.5400 4180944.6200 296.81 
577608.0500 4180944.7800 296.90 
577608.9299 4180944.6300 296.39 
577609.4399 4180944.7200 296.47 
577610.3100 4180944.7400 296.38 
577610.8401 4180944.5699 296.58 
577611.6799 4180944.7200 296.36 
577612.2100 4180944.3600 296.39 
577613.0600 4180944.7500 296.58 
577613.5600 4180944.8101 296.46 
577614.4099 4180944.7600 296.37 
577614.9499 4180944.6999 296.50 
577615.8000 4180944.8400 296.51 
577616.3301 4180944.5400 296.35 
577617.1599 4180944.8900 296.47 
577617.7200 4180944.4499 296.54 
577618.5600 4180944.5200 296.41 
577619.1001 4180944.4800 296.32 
577619.9299 4180944.5800 296.39 
577620.4800 4180944.4100 296.50 
577621.3000 4180944.8101 296.51 
577621.8301 4180944.4300 296.45 
577622.6499 4180944.8000 296.23 
577591.2700 4180945.1700 296.24 
577591.7400 4180945.2800 296.22 
577592.5400 4180945.2400 296.24 
577593.0200 4180945.1899 296.20 
577593.8201 4180945.3000 296.25 
577594.3401 4180944.9700 296.23 
577595.1301 4180945.2200 296.08 
577595.6499 4180945.1100 296.35 
577596.4600 4180945.4800 296.42 
577596.9700 4180945.2800 296.38 
577597.8100 4180945.1200 296.31 
577598.3301 4180945.2900 296.66 
577600.5300 4180945.3400 296.54 
577601.0300 4180945.2800 296.49 
577601.8801 4180945.4000 296.34 
577602.3801 4180945.1700 296.41 
577603.2700 4180945.1300 296.71 
577603.7700 4180945.2500 296.44 
577604.6201 4180945.3000 296.29 
577605.1999 4180945.3400 297.02 
577606.0701 4180945.0601 296.52 
577606.5600 4180945.4399 296.40 
577607.4700 4180945.1500 296.40 
577608.0000 4180945.3700 296.97 
577608.8801 4180945.2100 296.47 
577609.3899 4180945.3199 296.59 
577610.2600 4180945.3300 296.49 
577610.7800 4180945.1200 296.45 
577611.6399 4180945.3199 296.61 
577612.1599 4180944.9300 296.39 
577613.0000 4180945.3300 296.54 
577613.5200 4180945.4200 296.68 
577614.3701 4180945.3600 296.58 
577614.8999 4180945.2800 296.62 
577615.7400 4180945.4100 296.49 
577616.2800 4180945.1200 296.46 
577617.1001 4180945.4700 296.47 
577617.6699 4180945.0200 296.51 
577618.5100 4180945.1000 296.51 
577619.0500 4180945.0601 296.38 
577619.8801 4180945.1600 296.47 
577620.4199 4180944.9700 296.39 
577621.2400 4180945.3800 296.51 
577621.7800 4180945.0100 296.50 
577622.6001 4180945.3900 296.31 
577591.2200 4180945.7400 296.26 
577591.6899 4180945.8600 296.24 
577592.4800 4180945.8199 296.21 
577592.9700 4180945.7600 296.18 
577593.7600 4180945.8600 296.09 
577594.2900 4180945.5500 296.24 
577595.0701 4180945.7900 296.05 
577595.5901 4180945.6700 296.19 
577596.3999 4180946.0300 296.22 
577596.9099 4180945.8300 296.15 
577597.7500 4180945.6700 296.08 
577599.4900 4180945.8900 303.32 
577599.6599 4180946.0000 297.33 
577600.4700 4180945.8900 296.35 
577600.9700 4180945.8199 296.32 
577603.2100 4180945.6800 296.48 
577603.7100 4180945.8300 296.38 
577604.5801 4180945.8800 296.48 
577605.1399 4180945.9100 296.83 
577606.0200 4180945.6400 296.56 
577606.5200 4180946.0300 296.59 
577607.4199 4180945.7300 296.59 
577607.9399 4180945.9300 296.93 
577608.8201 4180945.7800 296.44 
577609.3401 4180945.8900 296.64 
577610.1999 4180945.8900 296.43 
577610.7300 4180945.6999 296.53 
577611.5801 4180945.8800 296.48 
577612.1001 4180945.5200 296.32 
577612.9399 4180945.8900 296.39 
577613.4499 4180945.9600 296.36 
577614.3100 4180945.9200 296.44 
577614.8401 4180945.8500 296.47 
577615.6799 4180945.9700 296.35 
577616.2200 4180945.6999 296.34 
577617.0500 4180946.0400 296.45 
577617.6001 4180945.5601 296.17 
577618.4499 4180945.6600 296.34 
577618.9900 4180945.6300 296.29 
577619.8100 4180945.7100 296.20 
577620.3601 4180945.5601 296.40 
577621.1799 4180945.9399 296.27 
577621.7300 4180945.5699 296.41 
577622.5500 4180945.9800 296.44 
577590.3701 4180946.6000 296.45 
577591.1599 4180946.3000 296.12 
577591.6301 4180946.4200 296.07 
577592.4199 4180946.3600 296.01 
577592.9099 4180946.3199 296.05 
577593.7100 4180946.4700 296.22 
577594.2300 4180946.1100 296.06 
577595.0300 4180946.3700 296.19 
577595.5500 4180946.2600 296.34 
577596.8701 4180946.4300 296.32 
577597.7100 4180946.3000 296.47 
577598.2800 4180946.5500 297.82 
577599.4900 4180946.5500 304.30 
577599.5701 4180946.5100 296.69 
577602.0901 4180946.4900 301.92 
577602.5600 4180946.2100 301.33 
577603.1499 4180946.2400 296.33 
577604.5400 4180946.5000 296.92 
577605.0901 4180946.4900 297.01 
577605.9600 4180946.2200 296.49 
577606.4600 4180946.6000 296.52 
577607.3601 4180946.2900 296.44 
577607.8801 4180946.4700 296.63 
577608.7700 4180946.3500 296.44 
577609.2700 4180946.4499 296.37 
577610.1499 4180946.4499 296.40 
577610.6799 4180946.2700 296.48 
577611.5100 4180946.4399 296.34 
577612.0600 4180946.1000 296.46 
577612.8899 4180946.4700 296.45 
577613.3999 4180946.5400 296.35 
577614.2500 4180946.4800 296.34 
577614.8000 4180946.4300 296.55 
577615.6301 4180946.5500 296.41 
577616.1699 4180946.2800 296.46 
577616.9800 4180946.5900 296.19 
577617.5500 4180946.1400 296.25 
577618.3899 4180946.2300 296.26 
577618.9399 4180946.2200 296.36 
577619.7800 4180946.3400 296.71 
577620.3100 4180946.1300 296.44 
577621.1201 4180946.5200 296.30 
577621.6799 4180946.1600 296.57 
577622.4900 4180946.5400 296.39 
577590.3100 4180947.1600 296.25 
577591.1001 4180946.8800 296.13 
577591.5901 4180947.0100 296.27 
577592.3801 4180946.9600 296.20 
577592.8701 4180946.9100 296.30 
577593.6599 4180947.0400 296.20 
577594.1799 4180946.6899 296.09 
577594.9700 4180946.9300 296.03 
577595.4900 4180946.8300 296.16 
577596.3501 4180946.6100 296.25 
577596.8100 4180946.9800 296.16 
577597.6599 4180946.8700 296.44 
577598.2300 4180947.1200 297.81 
577599.0701 4180947.0800 297.73 
577599.5100 4180947.0500 296.36 
577600.5701 4180946.7900 299.72 
577601.1001 4180946.7500 300.18 
577602.0901 4180947.1700 303.09 
577602.5701 4180946.9000 302.50 
577603.2600 4180947.1400 299.86 
577603.8301 4180946.7300 299.92 
577605.0400 4180947.0601 296.99 
577605.9099 4180946.7900 296.51 
577606.4099 4180947.1700 296.47 
577607.3100 4180946.8800 296.53 
577607.8401 4180947.0800 296.91 
577610.0901 4180947.0300 296.36 
577610.6399 4180946.8700 296.72 
577611.4600 4180947.0200 296.42 
577612.0100 4180946.6800 296.60 
577612.8401 4180947.0500 296.46 
577613.3401 4180947.1100 296.34 
577614.2100 4180947.0699 296.55 
577614.7400 4180946.9900 296.49 
577615.5701 4180947.1200 296.31 
577616.1101 4180946.8400 296.32 
577616.9299 4180947.1600 296.23 
577617.5000 4180946.7300 296.40 
577618.3301 4180946.8101 296.19 
577618.8801 4180946.7900 296.34 
577619.6999 4180946.8700 296.21 
577620.2600 4180946.7200 296.50 
577621.0801 4180947.1100 296.48 
577621.6101 4180946.7100 296.20 
577622.4399 4180947.1300 296.47 
577589.8000 4180947.4600 296.23 
577590.2400 4180947.7100 295.98 
577591.0500 4180947.4499 296.10 
577591.5300 4180947.5800 296.19 
577592.3201 4180947.5400 296.18 
577592.8201 4180947.4800 296.28 
577593.6001 4180947.6100 296.16 
577594.1201 4180947.2600 296.03 
577594.9299 4180947.5400 296.32 
577595.4399 4180947.4000 296.22 
577596.2900 4180947.1800 296.16 
577596.7600 4180947.5601 296.22 
577597.6699 4180947.5699 297.86 
577599.4399 4180947.6100 296.14 
577600.3000 4180947.6200 296.28 
577600.5100 4180947.3400 299.50 
577601.0801 4180947.3800 300.74 
577602.5100 4180947.4700 302.50 
577603.7400 4180947.2200 299.05 
577604.6399 4180947.3600 300.00 
577604.9800 4180947.6300 296.90 
577605.8501 4180947.3600 296.50 
577607.2900 4180947.5200 297.23 
577608.8701 4180947.2400 299.78 
577609.3801 4180947.3300 299.74 
577610.5701 4180947.4200 296.37 
577611.4199 4180947.6000 296.54 
577611.9499 4180947.2500 296.50 
577612.7700 4180947.6200 296.34 
577613.3000 4180947.6999 296.44 
577614.1399 4180947.6500 296.44 
577614.6799 4180947.5699 296.43 
577615.5200 4180947.6999 296.30 
577616.0600 4180947.4200 296.36 
577617.4499 4180947.3000 296.39 
577618.2900 4180947.4000 296.42 
577618.8301 4180947.3600 296.25 
577619.6599 4180947.4800 296.54 
577620.1999 4180947.2800 296.42 
577621.0200 4180947.6800 296.53 
577621.5500 4180947.2900 296.22 
577622.3701 4180947.6899 296.26 
577589.7300 4180948.0000 295.84 
577590.1799 4180948.2600 295.78 
577591.0000 4180948.0500 296.25 
577591.4900 4180948.1700 296.32 
577592.2600 4180948.1000 295.96 
577592.7500 4180948.0500 296.04 
577593.5600 4180948.1999 296.40 
577594.0801 4180947.8600 296.30 
577594.8601 4180948.0900 296.02 
577595.3899 4180947.9800 296.27 
577596.2500 4180947.7900 296.52 
577596.7100 4180948.1600 296.41 
577598.4199 4180948.1700 302.87 
577598.8899 4180948.1200 296.35 
577599.3999 4180948.1899 296.29 
577601.0901 4180948.0800 302.11 
577602.5500 4180948.1999 304.24 
577603.4299 4180948.1400 304.49 
577603.7900 4180948.0000 301.22 
577604.3701 4180948.1899 296.61 
577604.6201 4180948.0100 300.82 
577605.7900 4180947.9399 296.40 
577606.3501 4180947.7500 296.41 
577607.2400 4180948.1000 297.37 
577607.9099 4180947.8900 299.49 
577608.8100 4180947.8000 299.66 
577609.3201 4180947.9000 299.73 
577610.2200 4180947.9600 300.32 
577611.9099 4180947.8300 296.65 
577612.7200 4180948.1999 296.29 
577613.2400 4180948.2800 296.44 
577614.0801 4180948.1999 296.26 
577614.6301 4180948.1400 296.45 
577615.4600 4180948.2700 296.30 
577616.0200 4180948.0000 296.51 
577616.8801 4180947.7600 296.41 
577617.4099 4180947.9000 296.61 
577618.2200 4180947.9600 296.18 
577618.7800 4180947.9399 296.33 
577619.6101 4180948.0699 296.61 
577620.1499 4180947.8400 296.31 
577620.9499 4180948.2300 296.19 
577621.5000 4180947.8600 296.20 
577622.3201 4180948.2500 296.17 
577589.6899 4180948.5900 295.99 
577590.9399 4180948.6000 296.08 
577591.4299 4180948.7500 296.31 
577592.2100 4180948.6800 296.02 
577592.6899 4180948.6200 295.93 
577593.5100 4180948.7700 296.41 
577594.0200 4180948.4200 296.10 
577594.8201 4180948.6899 296.34 
577595.3401 4180948.5500 296.27 
577596.1899 4180948.3400 296.26 
577596.6499 4180948.7100 296.23 
577597.5500 4180948.6999 297.57 
577598.0600 4180948.8101 297.45 
577598.3601 4180948.7200 302.68 
577598.8401 4180948.6899 296.33 
577599.3501 4180948.7900 296.48 
577600.6001 4180948.8600 303.59 
577601.1301 4180948.8300 304.05 
577601.8801 4180948.7700 301.90 
577602.0200 4180948.3800 303.74 
577602.5200 4180948.8199 304.80 
577603.3899 4180948.7500 304.89 
577603.7900 4180948.6800 302.39 
577605.1001 4180948.5200 300.41 
577605.7400 4180948.5200 296.46 
577606.3000 4180948.3300 296.51 
577607.2800 4180948.8500 299.21 
577607.8401 4180948.4300 299.16 
577608.7600 4180948.3700 299.68 
577609.2900 4180948.5200 300.20 
577610.1699 4180948.5400 300.39 
577610.6999 4180948.3700 300.39 
577611.5600 4180948.5601 300.68 
577612.0701 4180948.8199 301.26 
577614.0300 4180948.7800 296.39 
577614.5901 4180948.7300 296.62 
577615.4099 4180948.8500 296.30 
577615.9499 4180948.5500 296.26 
577616.8201 4180948.3199 296.26 
577617.3401 4180948.4700 296.40 
577618.1699 4180948.5400 296.24 
577618.7300 4180948.5200 296.45 
577619.5500 4180948.6200 296.40 
577620.0801 4180948.4000 296.10 
577620.8999 4180948.8199 296.29 
577621.4499 4180948.4200 296.16 
577622.2600 4180948.8300 296.22 
577590.1399 4180948.8700 296.09 
577590.8999 4180949.1999 296.33 
577591.3801 4180949.3300 296.31 
577592.1599 4180949.2700 296.19 
577592.6499 4180949.1999 296.03 
577593.4499 4180949.3300 296.19 
577593.9700 4180949.0100 296.22 
577594.7700 4180949.2600 296.35 
577595.2900 4180949.1300 296.38 
577596.1201 4180948.8800 295.93 
577596.5901 4180949.2800 296.09 
577597.9499 4180949.2800 296.29 
577598.7800 4180949.2600 296.26 
577599.3000 4180949.3600 296.44 
577600.5000 4180949.3500 302.70 
577601.0801 4180949.3900 304.03 
577602.3801 4180949.2200 302.94 
577603.3000 4180949.2300 303.93 
577603.7700 4180949.3101 303.05 
577604.4499 4180949.0200 299.43 
577605.0600 4180949.1200 300.72 
577605.8201 4180949.3500 299.31 
577606.2900 4180948.9800 297.37 
577607.8000 4180949.0400 299.47 
577608.7200 4180948.9600 299.86 
577609.2400 4180949.0800 300.08 
577610.1201 4180949.1200 300.41 
577610.6799 4180948.9800 300.91 
577611.5400 4180949.1999 301.42 
577612.0100 4180949.3800 300.98 
577612.8999 4180949.2400 301.42 
577613.4099 4180949.2800 301.17 
577614.5200 4180949.3000 296.43 
577615.3601 4180949.4200 296.37 
577615.9099 4180949.1400 296.43 
577616.7700 4180948.9100 296.28 
577617.2800 4180949.0300 296.30 
577618.1201 4180949.1200 296.32 
577618.6699 4180949.0900 296.38 
577619.4900 4180949.1800 296.29 
577620.0300 4180948.9900 296.19 
577620.8401 4180949.3900 296.23 
577621.3899 4180949.0000 296.19 
577590.0901 4180949.4300 296.04 
577590.8401 4180949.7700 296.22 
577591.3201 4180949.8800 296.10 
577592.1001 4180949.8300 296.01 
577592.6101 4180949.7900 296.27 
577593.3899 4180949.9000 296.21 
577593.9299 4180949.5900 296.29 
577594.7100 4180949.8300 296.26 
577595.2200 4180949.6800 296.03 
577596.0701 4180949.4800 296.12 
577596.5500 4180949.8700 296.20 
577597.7500 4180949.7500 302.94 
577597.8899 4180949.8500 296.22 
577598.7300 4180949.8400 296.20 
577599.2400 4180949.9200 296.29 
577600.0901 4180949.9200 296.38 
577600.3501 4180949.7200 300.56 
577600.9600 4180949.8199 302.52 
577601.9900 4180949.6500 305.30 
577602.3000 4180949.7400 302.29 
577603.2700 4180949.8600 304.58 
577603.6499 4180949.7500 301.58 
577604.4600 4180949.7100 300.72 
577604.7600 4180949.9100 296.69 
577604.9499 4180949.5900 299.52 
577605.6399 4180949.6899 296.59 
577606.2300 4180949.5500 297.30 
577607.2400 4180949.4499 299.51 
577607.7500 4180949.6100 299.45 
577608.6699 4180949.5601 300.06 
577609.1999 4180949.6700 300.32 
577610.0701 4180949.6999 300.50 
577610.6201 4180949.5699 300.96 
577611.4800 4180949.7800 301.42 
577612.8601 4180949.8101 301.55 
577613.3401 4180949.8101 300.84 
577614.1899 4180949.7600 300.84 
577615.8601 4180949.7300 296.48 
577616.7100 4180949.4700 296.25 
577617.2300 4180949.6100 296.38 
577618.0801 4180949.7300 296.69 
577618.6201 4180949.6600 296.41 
577619.4399 4180949.7800 296.45 
577619.9800 4180949.5699 296.27 
577620.7800 4180949.9499 296.11 
577590.0500 4180950.0100 296.20 
577590.7900 4180950.3400 296.16 
577591.2600 4180950.4499 295.95 
577592.0500 4180950.4200 296.14 
577592.5600 4180950.3800 296.31 
577593.3401 4180950.4700 296.15 
577593.8801 4180950.1899 296.49 
577594.6699 4180950.4200 296.40 
577595.1699 4180950.2500 295.99 
577596.0300 4180950.0601 296.23 
577596.5000 4180950.4399 296.20 
577597.3301 4180950.3101 296.36 
577597.6799 4180950.2900 302.53 
577597.8501 4180950.4499 296.46 
577598.6799 4180950.4200 296.32 
577599.1999 4180950.5100 296.52 
577600.0400 4180950.4900 296.34 
577600.9199 4180950.4300 302.85 
577601.9099 4180950.1800 304.79 
577602.2800 4180950.3700 303.05 
577603.1999 4180950.4000 304.24 
577603.6699 4180950.4600 303.21 
577604.4199 4180950.3000 300.99 
577604.7100 4180950.4800 296.62 
577605.6201 4180950.3199 297.35 
577606.1799 4180950.1300 297.27 
577607.1799 4180950.0100 299.49 
577607.7100 4180950.2200 299.78 
577608.6301 4180950.1400 300.23 
577609.1499 4180950.2500 300.43 
577610.0200 4180950.2800 300.60 
577610.5701 4180950.1400 300.99 
577611.4399 4180950.3700 301.66 
577611.9199 4180950.5500 301.33 
577611.9700 4180949.9900 301.38 
577612.7900 4180950.3600 301.32 
577613.2900 4180950.3900 300.79 
577614.1301 4180950.3199 300.64 
577614.6599 4180950.2300 300.53 
577615.4800 4180950.3400 300.12 
577616.6599 4180950.0500 296.28 
577617.1799 4180950.1899 296.36 
577618.0200 4180950.3000 296.61 
577618.5701 4180950.2500 296.47 
577619.3801 4180950.3400 296.28 
577619.9399 4180950.1700 296.43 
577621.6499 4180950.1800 302.77 
577622.5901 4180950.1400 304.44 
577589.9800 4180950.5699 295.91 
577590.7400 4180950.9200 296.21 
577591.2100 4180951.0300 296.04 
577592.0100 4180951.0200 296.33 
577592.5100 4180950.9499 296.40 
577593.2800 4180951.0300 296.01 
577593.8201 4180950.7500 296.35 
577594.6101 4180950.9800 296.26 
577595.1201 4180950.8400 296.03 
577595.9800 4180950.6500 296.31 
577597.2700 4180950.8700 296.15 
577597.7800 4180951.0100 296.12 
577598.6301 4180950.9900 296.32 
577599.1399 4180951.0800 296.32 
577600.7200 4180950.7200 299.70 
577601.6101 4180950.9600 300.76 
577601.8100 4180950.6600 303.80 
577601.8701 4180950.9600 296.60 
577602.0801 4180950.6800 300.02 
577603.0200 4180950.7300 301.48 
577603.5000 4180950.8199 300.72 
577604.4299 4180951.0000 302.48 
577604.6599 4180951.0601 296.76 
577605.5801 4180950.9300 297.57 
577606.2100 4180950.8400 298.97 
577607.1301 4180950.5800 299.45 
577607.6599 4180950.7900 299.84 
577608.5600 4180950.6999 300.05 
577609.0801 4180950.7900 300.07 
577609.9800 4180950.8800 300.92 
577610.5400 4180950.7300 301.30 
577611.3899 4180950.9399 301.65 
577611.8601 4180951.1100 301.29 
577612.7200 4180950.8900 300.91 
577613.2400 4180950.9499 300.81 
577614.0801 4180950.9000 300.72 
577614.6001 4180950.7900 300.38 
577615.4199 4180950.8900 299.94 
577615.9600 4180950.6000 299.79 
577616.6101 4180950.6600 296.54 
577617.1301 4180950.7800 296.49 
577617.9499 4180950.8300 296.19 
577618.5100 4180950.8400 296.48 
577619.3301 4180950.9300 296.39 
577621.0400 4180951.1100 302.69 
577621.6101 4180950.7800 303.14 
577622.5600 4180950.7600 304.93 
577589.9299 4180951.1500 295.98 
577590.6799 4180951.5000 296.21 
577591.1599 4180951.6000 296.06 
577591.9399 4180951.5699 296.09 
577592.4499 4180951.5100 296.29 
577593.2300 4180951.6300 296.18 
577593.7600 4180951.2900 296.03 
577594.5500 4180951.5400 296.13 
577595.0801 4180951.4399 296.33 
577595.9299 4180951.2300 296.40 
577596.7700 4180951.6100 302.95 
577597.2200 4180951.4600 296.20 
577597.7300 4180951.5800 296.11 
577598.5701 4180951.5601 296.28 
577599.0801 4180951.6500 296.24 
577600.2300 4180951.5100 301.45 
577600.7500 4180951.4600 301.53 
577601.5100 4180951.4600 299.90 
577602.6799 4180951.4499 296.64 
577602.9399 4180951.2600 301.00 
577603.4499 4180951.3900 300.79 
577604.0400 4180951.6300 296.45 
577604.3000 4180951.4399 300.87 
577604.6201 4180951.6700 297.00 
577605.5100 4180951.4700 297.25 
577606.1799 4180951.4800 299.55 
577607.1001 4180951.2100 300.01 
577607.6201 4180951.3800 300.03 
577608.5000 4180951.2600 299.90 
577609.0400 4180951.4000 300.46 
577609.9299 4180951.4600 300.95 
577610.4800 4180951.3101 301.21 
577611.3401 4180951.5300 301.81 
577612.6599 4180951.4600 300.86 
577613.1699 4180951.5100 300.57 
577614.0100 4180951.4499 300.44 
577614.5400 4180951.3400 300.06 
577615.3701 4180951.4800 300.11 
577615.8999 4180951.1600 299.63 
577616.6899 4180951.4700 299.32 
577617.0801 4180951.3500 296.42 
577617.8999 4180951.4200 296.41 
577618.4700 4180951.4200 296.65 
577619.2800 4180951.5100 296.54 
577620.2300 4180951.4000 303.91 
577621.6001 4180951.4300 304.06 
577622.4700 4180951.2700 304.23 
577589.8899 4180951.7400 296.24 
577590.6201 4180952.0500 295.97 
577591.1201 4180952.1999 296.23 
577591.8899 4180952.1500 296.13 
577592.3899 4180952.0699 296.00 
577593.1799 4180952.2100 296.18 
577593.7100 4180951.8700 296.06 
577594.4900 4180952.1200 296.15 
577595.0200 4180952.0000 296.18 
577595.8701 4180951.8000 296.38 
577596.3501 4180952.1800 296.33 
577596.6999 4180952.1700 302.72 
577597.1599 4180952.0200 296.06 
577597.6899 4180952.1700 296.26 
577598.5200 4180952.1400 296.26 
577599.0300 4180952.2200 296.21 
577599.8801 4180952.2200 296.37 
577600.1499 4180952.0400 300.94 
577600.3999 4180952.1400 296.27 
577600.6899 4180952.0100 301.24 
577601.4900 4180952.0900 300.47 
577601.7500 4180952.0800 296.34 
577602.0100 4180951.8700 300.56 
577602.6301 4180952.0200 296.63 
577603.1399 4180952.1600 296.47 
577603.2900 4180951.7500 298.38 
577603.9800 4180952.1800 296.29 
577605.4900 4180952.0900 297.91 
577606.1301 4180952.0400 299.55 
577607.0500 4180951.7900 300.07 
577607.5701 4180951.9600 300.16 
577608.4600 4180951.8600 300.14 
577609.0000 4180951.9800 300.63 
577609.8801 4180952.0300 301.00 
577610.4299 4180951.8800 301.37 
577611.2800 4180952.1000 301.68 
577611.8100 4180951.6800 301.20 
577612.6201 4180952.0500 301.03 
577613.1201 4180952.0800 300.56 
577613.9399 4180952.0000 300.22 
577614.4900 4180951.9300 300.30 
577615.3100 4180952.0500 299.94 
577615.8501 4180951.7300 299.66 
577616.6301 4180952.0500 299.29 
577617.0300 4180951.9399 296.52 
577617.8501 4180952.0000 296.40 
577618.3999 4180951.9600 296.27 
577619.2300 4180952.0800 296.56 
577620.1699 4180951.9600 303.77 
577621.0600 4180951.8300 304.40 
577621.5701 4180952.0500 304.63 
577622.4399 4180951.8700 304.65 
577589.8301 4180952.3000 296.10 
577590.5600 4180952.6200 295.92 
577591.0801 4180952.7900 296.50 
577591.8401 4180952.7200 296.03 
577592.3401 4180952.6500 296.06 
577593.1399 4180952.7900 296.37 
577593.6599 4180952.4499 296.22 
577594.4499 4180952.6899 296.22 
577594.9600 4180952.5699 296.01 
577595.8201 4180952.3800 296.29 
577596.2900 4180952.7400 296.18 
577597.1101 4180952.6100 296.23 
577597.6399 4180952.7500 296.42 
577598.4700 4180952.7200 296.39 
577598.9700 4180952.8000 296.16 
577599.8301 4180952.7900 296.35 
577600.3501 4180952.7400 296.43 
577601.2400 4180952.3101 296.50 
577601.6999 4180952.6700 296.44 
577602.5701 4180952.6000 296.65 
577603.0901 4180952.7300 296.46 
577603.9399 4180952.7800 296.55 
577604.5901 4180952.2900 297.41 
577605.5000 4180952.7900 299.23 
577606.0801 4180952.6200 299.55 
577606.9800 4180952.3300 299.73 
577607.5200 4180952.5400 300.23 
577608.4099 4180952.4399 300.26 
577608.9499 4180952.5601 300.73 
577609.8201 4180952.6000 300.97 
577610.3601 4180952.4100 300.96 
577611.2200 4180952.6600 301.50 
577611.7500 4180952.2600 301.19 
577612.5500 4180952.6000 300.80 
577613.0600 4180952.6400 300.40 
577613.8999 4180952.5800 300.33 
577614.4399 4180952.5000 300.26 
577615.2300 4180952.5800 299.52 
577615.7900 4180952.3000 299.61 
577616.5801 4180952.6200 299.21 
577616.9700 4180952.5000 296.46 
577617.8000 4180952.5800 296.44 
577618.3601 4180952.5601 296.51 
577619.1599 4180952.6400 296.34 
577620.1001 4180952.4900 303.35 
577621.0000 4180952.3800 304.25 
577621.5400 4180952.6500 304.97 
577622.4199 4180952.5100 305.40 
577589.7800 4180952.8700 296.00 
577590.5100 4180953.1899 295.93 
577591.0100 4180953.3400 296.19 
577591.7800 4180953.3101 296.05 
577592.2900 4180953.2400 296.23 
577593.0600 4180953.3300 295.95 
577593.6201 4180953.0500 296.42 
577594.3899 4180953.2700 296.20 
577594.9199 4180953.1700 296.37 
577596.2400 4180953.3300 296.33 
577597.0600 4180953.1700 296.17 
577597.5801 4180953.3101 296.26 
577598.4099 4180953.2900 296.25 
577599.7700 4180953.3600 296.33 
577600.3000 4180953.3199 296.43 
577601.1999 4180952.9000 296.70 
577601.6599 4180953.2600 296.69 
577602.5200 4180953.1700 296.68 
577603.0500 4180953.3300 296.70 
577604.5400 4180952.8700 297.54 
577606.0400 4180953.1999 299.70 
577606.9299 4180952.9100 299.83 
577607.4600 4180953.0900 299.97 
577608.3701 4180953.0300 300.44 
577608.8999 4180953.1300 300.65 
577609.7700 4180953.1899 300.90 
577610.3201 4180953.0000 301.08 
577611.1699 4180953.2300 301.61 
577611.6899 4180952.8101 300.98 
577612.5000 4180953.1700 300.80 
577613.0100 4180953.2100 300.39 
577613.8401 4180953.1500 300.38 
577614.3801 4180953.0601 300.09 
577615.1899 4180953.1700 299.75 
577615.7300 4180952.8600 299.44 
577616.3899 4180952.9499 296.34 
577616.9099 4180953.0601 296.39 
577617.7500 4180953.1600 296.51 
577618.3000 4180953.1100 296.36 
577619.1001 4180953.1999 296.20 
577619.6599 4180953.0300 296.33 
577620.0400 4180953.0300 303.06 
577620.9099 4180952.8900 303.55 
577621.4499 4180953.1600 304.35 
577622.3100 4180952.9800 304.26 
577622.8301 4180952.9800 303.94 
577589.7300 4180953.4700 296.14 
577590.4600 4180953.7600 295.85 
577590.9600 4180953.9100 296.11 
577591.7300 4180953.8900 296.12 
577592.2300 4180953.7900 296.04 
577593.0100 4180953.9200 296.01 
577593.5400 4180953.5800 295.91 
577594.3401 4180953.8500 296.26 
577594.8701 4180953.7400 296.33 
577595.6999 4180953.5100 296.05 
577596.0600 4180953.4900 302.53 
577596.1799 4180953.8700 296.09 
577597.0100 4180953.7600 296.29 
577597.5300 4180953.9000 296.29 
577598.3601 4180953.8700 296.35 
577598.9499 4180953.4300 296.75 
577601.1399 4180953.4600 296.50 
577601.6201 4180953.8600 296.87 
577602.4800 4180953.7700 297.01 
577603.0100 4180953.9300 297.08 
577603.8899 4180953.3800 296.64 
577604.4600 4180953.3800 296.82 
577605.4499 4180953.3800 299.40 
577605.9800 4180953.7600 299.61 
577606.8801 4180953.4900 299.83 
577607.4299 4180953.7200 300.57 
577608.3100 4180953.6100 300.47 
577608.8401 4180953.7100 300.68 
577609.7200 4180953.7600 301.04 
577610.2800 4180953.5900 301.33 
577611.1101 4180953.7800 301.49 
577611.6499 4180953.4000 301.13 
577612.4399 4180953.7400 300.75 
577612.9499 4180953.7800 300.30 
577613.7800 4180953.6899 300.06 
577614.3301 4180953.6500 300.28 
577615.1301 4180953.7200 299.60 
577615.6799 4180953.4399 299.44 
577616.3401 4180953.5400 296.46 
577616.8601 4180953.6300 296.32 
577617.6899 4180953.7200 296.40 
577618.2400 4180953.6999 296.39 
577619.0600 4180953.8101 296.57 
577619.6101 4180953.6000 296.27 
577620.4499 4180953.4000 296.11 
577620.8401 4180953.4399 303.23 
577620.9600 4180953.6100 296.17 
577621.3401 4180953.6200 303.11 
577622.2500 4180953.5400 304.09 
577622.7900 4180953.5800 304.34 
577589.6699 4180954.0200 295.97 
577590.3999 4180954.3300 295.83 
577590.9099 4180954.4900 296.18 
577591.6699 4180954.4499 295.95 
577592.1699 4180954.3500 295.87 
577592.9499 4180954.4900 295.91 
577593.4900 4180954.1700 295.96 
577594.2900 4180954.4300 296.24 
577594.8100 4180954.2900 296.11 
577595.6499 4180954.0900 296.13 
577596.1301 4180954.4600 296.10 
577596.9499 4180954.3300 296.27 
577597.4800 4180954.4800 296.37 
577598.3000 4180954.4399 296.31 
577598.8899 4180953.9900 296.68 
577599.7300 4180953.9600 296.52 
577600.2100 4180954.4900 296.71 
577600.2900 4180953.9600 297.28 
577601.1101 4180954.0699 296.98 
577601.5600 4180954.4200 296.81 
577602.4299 4180954.3500 296.99 
577603.8501 4180953.9700 296.91 
577604.4099 4180953.9700 296.97 
577605.3999 4180953.9499 299.44 
577605.9399 4180954.3600 299.92 
577606.8301 4180954.0900 300.07 
577607.3701 4180954.2800 300.43 
577608.2700 4180954.1999 300.68 
577608.8000 4180954.2900 300.80 
577609.6699 4180954.3400 301.09 
577610.2200 4180954.1400 301.22 
577611.0500 4180954.3300 301.26 
577611.5200 4180954.4900 300.62 
577611.5801 4180953.9499 300.94 
577612.3801 4180954.3000 300.63 
577612.9099 4180954.3800 300.69 
577613.7200 4180954.2600 299.95 
577614.2800 4180954.2200 300.18 
577615.0801 4180954.3101 299.64 
577615.4099 4180954.3101 296.15 
577615.6101 4180954.0000 299.24 
577616.2900 4180954.1300 296.71 
577616.8201 4180954.2400 296.65 
577617.6301 4180954.2900 296.31 
577618.1899 4180954.2800 296.42 
577619.0000 4180954.3700 296.41 
577619.5600 4180954.1899 296.45 
577620.4099 4180953.9900 296.33 
577620.9199 4180954.2100 296.39 
577621.7700 4180954.0200 296.20 
577622.2200 4180954.1600 304.61 
577622.7600 4180954.1899 304.84 
577590.3701 4180954.9300 296.17 
577591.6201 4180955.0300 295.98 
577592.1201 4180954.9300 295.93 
577593.4399 4180954.7500 295.97 
577594.2300 4180955.0000 296.21 
577595.6001 4180954.6700 296.27 
577596.0801 4180955.0400 296.21 
577596.9099 4180954.9300 296.48 
577597.4299 4180955.0400 296.37 
577598.2500 4180955.0100 296.33 
577598.8501 4180954.5699 296.91 
577599.6799 4180954.5500 296.71 
577601.0400 4180954.6300 296.71 
577601.5300 4180955.0200 297.27 
577602.3801 4180954.9399 297.08 
577602.9600 4180954.5000 297.06 
577603.8000 4180954.5400 297.01 
577604.4800 4180954.7600 299.57 
577605.3501 4180954.5500 299.61 
577605.8801 4180954.9000 299.66 
577606.7900 4180954.6899 300.33 
577607.3100 4180954.8199 300.19 
577608.2300 4180954.8000 300.99 
577608.7500 4180954.8800 300.95 
577609.6301 4180954.9499 301.43 
577610.1799 4180954.7200 301.42 
577610.9700 4180954.8700 300.79 
577612.3201 4180954.8600 300.52 
577612.8501 4180954.9399 300.50 
577613.6699 4180954.8400 300.09 
577614.2300 4180954.7800 300.21 
577615.0200 4180954.8700 299.49 
577615.3701 4180954.9100 296.29 
577616.2300 4180954.6800 296.45 
577616.7700 4180954.8101 296.66 
577617.5701 4180954.8700 296.38 
577618.1399 4180954.8500 296.39 
577620.3601 4180954.5900 296.53 
577620.8701 4180954.7800 296.48 
577621.7100 4180954.5800 296.15 
577622.6799 4180954.6999 304.19 
577590.3100 4180955.5100 296.16 
577590.8000 4180955.6200 295.97 
577590.8501 4180955.0601 296.01 
577591.5600 4180955.5900 295.87 
577592.0801 4180955.5200 296.04 
577592.9199 4180955.0800 296.20 
577593.3999 4180955.3400 296.14 
577594.1799 4180955.5800 296.22 
577595.0600 4180955.3800 302.34 
577595.5500 4180955.2400 296.21 
577596.8501 4180955.5000 296.39 
577597.3801 4180955.6100 296.33 
577598.1999 4180955.5900 296.37 
577598.7900 4180955.1100 296.60 
577599.6201 4180955.1000 296.49 
577600.0901 4180955.6100 296.41 
577600.1599 4180955.0699 296.79 
577600.9900 4180955.2100 296.77 
577601.4800 4180955.6000 297.22 
577602.3401 4180955.5200 297.33 
577602.8999 4180955.0699 296.92 
577603.7500 4180955.1400 297.16 
577604.4299 4180955.3199 299.46 
577605.3100 4180955.1400 299.86 
577605.8401 4180955.5100 300.01 
577606.7300 4180955.2400 300.16 
577607.2700 4180955.4200 300.47 
577608.1699 4180955.3400 300.76 
577608.7100 4180955.4700 301.22 
577609.5701 4180955.5100 301.34 
577610.1001 4180955.2700 301.00 
577610.9099 4180955.4399 300.76 
577611.4600 4180955.0601 300.48 
577612.2500 4180955.4000 300.16 
577612.7900 4180955.4900 300.31 
577613.6101 4180955.4100 299.97 
577614.1499 4180955.3000 299.72 
577614.9499 4180955.4200 299.19 
577617.5200 4180955.4499 296.32 
577618.0801 4180955.4100 296.30 
577619.2900 4180955.5500 303.56 
577619.8601 4180955.3900 303.79 
577621.6599 4180955.1500 296.15 
577622.1999 4180955.1800 296.26 
577622.5901 4180955.1999 303.34 
577590.2600 4180956.0800 296.13 
577591.5100 4180956.1600 295.83 
577592.0200 4180956.0800 295.97 
577592.8501 4180955.6400 295.97 
577593.3401 4180955.9000 296.02 
577594.1201 4180956.1400 296.12 
577594.6499 4180956.0200 296.12 
577595.0300 4180956.0000 302.81 
577595.5100 4180955.8500 296.57 
577596.0400 4180955.6400 296.52 
577596.7900 4180956.0500 296.23 
577598.1499 4180956.1800 296.38 
577598.7200 4180955.6700 296.36 
577599.5600 4180955.6700 296.42 
577600.9600 4180955.8199 297.22 
577601.4299 4180956.1600 297.19 
577602.2600 4180956.0601 296.82 
577602.8401 4180955.6300 296.67 
577603.8100 4180955.9000 299.40 
577604.3801 4180955.9000 299.52 
577605.2600 4180955.7100 299.81 
577605.8000 4180956.1000 300.19 
577606.6799 4180955.8199 300.24 
577607.2300 4180956.0200 300.72 
577608.1101 4180955.9200 300.73 
577608.6399 4180956.0200 300.90 
577609.5300 4180956.0699 301.44 
577610.0500 4180955.8500 300.96 
577610.8601 4180956.0200 300.75 
577611.4099 4180955.6400 300.61 
577612.2100 4180956.0000 300.45 
577612.7200 4180956.0300 299.97 
577613.5400 4180955.9600 299.73 
577614.0801 4180955.8600 299.45 
577614.7900 4180955.8199 297.15 
577615.5801 4180955.9300 301.84 
577616.5100 4180955.8400 303.50 
577617.0200 4180955.9200 303.18 
577619.2100 4180956.0699 303.00 
577619.8401 4180956.0100 304.57 
577620.6699 4180955.8000 304.17 
577621.1699 4180956.0000 304.03 
577621.6101 4180955.7500 296.37 
577622.1301 4180955.7300 296.01 
577590.1999 4180956.6600 296.10 
577590.7400 4180956.1899 295.84 
577591.9700 4180956.6500 295.90 
577592.7900 4180956.1999 295.85 
577593.2900 4180956.4900 296.13 
577594.6001 4180956.5900 296.04 
577595.4499 4180956.4200 296.50 
577595.9800 4180956.1999 296.36 
577596.7400 4180956.6300 296.27 
577597.3301 4180956.2100 296.51 
577598.6799 4180956.2700 296.51 
577599.5100 4180956.2500 296.43 
577600.0500 4180956.2200 296.72 
577600.8801 4180956.3600 296.75 
577601.3701 4180956.7400 297.12 
577602.2400 4180956.6999 297.50 
577602.8201 4180956.2500 297.33 
577603.7500 4180956.4700 299.36 
577604.3301 4180956.4800 299.68 
577605.2200 4180956.3000 300.11 
577605.7500 4180956.6800 300.33 
577606.6399 4180956.4100 300.57 
577607.1899 4180956.6000 300.87 
577608.0600 4180956.4900 300.82 
577608.6001 4180956.6200 301.16 
577609.4499 4180956.6200 301.07 
577609.9900 4180956.4200 300.95 
577610.7900 4180956.5601 300.43 
577611.3501 4180956.2200 300.56 
577612.1599 4180956.5800 300.39 
577612.6799 4180956.6300 300.17 
577613.4800 4180956.5200 299.52 
577614.0300 4180956.4300 299.45 
577614.7700 4180956.4300 297.66 
577615.2600 4180956.7100 297.40 
577615.6001 4180956.6200 303.31 
577616.4900 4180956.4700 304.16 
577616.9900 4180956.5300 303.52 
577618.4099 4180956.6700 304.52 
577619.1699 4180956.6800 303.49 
577619.7800 4180956.5699 304.42 
577620.6201 4180956.4000 304.36 
577621.0901 4180956.5100 303.37 
577621.5500 4180956.3199 296.34 
577622.0901 4180956.3300 296.17 
577590.1499 4180957.2300 296.08 
577590.6899 4180956.7800 295.97 
577591.4600 4180956.7600 295.98 
577591.9099 4180957.2300 295.90 
577592.7400 4180956.7800 295.89 
577593.2300 4180957.0400 295.93 
577594.0200 4180957.3000 296.18 
577594.3999 4180957.2800 303.04 
577594.5500 4180957.1700 296.20 
577595.4099 4180956.9900 296.59 
577595.9299 4180956.7700 296.34 
577596.6899 4180957.2100 296.32 
577597.4900 4180957.1300 300.73 
577598.2600 4180957.0300 299.82 
577598.6999 4180956.9499 298.01 
577599.4700 4180956.8400 296.66 
577600.0801 4180956.9300 298.45 
577600.8301 4180956.9300 296.72 
577601.3100 4180957.3000 297.01 
577602.1899 4180957.2700 297.53 
577602.7700 4180956.8300 297.35 
577603.7100 4180957.0601 299.67 
577604.2800 4180957.0500 299.71 
577605.1599 4180956.8500 299.92 
577605.6999 4180957.2600 300.39 
577606.5901 4180956.9800 300.58 
577607.1399 4180957.1800 301.01 
577608.0200 4180957.0800 301.02 
577608.5600 4180957.1800 301.22 
577609.3899 4180957.1800 300.90 
577609.9399 4180956.9900 300.99 
577610.7300 4180957.1200 300.37 
577611.2900 4180956.7800 300.39 
577612.0901 4180957.1200 300.08 
577612.6101 4180957.1600 299.84 
577613.4399 4180957.1200 299.79 
577613.9800 4180957.0100 299.50 
577614.8100 4180957.1600 299.62 
577616.4399 4180957.0500 304.35 
577616.9700 4180957.1600 304.20 
577617.8100 4180957.3000 304.81 
577617.8801 4180956.7500 305.04 
577618.3801 4180957.2700 304.89 
577619.7300 4180957.1400 304.39 
577620.5500 4180956.9200 303.93 
577621.0500 4180957.1000 303.66 
577621.4900 4180956.8900 296.22 
577590.0901 4180957.7900 295.95 
577590.6399 4180957.3500 295.97 
577591.3999 4180957.3300 295.92 
577591.8601 4180957.8199 295.87 
577592.6899 4180957.3600 295.91 
577593.1899 4180957.6300 296.05 
577593.9600 4180957.8700 296.08 
577594.5000 4180957.7500 296.21 
577595.3301 4180957.5200 296.14 
577595.8601 4180957.3300 296.07 
577596.6399 4180957.7900 296.29 
577597.3999 4180957.6400 299.94 
577598.2300 4180957.6400 300.30 
577598.7300 4180957.6700 299.74 
577599.5600 4180957.6500 299.59 
577600.0400 4180957.5200 298.71 
577600.7700 4180957.5100 296.71 
577601.2400 4180957.8400 296.65 
577602.1301 4180957.8300 297.34 
577602.7400 4180957.4600 297.99 
577603.6499 4180957.6300 299.52 
577604.2300 4180957.6300 299.76 
577605.1001 4180957.4300 299.92 
577605.6699 4180957.8700 300.80 
577606.5300 4180957.5400 300.41 
577607.0701 4180957.7300 300.72 
577607.9700 4180957.6600 301.01 
577608.5100 4180957.7600 301.27 
577609.3401 4180957.7600 301.03 
577609.8801 4180957.5500 300.83 
577610.6999 4180957.7400 300.80 
577611.2400 4180957.3500 300.36 
577612.5801 4180957.7700 300.28 
577613.3801 4180957.6899 299.73 
577613.9399 4180957.6000 299.72 
577614.7600 4180957.7500 299.74 
577615.3201 4180957.4700 299.69 
577616.3999 4180957.6500 304.61 
577616.9700 4180957.8199 305.33 
577619.2300 4180957.4300 305.78 
577619.6899 4180957.7300 304.66 
577620.5100 4180957.5100 304.18 
577620.9700 4180957.6200 303.10 
577622.5500 4180957.7900 307.09 
577590.0400 4180958.3700 295.95 
577590.5901 4180957.9300 296.01 
577591.3501 4180957.9100 295.83 
577591.8100 4180958.4000 295.97 
577592.6399 4180957.9300 295.95 
577593.1201 4180958.1999 295.89 
577594.4499 4180958.3300 296.26 
577595.2800 4180958.1000 296.18 
577595.8100 4180957.9100 296.09 
577596.5801 4180958.3700 296.35 
577597.2900 4180958.1200 298.79 
577598.1699 4180958.1899 300.10 
577598.6899 4180958.2800 300.08 
577599.5100 4180958.2300 299.65 
577600.0200 4180958.1500 299.37 
577600.7100 4180958.0601 296.50 
577601.1999 4180958.4300 296.80 
577602.0701 4180958.4100 297.41 
577602.7700 4180958.1500 299.51 
577603.6101 4180958.2200 299.75 
577604.1899 4180958.2300 299.93 
577605.0500 4180958.0200 300.02 
577606.5000 4180958.1500 300.84 
577607.0300 4180958.3101 300.80 
577607.9199 4180958.2300 301.18 
577608.4499 4180958.3300 301.13 
577609.2800 4180958.3300 300.93 
577609.8401 4180958.1300 300.94 
577610.6599 4180958.3199 301.05 
577611.1899 4180957.9200 300.37 
577612.2600 4180958.0800 304.85 
577613.3401 4180958.2900 300.03 
577615.4800 4180958.4000 304.16 
577616.3899 4180958.2900 305.49 
577617.8100 4180957.9499 305.86 
577618.3899 4180957.9600 306.26 
577619.1599 4180957.9800 305.38 
577620.5400 4180958.2200 305.97 
577621.8100 4180958.1000 304.11 
577622.4900 4180958.3500 306.91 
577589.9800 4180958.9399 295.95 
577590.5500 4180958.5100 296.12 
577591.2800 4180958.4700 295.63 
577591.7600 4180958.9600 295.86 
577592.5801 4180958.5000 295.90 
577593.0801 4180958.7700 295.93 
577593.9099 4180958.4399 296.06 
577594.3999 4180958.9100 296.23 
577595.2300 4180958.6899 296.29 
577595.7800 4180958.5100 296.39 
577596.5200 4180958.9300 296.19 
577597.1201 4180958.5000 296.37 
577598.1301 4180958.7800 300.29 
577598.4700 4180958.5500 296.53 
577599.3000 4180958.5601 296.58 
577599.8401 4180958.4900 296.56 
577600.6799 4180958.6899 297.07 
577602.7100 4180958.7100 299.38 
577603.5600 4180958.7900 299.77 
577604.1399 4180958.8000 299.95 
577605.0100 4180958.6000 300.29 
577605.6201 4180958.4399 300.84 
577606.4499 4180958.7300 301.03 
577606.9900 4180958.9200 301.15 
577607.8701 4180958.8101 301.26 
577608.3999 4180958.8900 301.14 
577609.2200 4180958.8900 300.73 
577609.7900 4180958.7200 301.10 
577610.6201 4180958.9300 301.31 
577611.3100 4180958.7800 303.94 
577611.9499 4180958.8800 300.56 
577612.2100 4180958.6500 304.81 
577612.7500 4180958.7200 304.96 
577614.3301 4180958.9200 309.03 
577614.6699 4180958.9200 300.13 
577614.8899 4180958.6300 303.65 
577615.3999 4180958.9200 303.56 
577616.3501 4180958.8800 305.76 
577616.9600 4180958.4499 306.21 
577617.7900 4180958.5900 306.70 
577618.3201 4180958.4900 305.89 
577618.5701 4180959.0000 296.56 
577619.1499 4180958.6300 306.38 
577619.7200 4180958.4399 306.43 
577620.5200 4180958.8500 306.66 
577621.1001 4180958.4900 306.88 
577621.8501 4180958.8300 306.06 
577622.4299 4180958.9000 306.80 
577589.9299 4180959.5100 295.88 
577590.4900 4180959.0601 296.00 
577591.2400 4180959.0699 295.78 
577591.7100 4180959.5400 295.92 
577592.5400 4180959.1000 296.12 
577593.0300 4180959.3600 296.13 
577593.8601 4180959.0200 296.14 
577594.3501 4180959.4900 296.35 
577595.1799 4180959.2700 296.28 
577595.7300 4180959.1000 296.51 
577596.4700 4180959.5100 296.27 
577597.0701 4180959.0699 296.39 
577597.8801 4180959.0300 296.27 
577598.4099 4180959.1200 296.43 
577599.2500 4180959.1500 296.53 
577599.7700 4180959.0601 296.40 
577600.6101 4180959.2300 296.73 
577601.1599 4180959.0400 297.18 
577602.0901 4180959.0900 298.81 
577602.6599 4180959.3000 299.47 
577603.5100 4180959.3900 300.01 
577604.0901 4180959.3800 300.10 
577604.9600 4180959.1700 300.26 
577605.5701 4180959.0200 300.90 
577606.4099 4180959.3101 301.16 
577606.9299 4180959.4800 301.09 
577607.8100 4180959.3800 301.17 
577608.3501 4180959.4499 301.20 
577609.7100 4180959.2600 300.48 
577611.2700 4180959.3800 304.34 
577612.6899 4180959.2600 304.69 
577613.6899 4180959.5300 308.46 
577614.2900 4180959.5100 309.20 
577614.9600 4180959.5100 296.59 
577615.3501 4180959.4900 303.63 
577616.2800 4180959.4300 305.53 
577616.9099 4180959.0300 306.30 
577617.7400 4180959.1600 306.65 
577618.1399 4180959.5100 304.38 
577618.2900 4180959.0900 306.35 
577619.1101 4180959.2200 306.68 
577619.7100 4180959.0900 307.42 
577620.4900 4180959.4700 307.29 
577621.0500 4180959.0699 306.94 
577621.8301 4180959.4499 306.72 
577622.3601 4180959.4200 306.31 
577589.8801 4180960.0800 295.89 
577590.4299 4180959.6300 295.88 
577591.1999 4180959.6600 296.04 
577591.6599 4180960.1200 295.96 
577592.4900 4180959.6700 296.11 
577592.9800 4180959.9200 296.02 
577593.8100 4180959.6100 296.29 
577594.2900 4180960.0500 296.20 
577595.1301 4180959.8500 296.31 
577595.6699 4180959.6600 296.41 
577596.4299 4180960.0900 296.41 
577597.0100 4180959.6600 296.36 
577597.8301 4180959.6200 296.43 
577598.3601 4180959.7100 296.42 
577599.2100 4180959.7400 296.78 
577599.7200 4180959.6500 296.43 
577600.5500 4180959.7900 296.60 
577601.1201 4180959.6300 297.40 
577602.0500 4180959.6800 299.12 
577602.6201 4180959.8900 299.71 
577603.4600 4180959.9499 299.91 
577604.0400 4180959.9600 300.13 
577604.8999 4180959.7500 300.18 
577605.5100 4180959.5900 300.76 
577606.3501 4180959.8900 301.12 
577606.8899 4180960.0699 301.32 
577607.7600 4180959.9499 301.23 
577609.3999 4180959.8400 305.48 
577610.7600 4180959.8300 305.48 
577611.2600 4180960.0000 305.07 
577612.1201 4180959.8400 305.36 
577612.6999 4180959.9399 306.06 
577613.6499 4180960.1200 308.68 
577613.7800 4180959.9900 300.87 
577614.2400 4180960.0800 309.24 
577614.8301 4180959.8600 304.70 
577616.2200 4180959.9800 305.29 
577616.7700 4180960.1000 305.59 
577616.8501 4180959.6000 306.28 
577617.7100 4180959.7700 307.20 
577619.6301 4180959.6000 306.74 
577620.4299 4180960.0200 307.11 
577620.8801 4180960.1100 305.78 
577621.0100 4180959.6700 307.37 
577621.7200 4180959.9300 305.68 
577622.2800 4180959.9600 305.82 
577589.8100 4180960.6400 295.66 
577590.3701 4180960.2100 295.78 
577591.1399 4180960.2300 295.96 
577591.6101 4180960.6899 296.08 
577592.9299 4180960.5000 296.06 
577593.7600 4180960.1899 296.33 
577594.2500 4180960.6300 296.40 
577595.0701 4180960.4100 296.28 
577595.6201 4180960.2200 296.34 
577596.3701 4180960.6600 296.39 
577596.9600 4180960.2200 296.31 
577597.7800 4180960.1899 296.40 
577598.3100 4180960.2900 296.39 
577599.1399 4180960.3000 296.60 
577599.6799 4180960.2200 296.52 
577600.4900 4180960.3600 296.44 
577601.0400 4180960.1600 296.75 
577602.0200 4180960.2900 299.48 
577602.5701 4180960.4700 299.79 
577603.4099 4180960.5300 300.02 
577604.0000 4180960.5500 300.35 
577604.8601 4180960.3300 300.39 
577605.4700 4180960.1700 300.96 
577606.3000 4180960.4800 301.22 
577606.8501 4180960.6500 301.43 
577607.7100 4180960.5100 301.16 
577608.4800 4180960.3400 305.14 
577609.3701 4180960.4399 305.99 
577609.8899 4180960.1999 305.23 
577610.6999 4180960.3700 305.22 
577611.2400 4180960.6300 305.73 
577612.1301 4180960.5000 306.63 
577612.6799 4180960.5601 306.66 
577613.5701 4180960.6300 308.11 
577615.2700 4180960.6899 304.27 
577616.1899 4180960.6000 305.97 
577616.7300 4180960.6899 305.82 
577617.4600 4180960.6700 304.17 
577617.6301 4180960.2900 306.74 
577618.1499 4180960.1899 305.74 
577619.0400 4180960.4300 307.53 
577619.5701 4180960.1600 306.60 
577620.3801 4180960.5900 307.16 
577621.6999 4180960.5500 306.26 
577622.2200 4180960.5100 305.63 
577589.7700 4180961.2300 295.86 
577590.3301 4180960.7800 295.83 
577591.0901 4180960.8101 296.02 
577591.5400 4180961.2500 295.76 
577592.3801 4180960.8199 296.05 
577592.7700 4180960.7700 302.85 
577592.8701 4180961.0699 296.00 
577593.6999 4180960.7600 296.27 
577594.1799 4180961.1800 296.07 
577595.0200 4180961.0000 296.38 
577595.5701 4180960.8101 296.50 
577596.3301 4180961.2500 296.60 
577596.9099 4180960.7900 296.33 
577597.7200 4180960.7700 296.38 
577598.2500 4180960.8600 296.32 
577599.0801 4180960.8400 296.37 
577599.6301 4180960.8101 296.73 
577600.4399 4180960.9300 296.41 
577600.9700 4180960.6999 296.46 
577601.7700 4180961.2100 296.71 
577601.9800 4180960.8800 299.84 
577602.5200 4180961.0400 299.91 
577603.3601 4180961.1100 300.04 
577603.9499 4180961.1300 300.49 
577604.8100 4180960.9000 300.42 
577605.4099 4180960.7200 300.78 
577606.2400 4180961.0500 301.15 
577606.7900 4180961.2200 301.43 
577607.6499 4180961.0800 301.07 
577608.4099 4180960.8800 304.78 
577609.3000 4180961.0000 305.77 
577609.8601 4180960.8101 305.82 
577610.6699 4180960.9900 305.75 
577611.1999 4180961.2200 305.99 
577614.0500 4180961.0900 307.54 
577614.9600 4180960.7200 308.49 
577616.1201 4180961.1300 305.52 
577617.9900 4180961.2200 304.52 
577618.1301 4180960.8000 306.32 
577618.4099 4180960.6999 296.52 
577618.8501 4180960.7700 304.75 
577619.5701 4180960.8101 307.72 
577620.3201 4180961.1500 307.12 
577620.8801 4180960.7600 306.78 
577621.6999 4180961.2100 307.51 
577622.1899 4180961.1400 306.26 
577622.4900 4180960.8700 296.03 
577590.2800 4180961.3600 296.01 
577591.0400 4180961.3900 296.12 
577592.3401 4180961.4100 296.25 
577592.8301 4180961.6700 296.27 
577593.6499 4180961.3300 296.25 
577594.1399 4180961.7800 296.34 
577594.9800 4180961.5900 296.59 
577595.5200 4180961.3900 296.55 
