# .PCD v.7 - Point Cloud Data file format
VERSION .7
FIELDS x y z
SIZE 4 4 4
TYPE F F F
COUNT 1 1 1
WIDTH 147
HEIGHT 1
VIEWPOINT 0 0 0 1 0 0 0
POINTS 147
DATA ascii
577619.3125 4180955.5 303.559997559
577619.875 4180955.5 303.790008545
577616.5 4180955.75 303.5
577617 4180956 303.179992676
577619.1875 4180956 303
577619.8125 4180956 304.570007324
577620.6875 4180955.75 304.170013428
577621.1875 4180956 304.029998779
577615.625 4180956.5 303.309997559
577616.5 4180956.5 304.160003662
577617 4180956.5 303.519989014
577618.4375 4180956.75 304.519989014
577619.1875 4180956.75 303.489990234
577619.75 4180956.5 304.420013428
577620.625 4180956.5 304.359985352
577621.0625 4180956.5 303.369995117
577616.4375 4180957 304.350006104
577617 4180957.25 304.200012207
577617.8125 4180957.25 304.809997559
577617.875 4180956.75 305.040008545
577618.375 4180957.25 304.890014648
577619.75 4180957.25 304.390014648
577620.5625 4180957 303.929992676
577621.0625 4180957 303.660003662
577616.375 4180957.75 304.609985352
577617 4180957.75 305.329986572
577619.25 4180957.5 305.779998779
577619.6875 4180957.75 304.660003662
577620.5 4180957.5 304.179992676
577621 4180957.5 303.100006104
577622.5625 4180957.75 307.089996338
577615.5 4180958.5 304.160003662
577616.375 4180958.25 305.489990234
577617.8125 4180958 305.859985352
577618.375 4180958 306.260009766
577619.1875 4180958 305.380004883
577620.5625 4180958.25 305.970001221
577622.5 4180958.25 306.910003662
577614.875 4180958.75 303.649993896
577615.375 4180959 303.559997559
577616.375 4180959 305.760009766
577616.9375 4180958.5 306.209991455
577617.8125 4180958.5 306.700012207
577618.3125 4180958.5 305.890014648
577619.125 4180958.75 306.380004883
577619.75 4180958.5 306.429992676
577620.5 4180958.75 306.660003662
577621.125 4180958.5 306.880004883
577621.875 4180958.75 306.059997559
577622.4375 4180959 306.799987793
577615.375 4180959.5 303.630004883
577616.25 4180959.5 305.529998779
577616.9375 4180959 306.299987793
577617.75 4180959.25 306.649993896
577618.3125 4180959 306.350006104
577619.125 4180959.25 306.679992676
577619.6875 4180959 307.420013428
577620.5 4180959.5 307.290008545
577621.0625 4180959 306.940002441
577621.8125 4180959.5 306.720001221
577622.375 4180959.5 306.309997559
577614.8125 4180959.75 304.700012207
577616.25 4180960 305.290008545
577616.75 4180960 305.589996338
577616.875 4180959.5 306.279998779
577617.6875 4180959.75 307.200012207
577619.625 4180959.5 306.739990234
577620.4375 4180960 307.109985352
577620.875 4180960 305.779998779
577621 4180959.75 307.369995117
577621.75 4180960 305.679992676
577622.25 4180960 305.820007324
577615.25 4180960.75 304.269989014
577616.1875 4180960.5 305.970001221
577616.75 4180960.75 305.820007324
577617.4375 4180960.75 304.170013428
577617.625 4180960.25 306.739990234
577618.125 4180960.25 305.739990234
577619.0625 4180960.5 307.529998779
577619.5625 4180960.25 306.600006104
577620.375 4180960.5 307.160003662
577621.6875 4180960.5 306.260009766
577622.25 4180960.5 305.630004883
577616.125 4180961.25 305.519989014
577618 4180961.25 304.519989014
577618.125 4180960.75 306.320007324
577618.875 4180960.75 304.75
577619.5625 4180960.75 307.720001221
577620.3125 4180961.25 307.119995117
577620.875 4180960.75 306.779998779
577621.6875 4180961.25 307.510009766
577622.1875 4180961.25 306.260009766
577615.25 4180961.25 304.600006104
577616.125 4180961.75 306.420013428
577616.6875 4180961.25 305.670013428
577617.4375 4180961.25 305.399993896
577619.5 4180961.25 306.730010986
577620.875 4180961.5 307.510009766
577621.625 4180961.75 307.570007324
577622.125 4180961.75 305.649993896
577617.4375 4180962 306.100006104
577618 4180962 306.230010986
577618.8125 4180962 305.619995117
577619.4375 4180962 306.920013428
577620.1875 4180962.25 306.5
577620.75 4180962 306.670013428
577621.5625 4180962.25 306.890014648
577622.0625 4180962.25 305.350006104
577622.875 4180962.25 305
577616.5625 4180962.5 306.059997559
577617.375 4180962.5 305.290008545
577617.9375 4180962.5 306.149993896
577618.75 4180962.5 306.209991455
577619.375 4180962.5 306.779998779
577620.0625 4180962.75 305.450012207
577622.125 4180963 307.549987793
577622.875 4180962.75 305.709991455
577617.9375 4180963 306.130004883
577618.6875 4180963.25 306.309997559
577619.3125 4180963 306.690002441
577620.0625 4180963.25 306.480010986
577621.5625 4180963 308.089996338
577617.1875 4180963.5 304.75
577617.75 4180964 304.450012207
577617.875 4180963.5 306.119995117
577618.6875 4180963.75 306.600006104
577619.3125 4180963.75 307.410003662
577620.0625 4180964 307.579986572
577620.625 4180963.5 306.559997559
577621.375 4180964 306.880004883
577621.5 4180963.5 308.010009766
577622.0625 4180963.5 307.950012207
577617.125 4180964 304.630004883
577618.625 4180964.25 306.529998779
577619.1875 4180964.25 306.839996338
577620.0625 4180964.5 307.970001221
577620.5625 4180964.25 307.339996338
577621.375 4180964.5 307.179992676
577621.9375 4180964.5 307.320007324
577622 4180964 307.850006104
577617.0625 4180964.75 304.089996338
577619.1875 4180964.75 307.010009766
577620.5625 4180964.75 307.829986572
577621.3125 4180965.25 307.299987793
577621.8125 4180965.25 306.75
577620.5 4180965.5 308.010009766
577622.625 4180965.75 307.010009766
