# .PCD v.7 - Point Cloud Data file format
VERSION .7
FIELDS x y z
SIZE 4 4 4
TYPE F F F
COUNT 1 1 1
WIDTH 85
HEIGHT 1
VIEWPOINT 0 0 0 1 0 0 0
POINTS 85
DATA ascii
577598.4 4180965 304.75
577596.6 4180963 304.76
577601.4 4180964 309.46
577600.9 4180964 309.48
577600.8 4180965 309.48
577595.8 4180964 304.97
577599.2 4180964 304.97
577596.5 4180965 304.97
577596.4 4180965 304.99
577596.6 4180964 305.07
577602 4180966 309.62
577598.3 4180966 305.18
577597.8 4180966 305.29
577600.6 4180967 309.94
577596.9 4180966 305.5
577601.2 4180967 310.05
577599.8 4180967 310.1
577597.8 4180966 305.58
577601.1 4180968 310.17
577601.2 4180966 310.19
577597.1 4180964 305.66
577597.1 4180965 305.67
577595.8 4180965 305.89
577595.8 4180964 305.93
577593.6 4180968 306.51
577595.2 4180965 306.53
577595.6 4180967 306.55
577594.4 4180965 306.6
577595.7 4180966 306.63
577595 4180968 306.65
577599.8 4180966 306.67
577598.3 4180967 306.95
577593.8 4180967 307.07
577599.3 4180965 307.12
577595.2 4180966 307.21
577596.5 4180966 307.22
577595.3 4180965 307.23
577597 4180967 307.25
577594.4 4180966 307.42
577594.2 4180967 307.43
577595.1 4180967 307.44
577599.9 4180965 307.48
577599.9 4180964 307.6
577594.4 4180966 307.63
577597.8 4180967 307.65
577599.2 4180966 307.74
577593.8 4180967 307.75
577597.8 4180967 307.77
577594.2 4180968 307.77
577593.9 4180966 307.8
577595.2 4180966 307.98
577598.3 4180968 307.98
577598.4 4180966 307.99
577596.4 4180968 308.04
577597 4180967 308.1
577594.4 4180967 308.18
577594.4 4180964 303.68
577595.6 4180968 308.28
577597.9 4180964 303.75
577596.4 4180967 308.34
577596.5 4180967 308.35
577599.2 4180967 308.36
577599.2 4180966 308.38
577601.2 4180966 308.41
577594.4 4180964 303.91
577595.8 4180963 303.92
577600.7 4180965 308.48
577595.2 4180963 304.01
577597.8 4180965 304.01
577595.8 4180966 308.66
577593.9 4180966 308.8
577599.2 4180968 308.82
577597.1 4180964 304.32
577600.6 4180966 308.9
577595.2 4180964 304.39
577600.8 4180964 308.94
577601.3 4180964 308.96
577599.8 4180964 304.45
577599.8 4180966 309.03
577596.6 4180964 304.51
577599.8 4180968 309.06
577600.5 4180968 309.06
577601.2 4180965 309.1
577600.7 4180966 309.1
577596.9 4180966 304.59
