# .PCD v.7 - Point Cloud Data file format
VERSION .7
FIELDS x y z
SIZE 4 4 4
TYPE F F F
COUNT 1 1 1
WIDTH 355
HEIGHT 1
VIEWPOINT 0 0 0 1 0 0 0
POINTS 355
DATA ascii
577612.7 4180957 300.17
577614.2 4180954 300.18
577604.9 4180960 300.18
577607.3 4180955 300.19
577605.8 4180956 300.19
577609.3 4180948 300.2
577608.8 4180964 300.2
577614.2 4180955 300.21
577613.9 4180952 300.22
577608.6 4180950 300.23
577607.5 4180952 300.23
577603.3 4180962 300.23
577606.7 4180956 300.24
577608.4 4180952 300.26
577614.4 4180952 300.26
577604.9 4180959 300.26
577614.3 4180954 300.28
577612.6 4180958 300.28
577614.5 4180952 300.3
577612.9 4180954 300.3
577605 4180958 300.29
577612.8 4180956 300.31
577610.2 4180948 300.32
577609.2 4180950 300.32
577613.9 4180952 300.33
577606.8 4180955 300.33
577605.8 4180957 300.33
577611.2 4180957 300.36
577604 4180960 300.35
577610.8 4180957 300.37
577611.2 4180958 300.37
577607.9 4180964 300.37
577614.6 4180951 300.38
577613.8 4180953 300.38
577610.7 4180948 300.39
577610.2 4180948 300.39
577613 4180953 300.39
577612.2 4180956 300.39
577611.3 4180957 300.39
577605.7 4180957 300.39
577604.9 4180960 300.39
577613.1 4180953 300.4
577610.1 4180949 300.41
577606.5 4180958 300.41
577604.8 4180961 300.42
577603.9 4180962 300.42
577607.4 4180964 300.42
577609.1 4180950 300.43
577607.4 4180954 300.43
577610.8 4180956 300.43
577614 4180952 300.44
577608.4 4180953 300.44
577612.2 4180956 300.45
577609.1 4180952 300.46
577608.3 4180954 300.47
577607.2 4180956 300.47
577611.4 4180955 300.48
577609.7 4180959 300.48
577603.9 4180961 300.49
577610.1 4180950 300.5
577612.9 4180955 300.5
577612.3 4180955 300.52
577614.7 4180950 300.53
577608 4180963 300.54
577613.1 4180952 300.56
577611.4 4180956 300.56
577611.9 4180959 300.56
577613.2 4180952 300.57
577607.4 4180954 300.57
577606.6 4180956 300.57
577606.6 4180957 300.58
577607.4 4180963 300.58
577610 4180950 300.6
577611.4 4180956 300.61
577607.9 4180964 300.61
577611.5 4180954 300.62
577604.7 4180962 300.62
577609 4180952 300.63
577612.4 4180954 300.63
577604.8 4180962 300.63
577614.1 4180950 300.64
577608.9 4180953 300.65
577611.6 4180948 300.68
577608.8 4180954 300.68
577608.2 4180954 300.68
577612.9 4180954 300.69
577607.5 4180962 300.71
577614.1 4180951 300.72
577607.2 4180956 300.72
577607.1 4180958 300.72
577608.9 4180952 300.73
577608.1 4180956 300.73
577609.2 4180959 300.73
577608.1 4180962 300.73
577612.4 4180954 300.75
577610.9 4180956 300.75
577608.2 4180955 300.76
577610.9 4180956 300.76
577605.5 4180960 300.76
577605.4 4180961 300.78
577613.3 4180950 300.79
577612.6 4180952 300.8
577612.5 4180953 300.8
577608.8 4180954 300.8
577611 4180955 300.79
577605.7 4180958 300.8
577610.7 4180958 300.8
577607 4180958 300.8
577613.2 4180951 300.81
577608.1 4180956 300.82
577609.9 4180958 300.83
577607.5 4180963 300.83
577613.3 4180950 300.84
577614.2 4180950 300.84
577605.6 4180958 300.84
577606.5 4180958 300.84
577612.7 4180952 300.86
577606.6 4180964 300.86
577607.2 4180956 300.87
577604.7 4180963 300.87
577609.8 4180953 300.9
577608.6 4180956 300.9
577609.4 4180957 300.9
577605.6 4180959 300.9
577610.7 4180949 300.91
577612.8 4180951 300.91
577610 4180951 300.92
577609.2 4180958 300.93
577611.6 4180954 300.94
577609.8 4180958 300.94
577609.9 4180952 300.95
577608.8 4180955 300.95
577610 4180956 300.95
577610.6 4180950 300.96
577610.4 4180952 300.96
577610.1 4180956 300.96
577605.5 4180960 300.96
577609.8 4180952 300.97
577606.6 4180963 300.97
577612 4180950 300.98
577611.7 4180953 300.98
577610.6 4180950 300.99
577608.2 4180955 300.99
577609.9 4180957 300.99
577609.9 4180952 301
577610.1 4180955 301
577607.1 4180957 301.01
577608 4180957 301.02
577608 4180958 301.01
577605.3 4180962 301.01
577612.6 4180952 301.03
577609.3 4180958 301.03
577606.4 4180959 301.03
577609.8 4180954 301.04
577610.7 4180958 301.05
577605.4 4180961 301.05
577610.3 4180953 301.08
577609.4 4180956 301.07
577607.6 4180961 301.07
577609.7 4180954 301.09
577606.9 4180960 301.09
577609.8 4180959 301.1
577606 4180963 301.1
577606.4 4180960 301.12
577611.6 4180954 301.13
577608.4 4180958 301.13
577608.4 4180959 301.14
577607 4180959 301.15
577606.2 4180961 301.15
577608.6 4180956 301.16
577606.4 4180959 301.16
577607.7 4180960 301.16
577613.4 4180949 301.17
577607.8 4180960 301.17
577607.9 4180958 301.18
577611.8 4180952 301.19
577611.8 4180952 301.2
577608.4 4180960 301.2
577606.2 4180962 301.2
577610.5 4180951 301.21
577610.2 4180954 301.22
577608.7 4180956 301.22
577608.6 4180957 301.22
577606.3 4180960 301.22
577607.8 4180960 301.23
577606.7 4180962 301.24
577607.6 4180962 301.25
577612.1 4180949 301.26
577611.1 4180954 301.26
577608.5 4180958 301.27
577607.9 4180959 301.26
577606.8 4180962 301.26
577610.6 4180951 301.3
577611.9 4180951 301.29
577610.6 4180959 301.31
577611.9 4180950 301.33
577612.8 4180950 301.32
577610.2 4180954 301.33
577606.9 4180960 301.32
577609.6 4180956 301.34
577605.2 4180962 301.35
577610.4 4180952 301.37
577612 4180950 301.38
577606.1 4180963 301.38
577611.6 4180949 301.42
577612.9 4180949 301.42
577611.5 4180950 301.42
577610.2 4180955 301.42
577609.6 4180955 301.43
577606.9 4180961 301.43
577606.8 4180961 301.43
577609.5 4180956 301.44
577611.1 4180954 301.49
577611.2 4180953 301.5
577606.1 4180962 301.51
577612.9 4180950 301.55
577611.2 4180953 301.61
577611.4 4180951 301.65
577611.4 4180950 301.66
577611.2 4180952 301.68
577611.3 4180952 301.81
577602.1 4180959 298.81
577606.2 4180951 298.97
577602.1 4180960 299.12
577607.8 4180948 299.16
577614.9 4180956 299.19
577607.2 4180949 299.21
577616.6 4180952 299.21
577605.5 4180953 299.23
577615.6 4180954 299.24
577616.6 4180952 299.29
577610.6 4180964 299.3
577616.7 4180952 299.32
577603.8 4180956 299.36
577602.7 4180959 299.38
577610 4180964 299.39
577605.4 4180954 299.4
577603.8 4180956 299.4
577615.8 4180953 299.44
577615.7 4180954 299.44
577605.4 4180954 299.44
577609.9 4180965 299.44
577607.8 4180950 299.45
577607.1 4180950 299.45
577614.1 4180956 299.45
577614 4180956 299.45
577604.4 4180955 299.46
577607.8 4180949 299.47
577602.7 4180959 299.47
577602 4180960 299.48
577607.9 4180948 299.49
577607.2 4180950 299.49
577615 4180955 299.49
577614 4180957 299.5
577607.2 4180950 299.51
577615.2 4180952 299.52
577604.4 4180956 299.52
577613.5 4180956 299.52
577603.6 4180958 299.52
577602.8 4180958 299.51
577610.6 4180964 299.51
577606.2 4180952 299.55
577606.1 4180952 299.55
577606.1 4180952 299.55
577604.5 4180955 299.57
577615.8 4180952 299.61
577606 4180954 299.61
577615.1 4180954 299.6
577605.4 4180954 299.61
577614.8 4180957 299.62
577615.9 4180951 299.63
577615.1 4180954 299.64
577608.8 4180948 299.66
577615.9 4180952 299.66
577605.9 4180955 299.66
577603.7 4180957 299.67
577609.3 4180963 299.67
577608.8 4180948 299.68
577604.3 4180956 299.68
577615.3 4180958 299.69
577606.1 4180953 299.7
577604.2 4180957 299.71
577602.6 4180960 299.71
577614.1 4180955 299.72
577613.9 4180958 299.72
577609.3 4180948 299.73
577607 4180952 299.73
577613.6 4180956 299.73
577613.4 4180958 299.73
577609.4 4180947 299.74
577614.8 4180958 299.74
577615.2 4180953 299.75
577603.6 4180958 299.75
577604.2 4180958 299.76
577603.6 4180959 299.77
577608.6 4180964 299.77
577608.9 4180947 299.78
577607.7 4180950 299.78
577615.9 4180950 299.79
577613.4 4180957 299.79
577602.6 4180960 299.79
577605.2 4180956 299.81
577606.9 4180953 299.83
577606.9 4180954 299.83
577609.2 4180964 299.83
577607.7 4180951 299.84
577612.6 4180957 299.84
577602 4180961 299.84
577608.8 4180949 299.86
577605.3 4180955 299.86
577609.4 4180963 299.89
577609.2 4180964 299.89
577608.5 4180951 299.9
577603.4 4180960 299.91
577602.5 4180961 299.91
577605.9 4180954 299.92
577605.2 4180957 299.92
577605.1 4180958 299.92
577604.2 4180958 299.93
577615.4 4180951 299.94
577615.3 4180952 299.94
577613.8 4180954 299.95
577604.1 4180959 299.95
577607.4 4180953 299.97
577613.6 4180956 299.97
577612.8 4180956 299.97
577607.1 4180951 300.01
577605.8 4180956 300.01
577605.1 4180958 300.02
577603.5 4180960 300.01
577603.4 4180960 300.02
577607.6 4180952 300.03
577613.3 4180958 300.03
577608.7 4180964 300.03
577608.6 4180951 300.05
577603.4 4180961 300.04
577608.7 4180950 300.06
577614.6 4180951 300.06
577613.8 4180954 300.06
577609.2 4180949 300.08
577609.1 4180951 300.07
577607.1 4180952 300.07
577606.8 4180954 300.07
577612.1 4180957 300.08
577614.4 4180953 300.09
577613.7 4180955 300.09
577615.4 4180952 300.11
577605.2 4180956 300.11
577604.1 4180960 300.1
577615.5 4180950 300.12
577604.1 4180960 300.13
577608.4 4180952 300.14
577607.6 4180952 300.16
577606.8 4180955 300.16
577612.2 4180956 300.16
