# .PCD v.7 - Point Cloud Data file format
VERSION .7
FIELDS x y z
SIZE 4 4 4
TYPE F F F
COUNT 1 1 1
WIDTH 147
HEIGHT 1
VIEWPOINT 0 0 0 1 0 0 0
POINTS 147
DATA ascii
577618.9 4180961 304.75
577617.2 4180964 304.75
577617.8 4180957 304.81
577618.4 4180957 304.89
577622.9 4180962 305
577617.9 4180957 305.04
577616.2 4180960 305.29
577617.4 4180962 305.29
577617 4180958 305.33
577622.1 4180962 305.35
577619.2 4180958 305.38
577617.4 4180961 305.4
577620.1 4180963 305.45
577616.4 4180958 305.49
577616.1 4180961 305.52
577616.2 4180960 305.53
577616.8 4180960 305.59
577618.8 4180962 305.62
577622.2 4180960 305.63
577622.1 4180962 305.65
577616.7 4180961 305.67
577621.8 4180960 305.68
577622.9 4180963 305.71
577618.1 4180960 305.74
577616.4 4180959 305.76
577619.2 4180958 305.78
577620.9 4180960 305.78
577622.2 4180960 305.82
577616.8 4180961 305.82
577617.8 4180958 305.86
577618.3 4180958 305.89
577620.6 4180958 305.97
577616.2 4180960 305.97
577621.9 4180959 306.06
577616.6 4180962 306.06
577617.4 4180962 306.1
577617.9 4180964 306.12
577617.9 4180963 306.13
577617.9 4180962 306.15
577616.9 4180958 306.21
577618.8 4180962 306.21
577618 4180962 306.23
577618.4 4180958 306.26
577621.7 4180960 306.26
577622.2 4180961 306.26
577616.9 4180960 306.28
577616.9 4180959 306.3
577622.4 4180960 306.31
577618.7 4180963 306.31
577618.1 4180961 306.32
577618.3 4180959 306.35
577619.1 4180959 306.38
577616.1 4180962 306.42
577619.8 4180958 306.43
577620.1 4180963 306.48
577620.2 4180962 306.5
577618.6 4180964 306.53
577620.6 4180964 306.56
577619.6 4180960 306.6
577618.7 4180964 306.6
577617.8 4180959 306.65
577620.5 4180959 306.66
577620.8 4180962 306.67
577619.1 4180959 306.68
577619.3 4180963 306.69
577617.8 4180958 306.7
577621.8 4180960 306.72
577619.5 4180961 306.73
577619.6 4180960 306.74
577617.6 4180960 306.74
577621.8 4180965 306.75
577620.9 4180961 306.78
577619.4 4180962 306.78
577622.4 4180959 306.8
577619.2 4180964 306.84
577621.1 4180958 306.88
577621.4 4180964 306.88
577621.6 4180962 306.89
577622.5 4180958 306.91
577619.4 4180962 306.92
577621.1 4180959 306.94
577619.2 4180965 307.01
577622.6 4180966 307.01
577622.6 4180958 307.09
577620.4 4180960 307.11
577620.3 4180961 307.12
577620.4 4180960 307.16
577621.4 4180964 307.18
577617.7 4180960 307.2
577620.5 4180960 307.29
577621.3 4180965 307.3
577621.9 4180964 307.32
577620.6 4180964 307.34
577621 4180960 307.37
577619.3 4180964 307.41
577619.7 4180959 307.42
577621.7 4180961 307.51
577620.9 4180962 307.51
577619.1 4180960 307.53
577619.2 4180956 303
577622.1 4180963 307.55
577621.6 4180962 307.57
577620.1 4180964 307.58
577621 4180958 303.1
577617 4180956 303.18
577619.6 4180961 307.72
577620.6 4180965 307.83
577615.6 4180956 303.31
577622 4180964 307.85
577621.1 4180956 303.37
577622.1 4180964 307.95
577620.1 4180964 307.97
577621.5 4180964 308.01
577620.5 4180966 308.01
577619.2 4180957 303.49
577616.5 4180956 303.5
577617 4180956 303.52
577621.6 4180963 308.09
577619.3 4180956 303.56
577615.4 4180959 303.56
577615.4 4180960 303.63
577614.9 4180959 303.65
577621.1 4180957 303.66
577619.9 4180956 303.79
577620.6 4180957 303.93
577621.2 4180956 304.03
577617.1 4180965 304.09
577616.5 4180956 304.16
577615.5 4180958 304.16
577620.7 4180956 304.17
577617.4 4180961 304.17
577620.5 4180958 304.18
577617 4180957 304.2
577615.2 4180961 304.27
577620.6 4180956 304.36
577616.4 4180957 304.35
577619.8 4180957 304.39
577619.8 4180956 304.42
577617.8 4180964 304.45
577618.4 4180957 304.52
577618 4180961 304.52
577619.8 4180956 304.57
577616.4 4180958 304.61
577615.2 4180961 304.6
577617.1 4180964 304.63
577619.7 4180958 304.66
577614.8 4180960 304.7
