# .PCD v.7 - Point Cloud Data file format
VERSION .7
FIELDS x y z
SIZE 4 4 4
TYPE F F F
COUNT 1 1 1
WIDTH 355
HEIGHT 1
VIEWPOINT 0 0 0 1 0 0 0
POINTS 355
DATA ascii
577608.875 4180947.25 299.779998779
577609.375 4180947.25 299.739990234
577607.9375 4180948 299.489990234
577608.8125 4180947.75 299.660003662
577609.3125 4180948 299.730010986
577610.25 4180948 300.320007324
577607.25 4180948.75 299.209991455
577607.8125 4180948.5 299.160003662
577608.75 4180948.25 299.679992676
577609.3125 4180948.5 300.200012207
577610.1875 4180948.5 300.390014648
577610.6875 4180948.25 300.390014648
577611.5625 4180948.5 300.679992676
577612.0625 4180948.75 301.260009766
577607.8125 4180949 299.470001221
577608.75 4180949 299.859985352
577609.25 4180949 300.079986572
577610.125 4180949 300.410003662
577610.6875 4180949 300.910003662
577611.5625 4180949.25 301.420013428
577612 4180949.5 300.980010986
577612.875 4180949.25 301.420013428
577613.4375 4180949.25 301.170013428
577607.25 4180949.5 299.510009766
577607.75 4180949.5 299.450012207
577608.6875 4180949.5 300.059997559
577609.1875 4180949.75 300.320007324
577610.0625 4180949.75 300.5
577610.625 4180949.5 300.959991455
577611.5 4180949.75 301.420013428
577612.875 4180949.75 301.549987793
577613.3125 4180949.75 300.839996338
577614.1875 4180949.75 300.839996338
577607.1875 4180950 299.489990234
577607.6875 4180950.25 299.779998779
577608.625 4180950.25 300.230010986
577609.125 4180950.25 300.429992676
577610 4180950.25 300.600006104
577610.5625 4180950.25 300.989990234
577611.4375 4180950.25 301.660003662
577611.9375 4180950.5 301.329986572
577612 4180950 301.380004883
577612.8125 4180950.25 301.320007324
577613.3125 4180950.5 300.790008545
577614.125 4180950.25 300.640014648
577614.6875 4180950.25 300.529998779
577615.5 4180950.25 300.119995117
577606.1875 4180950.75 298.970001221
577607.125 4180950.5 299.450012207
577607.6875 4180950.75 299.839996338
577608.5625 4180950.75 300.049987793
577609.0625 4180950.75 300.070007324
577610 4180951 300.920013428
577610.5625 4180950.75 301.299987793
577611.375 4180951 301.649993896
577611.875 4180951 301.290008545
577612.75 4180951 300.910003662
577613.25 4180951 300.809997559
577614.0625 4180951 300.720001221
577614.625 4180950.75 300.380004883
577615.4375 4180951 299.940002441
577615.9375 4180950.5 299.790008545
577606.1875 4180951.5 299.549987793
577607.125 4180951.25 300.010009766
577607.625 4180951.5 300.029998779
577608.5 4180951.25 299.899993896
577609.0625 4180951.5 300.459991455
577609.9375 4180951.5 300.950012207
577610.5 4180951.25 301.209991455
577611.3125 4180951.5 301.809997559
577612.6875 4180951.5 300.859985352
577613.1875 4180951.5 300.570007324
577614 4180951.5 300.440002441
577614.5625 4180951.25 300.059997559
577615.375 4180951.5 300.109985352
577615.875 4180951.25 299.630004883
577616.6875 4180951.5 299.320007324
577606.125 4180952 299.549987793
577607.0625 4180951.75 300.070007324
577607.5625 4180952 300.160003662
577608.4375 4180951.75 300.140014648
577609 4180952 300.630004883
577609.875 4180952 301
577610.4375 4180952 301.369995117
577611.25 4180952 301.679992676
577611.8125 4180951.75 301.200012207
577612.625 4180952 301.029998779
577613.125 4180952 300.559997559
577613.9375 4180952 300.220001221
577614.5 4180952 300.299987793
577615.3125 4180952 299.940002441
577615.875 4180951.75 299.660003662
577616.625 4180952 299.290008545
577605.5 4180952.75 299.230010986
577606.0625 4180952.5 299.549987793
577607 4180952.25 299.730010986
577607.5 4180952.5 300.230010986
577608.4375 4180952.5 300.260009766
577608.9375 4180952.5 300.730010986
577609.8125 4180952.5 300.970001221
577610.375 4180952.5 300.959991455
577611.25 4180952.75 301.5
577611.75 4180952.25 301.190002441
577612.5625 4180952.5 300.799987793
577613.0625 4180952.75 300.399993896
577613.875 4180952.5 300.329986572
577614.4375 4180952.5 300.260009766
577615.25 4180952.5 299.519989014
577615.8125 4180952.25 299.609985352
577616.5625 4180952.5 299.209991455
577606.0625 4180953.25 299.700012207
577606.9375 4180953 299.829986572
577607.4375 4180953 299.970001221
577608.375 4180953 300.440002441
577608.875 4180953.25 300.649993896
577609.75 4180953.25 300.899993896
577610.3125 4180953 301.079986572
577611.1875 4180953.25 301.609985352
577611.6875 4180952.75 300.980010986
577612.5 4180953.25 300.799987793
577613 4180953.25 300.390014648
577613.8125 4180953.25 300.380004883
577614.375 4180953 300.089996338
577615.1875 4180953.25 299.75
577615.75 4180952.75 299.440002441
577605.4375 4180953.5 299.399993896
577606 4180953.75 299.609985352
577606.875 4180953.5 299.829986572
577607.4375 4180953.75 300.570007324
577608.3125 4180953.5 300.470001221
577608.8125 4180953.75 300.679992676
577609.75 4180953.75 301.040008545
577610.25 4180953.5 301.329986572
577611.125 4180953.75 301.489990234
577611.625 4180953.5 301.130004883
577612.4375 4180953.75 300.75
577612.9375 4180953.75 300.299987793
577613.75 4180953.75 300.059997559
577614.3125 4180953.75 300.279998779
577615.125 4180953.75 299.600006104
577615.6875 4180953.5 299.440002441
577605.375 4180954 299.440002441
577605.9375 4180954.25 299.920013428
577606.8125 4180954 300.070007324
577607.375 4180954.25 300.429992676
577608.25 4180954.25 300.679992676
577608.8125 4180954.25 300.799987793
577609.6875 4180954.25 301.089996338
577610.25 4180954.25 301.220001221
577611.0625 4180954.25 301.260009766
577611.5 4180954.5 300.619995117
577611.5625 4180954 300.940002441
577612.375 4180954.25 300.630004883
577612.9375 4180954.5 300.690002441
577613.75 4180954.25 299.950012207
577614.25 4180954.25 300.179992676
577615.0625 4180954.25 299.640014648
577615.625 4180954 299.239990234
577604.5 4180954.75 299.570007324
577605.375 4180954.5 299.609985352
577605.875 4180955 299.660003662
577606.8125 4180954.75 300.329986572
577607.3125 4180954.75 300.190002441
577608.25 4180954.75 300.989990234
577608.75 4180955 300.950012207
577609.625 4180955 301.429992676
577610.1875 4180954.75 301.420013428
577611 4180954.75 300.790008545
577612.3125 4180954.75 300.519989014
577612.875 4180955 300.5
577613.6875 4180954.75 300.089996338
577614.25 4180954.75 300.209991455
577615 4180954.75 299.489990234
577604.4375 4180955.25 299.459991455
577605.3125 4180955.25 299.859985352
577605.8125 4180955.5 300.010009766
577606.75 4180955.25 300.160003662
577607.25 4180955.5 300.470001221
577608.1875 4180955.25 300.760009766
577608.6875 4180955.5 301.220001221
577609.5625 4180955.5 301.339996338
577610.125 4180955.25 301
577610.9375 4180955.5 300.760009766
577611.4375 4180955 300.480010986
577612.25 4180955.5 300.160003662
577612.8125 4180955.5 300.309997559
577613.625 4180955.5 299.970001221
577614.125 4180955.25 299.720001221
577614.9375 4180955.5 299.190002441
577603.8125 4180956 299.399993896
577604.375 4180956 299.519989014
577605.25 4180955.75 299.809997559
577605.8125 4180956 300.190002441
577606.6875 4180955.75 300.239990234
577607.25 4180956 300.720001221
577608.125 4180956 300.730010986
577608.625 4180956 300.899993896
577609.5 4180956 301.440002441
577610.0625 4180955.75 300.959991455
577610.875 4180956 300.75
577611.4375 4180955.75 300.609985352
577612.1875 4180956 300.450012207
577612.75 4180956 299.970001221
577613.5625 4180956 299.730010986
577614.0625 4180955.75 299.450012207
577603.75 4180956.5 299.359985352
577604.3125 4180956.5 299.679992676
577605.25 4180956.25 300.109985352
577605.75 4180956.75 300.329986572
577606.625 4180956.5 300.570007324
577607.1875 4180956.5 300.869995117
577608.0625 4180956.5 300.820007324
577608.625 4180956.5 301.160003662
577609.4375 4180956.5 301.070007324
577610 4180956.5 300.950012207
577610.8125 4180956.5 300.429992676
577611.375 4180956.25 300.559997559
577612.1875 4180956.5 300.390014648
577612.6875 4180956.75 300.170013428
577613.5 4180956.5 299.519989014
577614 4180956.5 299.450012207
577603.6875 4180957 299.670013428
577604.25 4180957 299.709991455
577605.1875 4180956.75 299.920013428
577605.6875 4180957.25 300.390014648
577606.5625 4180957 300.579986572
577607.125 4180957.25 301.010009766
577608 4180957 301.019989014
577608.5625 4180957.25 301.220001221
577609.375 4180957.25 300.899993896
577609.9375 4180957 300.989990234
577610.75 4180957 300.369995117
577611.3125 4180956.75 300.390014648
577612.0625 4180957 300.079986572
577612.625 4180957.25 299.839996338
577613.4375 4180957 299.790008545
577614 4180957 299.5
577614.8125 4180957.25 299.619995117
577603.625 4180957.75 299.519989014
577604.25 4180957.75 299.760009766
577605.125 4180957.5 299.920013428
577605.6875 4180957.75 300.799987793
577606.5 4180957.5 300.410003662
577607.0625 4180957.75 300.720001221
577608 4180957.75 301.010009766
577608.5 4180957.75 301.269989014
577609.3125 4180957.75 301.029998779
577609.875 4180957.5 300.829986572
577610.6875 4180957.75 300.799987793
577611.25 4180957.25 300.359985352
577612.5625 4180957.75 300.279998779
577613.375 4180957.75 299.730010986
577613.9375 4180957.5 299.720001221
577614.75 4180957.75 299.739990234
577615.3125 4180957.5 299.690002441
577602.75 4180958.25 299.510009766
577603.625 4180958.25 299.75
577604.1875 4180958.25 299.929992676
577605.0625 4180958 300.019989014
577606.5 4180958.25 300.839996338
577607 4180958.25 300.799987793
577607.9375 4180958.25 301.179992676
577608.4375 4180958.25 301.130004883
577609.25 4180958.25 300.929992676
577609.8125 4180958.25 300.940002441
577610.6875 4180958.25 301.049987793
577611.1875 4180958 300.369995117
577613.3125 4180958.25 300.029998779
577602.6875 4180958.75 299.380004883
577603.5625 4180958.75 299.769989014
577604.125 4180958.75 299.950012207
577605 4180958.5 300.290008545
577605.625 4180958.5 300.839996338
577606.4375 4180958.75 301.029998779
577607 4180959 301.149993896
577607.875 4180958.75 301.260009766
577608.375 4180959 301.140014648
577609.25 4180959 300.730010986
577609.8125 4180958.75 301.100006104
577610.625 4180959 301.309997559
577611.9375 4180959 300.559997559
577602.0625 4180959 298.809997559
577602.6875 4180959.25 299.470001221
577603.5 4180959.5 300.010009766
577604.0625 4180959.5 300.100006104
577604.9375 4180959.25 300.260009766
577605.5625 4180959 300.899993896
577606.4375 4180959.25 301.160003662
577606.9375 4180959.5 301.089996338
577607.8125 4180959.5 301.170013428
577608.375 4180959.5 301.200012207
577609.6875 4180959.25 300.480010986
577602.0625 4180959.75 299.119995117
577602.625 4180960 299.709991455
577603.4375 4180960 299.910003662
577604.0625 4180960 300.130004883
577604.875 4180959.75 300.179992676
577605.5 4180959.5 300.760009766
577606.375 4180960 301.119995117
577606.875 4180960 301.320007324
577607.75 4180960 301.230010986
577602 4180960.25 299.480010986
577602.5625 4180960.5 299.790008545
577603.4375 4180960.5 300.019989014
577604 4180960.5 300.350006104
577604.875 4180960.25 300.390014648
577605.5 4180960.25 300.959991455
577606.3125 4180960.5 301.220001221
577606.875 4180960.75 301.429992676
577607.6875 4180960.5 301.160003662
577602 4180961 299.839996338
577602.5 4180961 299.910003662
577603.375 4180961 300.040008545
577603.9375 4180961.25 300.489990234
577604.8125 4180961 300.420013428
577605.4375 4180960.75 300.779998779
577606.25 4180961 301.149993896
577606.8125 4180961.25 301.429992676
577607.625 4180961 301.070007324
577603.3125 4180961.75 300.230010986
577603.875 4180961.75 300.420013428
577604.75 4180961.5 300.630004883
577605.375 4180961.25 301.049987793
577606.1875 4180961.5 301.200012207
577606.75 4180961.75 301.260009766
577607.625 4180961.75 301.25
577608.125 4180961.75 300.730010986
577604.6875 4180962 300.619995117
577605.3125 4180962 301.010009766
577606.125 4180962.25 301.510009766
577606.6875 4180962.25 301.239990234
577607.5 4180962.25 300.709991455
577604.6875 4180962.75 300.869995117
577605.25 4180962.5 301.350006104
577606.0625 4180962.75 301.380004883
577606.625 4180963 300.970001221
577607.5 4180962.75 300.829986572
577608 4180962.75 300.540008545
577609.375 4180962.75 299.890014648
577606 4180963.25 301.100006104
577606.5625 4180963.5 300.859985352
577607.4375 4180963.25 300.579986572
577607.9375 4180963.5 300.609985352
577608.75 4180963.5 300.200012207
577609.3125 4180963.25 299.670013428
577607.375 4180964 300.420013428
577607.875 4180964 300.369995117
577608.6875 4180964 300.029998779
577609.25 4180963.75 299.890014648
577610.625 4180963.5 299.510009766
577608.625 4180964.5 299.769989014
577609.1875 4180964.25 299.829986572
577610 4180964.5 299.390014648
577610.5625 4180964 299.299987793
577609.9375 4180965 299.440002441
