# .PCD v.7 - Point Cloud Data file format
VERSION .7
FIELDS x y z
SIZE 4 4 4
TYPE F F F
COUNT 1 1 1
WIDTH 111
HEIGHT 1
VIEWPOINT 0 0 0 1 0 0 0
POINTS 111
DATA ascii
577612.25 4180958 304.850006104
577611.3125 4180958.75 303.940002441
577612.1875 4180958.75 304.809997559
577612.75 4180958.75 304.959991455
577614.3125 4180959 309.029998779
577611.25 4180959.5 304.339996338
577612.6875 4180959.25 304.690002441
577613.6875 4180959.5 308.459991455
577614.3125 4180959.5 309.200012207
577609.375 4180959.75 305.480010986
577610.75 4180959.75 305.480010986
577611.25 4180960 305.070007324
577612.125 4180959.75 305.359985352
577612.6875 4180960 306.059997559
577613.625 4180960 308.679992676
577614.25 4180960 309.239990234
577608.5 4180960.25 305.140014648
577609.375 4180960.5 305.989990234
577609.875 4180960.25 305.230010986
577610.6875 4180960.25 305.220001221
577611.25 4180960.75 305.730010986
577612.125 4180960.5 306.630004883
577612.6875 4180960.5 306.660003662
577613.5625 4180960.75 308.109985352
577608.4375 4180961 304.779998779
577609.3125 4180961 305.769989014
577609.875 4180960.75 305.820007324
577610.6875 4180961 305.75
577611.1875 4180961.25 305.989990234
577614.0625 4180961 307.540008545
577614.9375 4180960.75 308.489990234
577608.4375 4180961.5 305.790008545
577609.25 4180961.5 305.839996338
577609.8125 4180961.5 306.369995117
577610.5625 4180961.5 304.839996338
577611.125 4180961.75 305.940002441
577612.25 4180961.25 310.130004883
577612.8125 4180961.5 310.480010986
577613.5625 4180961.25 309.720001221
577614.0625 4180961.75 308.519989014
577614.9375 4180961.25 308.540008545
577609.125 4180962 304.480010986
577609.8125 4180962 306.380004883
577610.5625 4180962.25 305.980010986
577612 4180962.25 306.869995117
577612.1875 4180962 309.959991455
577612.75 4180962 310.440002441
577613.5625 4180962 309.970001221
577614 4180962.25 308.980010986
577614.875 4180962 309.429992676
577615.3125 4180962 307.910003662
577609.125 4180962.75 305.040008545
577609.6875 4180962.5 305.029998779
577610.5625 4180962.75 306.989990234
577611.125 4180962.5 306.950012207
577612 4180963 308.369995117
577612.5 4180963 307.559997559
577612.625 4180962.5 309.299987793
577613.3125 4180963 307.929992676
577613.5 4180962.5 309.640014648
577614.75 4180962.5 308.170013428
577615.375 4180962.75 309.809997559
577616.25 4180962.75 310.600006104
577609 4180963.25 304.609985352
577610.5 4180963.25 307.049987793
577611.125 4180963 307.600006104
577611.9375 4180963.5 308.540008545
577612.4375 4180963.5 307.420013428
577613.9375 4180963.5 309.119995117
577614 4180963 309.75
577614.8125 4180963 309.390014648
577615.3125 4180963.25 309.279998779
577616.125 4180963 308.709991455
577616.6875 4180963.25 309.519989014
577610.5 4180964 307.089996338
577613.375 4180963.5 309.619995117
577614.75 4180963.75 309.910003662
577615.25 4180964 309.140014648
577616.125 4180963.75 309.709991455
577616.5625 4180963.75 308.519989014
577610.375 4180964.5 306.700012207
577611.9375 4180964 308.809997559
577612.5 4180964.25 310.149993896
577613.375 4180964.25 310.399993896
577613.9375 4180964.25 311.140014648
577614.75 4180964.25 311.220001221
577615.1875 4180964.5 309.339996338
577616.5 4180964.25 308.369995117
577611.9375 4180964.75 309.779998779
577612.4375 4180964.75 309.869995117
577613.3125 4180964.75 310.760009766
577613.9375 4180964.75 311.410003662
577614.5625 4180964.75 308.470001221
577615.1875 4180965 309.859985352
577613.125 4180965.75 308.399993896
577613.25 4180965.25 309.679992676
577613.625 4180965.5 307.510009766
577613.8125 4180965.25 310.049987793
577614.375 4180965.75 306.769989014
577614.5 4180965.25 308.339996338
577615.125 4180965.75 309.920013428
577613 4180966.25 307.630004883
577613.6875 4180966.25 309.589996338
577614.375 4180966.25 307.019989014
577612.25 4180966.25 308.339996338
577613.0625 4180967 309.670013428
577613.625 4180967 309.940002441
577614.25 4180967.5 306.700012207
577612.125 4180967.5 308.350006104
577613 4180967.5 309.869995117
577613.5625 4180967.5 310
