# .PCD v.7 - Point Cloud Data file format
VERSION .7
FIELDS x y z
SIZE 4 4 4
TYPE F F F
COUNT 1 1 1
WIDTH 85
HEIGHT 1
VIEWPOINT 0 0 0 1 0 0 0
POINTS 85
DATA ascii
577594.375 4180963.5 303.679992676
577595.25 4180963.25 304.010009766
577595.75 4180963 303.920013428
577596.625 4180963 304.760009766
577594.375 4180964 303.910003662
577595.1875 4180964 304.390014648
577595.75 4180963.75 304.970001221
577596.5625 4180963.5 304.510009766
577597.0625 4180963.75 304.320007324
577597.875 4180963.5 303.75
577599.8125 4180963.75 304.450012207
577600.9375 4180963.75 309.480010986
577601.375 4180964 309.459991455
577595.75 4180964.5 305.929992676
577596.5625 4180964.25 305.070007324
577597.125 4180964.25 305.660003662
577599.25 4180964.25 304.970001221
577599.9375 4180964.5 307.600006104
577600.8125 4180964.25 308.940002441
577601.3125 4180964.5 308.959991455
577594.4375 4180964.75 306.600006104
577595.1875 4180965.25 306.529998779
577595.3125 4180964.75 307.230010986
577595.75 4180965 305.890014648
577596.5 4180964.75 304.970001221
577597.0625 4180965 305.670013428
577597.75 4180964.75 304.010009766
577598.375 4180965 304.75
577599.3125 4180965 307.119995117
577599.875 4180965 307.480010986
577600.8125 4180964.75 309.480010986
577601.25 4180965 309.100006104
577593.9375 4180965.75 308.799987793
577594.4375 4180965.5 307.420013428
577595.6875 4180965.5 306.630004883
577596.4375 4180965.25 304.989990234
577596.9375 4180965.5 304.589996338
577597.8125 4180965.5 305.290008545
577598.3125 4180965.5 305.179992676
577599.25 4180965.75 307.739990234
577599.75 4180965.5 306.670013428
577600.6875 4180965.25 308.480010986
577601.1875 4180965.5 308.410003662
577593.875 4180966.25 307.799987793
577594.375 4180966 307.630004883
577595.1875 4180965.75 307.209991455
577595.75 4180966.25 308.660003662
577596.5 4180966 307.220001221
577596.9375 4180966 305.5
577597.75 4180966 305.579986572
577598.4375 4180966.25 307.989990234
577599.25 4180966.25 308.380004883
577599.8125 4180966.25 309.029998779
577600.6875 4180965.75 309.100006104
577601.25 4180966.25 310.190002441
577602 4180966.25 309.619995117
577593.75 4180966.75 307.070007324
577594.375 4180966.75 308.179992676
577595.1875 4180966.5 307.980010986
577595.625 4180966.75 306.549987793
577596.5 4180966.75 308.350006104
577597 4180966.75 307.25
577597.8125 4180966.75 307.769989014
577598.3125 4180966.75 306.950012207
577599.1875 4180966.75 308.359985352
577600.625 4180966.5 308.899993896
577601.1875 4180966.75 310.049987793
577593.75 4180967.25 307.75
577594.25 4180967.25 307.429992676
577595.0625 4180967 307.440002441
577595.625 4180967.5 308.279998779
577596.4375 4180967.25 308.339996338
577597 4180967.25 308.100006104
577597.75 4180967.25 307.649993896
577598.3125 4180967.5 307.980010986
577599.75 4180967.5 309.059997559
577599.8125 4180967 310.100006104
577600.625 4180967 309.940002441
577601.125 4180967.5 310.170013428
577593.625 4180967.75 306.510009766
577594.25 4180967.75 307.769989014
577595 4180967.5 306.649993896
577596.375 4180967.75 308.040008545
577599.1875 4180967.5 308.820007324
577600.5 4180967.5 309.059997559
