# .PCD v.7 - Point Cloud Data file format
VERSION .7
FIELDS x y z
SIZE 4 4 4
TYPE F F F
COUNT 1 1 1
WIDTH 65
HEIGHT 1
VIEWPOINT 0 0 0 1 0 0 0
POINTS 65
DATA ascii
577594.8125 4180939.75 296.549987793
577616.3125 4180939.75 297.570007324
577590.9375 4180940.25 296.579986572
577591.75 4180940 296.359985352
577590.875 4180940.75 296.429992676
577593 4180940.75 296.559997559
577616.25 4180941 297.630004883
577593.375 4180941.25 296.470001221
577594.1875 4180941.25 296.529998779
577596.8125 4180941.5 296.619995117
577604.1875 4180941.25 297.019989014
577616.1875 4180941.5 297.700012207
577590.3125 4180941.75 296.510009766
577594.125 4180942 296.489990234
577602.75 4180941.75 297.190002441
577603.625 4180941.75 297.140014648
577594.625 4180942.25 296.489990234
577602.6875 4180942.5 297.170013428
577604.9375 4180942.5 297.160003662
577602.625 4180943 296.880004883
577604.875 4180943 297.049987793
577590.1875 4180943.5 296.600006104
577592.6875 4180943.5 296.450012207
577594.5 4180943.25 296.5
577603.4375 4180943.5 297.179992676
577603.9375 4180943.5 296.989990234
577591.375 4180944 296.369995117
577593.125 4180944 296.470001221
577605.1875 4180945.25 297.019989014
577590.375 4180946.5 296.450012207
577605.0625 4180946.5 297.010009766
577607.3125 4180947.5 297.230010986
577607.25 4180948 297.369995117
577606.3125 4180949 297.369995117
577606.25 4180949.5 297.299987793
577593.875 4180950.25 296.489990234
577605.625 4180950.25 297.350006104
577606.1875 4180950.25 297.269989014
577605.5 4180951.5 297.25
577591.0625 4180952.75 296.5
577604.5625 4180952.25 297.410003662
577598.9375 4180953.5 296.75
577601.625 4180953.75 296.869995117
577602.5 4180953.75 297.010009766
577603 4180954 297.079986572
577601.125 4180954 296.980010986
577602.4375 4180954.25 296.989990234
577598.875 4180954.5 296.910003662
577601.5 4180955 297.269989014
577602.375 4180955 297.079986572
577602.9375 4180954.5 297.059997559
577603.8125 4180954.5 297.010009766
577601.5 4180955.5 297.220001221
577602.3125 4180955.5 297.329986572
577603.75 4180955.25 297.160003662
577600.9375 4180955.75 297.220001221
577601.4375 4180956.25 297.190002441
577601.375 4180956.75 297.119995117
577602.8125 4180956.25 297.329986572
577614.75 4180956.5 297.660003662
577601.3125 4180957.25 297.010009766
577602.75 4180956.75 297.350006104
577602.125 4180957.75 297.339996338
577600.6875 4180958.75 297.070007324
577601.1875 4180959 297.179992676
