# .PCD v.7 - Point Cloud Data file format
VERSION .7
FIELDS x y z
SIZE 4 4 4
TYPE F F F
COUNT 1 1 1
WIDTH 1231
HEIGHT 1
VIEWPOINT 0 0 0 1 0 0 0
POINTS 1231
DATA ascii
577591.2 4180958 295.63
577590.1 4180964 295.64
577589.8 4180961 295.66
577590 4180964 295.74
577590.2 4180962 295.75
577591.6 4180961 295.76
577590.8 4180964 295.76
577590.2 4180948 295.78
577591.2 4180959 295.78
577590.4 4180960 295.78
577589.7 4180962 295.78
577589.8 4180966 295.78
577590.4 4180954 295.83
577591.5 4180956 295.83
577591.4 4180958 295.83
577590.3 4180961 295.83
577590.1 4180963 295.82
577589.8 4180948 295.84
577590.8 4180956 295.84
577590.4 4180954 295.85
577592.8 4180956 295.85
577591.8 4180959 295.86
577589.8 4180961 295.86
577590.2 4180962 295.85
577590.7 4180965 295.85
577592.2 4180954 295.87
577591.6 4180956 295.87
577591.9 4180958 295.87
577589.9 4180960 295.88
577590.4 4180960 295.88
577589.7 4180968 295.88
577592.8 4180957 295.89
577593.1 4180958 295.89
577589.9 4180960 295.89
577592 4180957 295.9
577591.9 4180957 295.9
577592.6 4180958 295.9
577590 4180950 295.91
577593.6 4180954 295.91
577592.9 4180954 295.91
577592.7 4180957 295.91
577590 4180965 295.91
577590.6 4180952 295.92
577591.4 4180957 295.92
577591.7 4180960 295.92
577591.5 4180962 295.92
577592.7 4180948 295.93
577596.1 4180949 295.93
577590.5 4180953 295.93
577592.1 4180955 295.93
577593.2 4180957 295.93
577593.1 4180959 295.93
577591.2 4180950 295.95
577593.1 4180953 295.95
577591.7 4180954 295.95
577590.1 4180958 295.95
577592.6 4180958 295.95
577590.1 4180958 295.95
577590 4180959 295.95
577589.8 4180962 295.95
577592.7 4180963 295.95
577591.2 4180965 295.95
577592.2 4180948 295.96
577593.5 4180954 295.96
577591.7 4180960 295.96
577591.1 4180960 295.96
577590.6 4180966 295.96
577591.9 4180943 295.97
577590.6 4180952 295.97
577589.7 4180954 295.97
577593.4 4180955 295.97
577590.8 4180956 295.97
577592.9 4180956 295.97
577592 4180956 295.97
577590.7 4180957 295.97
577590.6 4180957 295.97
577591.8 4180958 295.97
577589.8 4180967 295.97
577591.8 4180945 295.98
577590.2 4180948 295.98
577589.9 4180951 295.98
577591.6 4180955 295.98
577591.4 4180957 295.98
577591.1 4180967 295.98
577589.7 4180948 295.99
577595.2 4180950 295.99
577590.7 4180966 295.99
577593.9 4180944 296
577592.4 4180952 296
577589.8 4180953 296
577590.5 4180959 296
577592.9 4180961 296
577598.4 4180945 296.01
577592.4 4180946 296.01
577594.9 4180948 296.02
577592.2 4180949 296.02
577592.1 4180950 296.01
577593.2 4180951 296.01
577594.9 4180952 296.01
577593 4180954 296.01
577590.9 4180955 296.01
577622.1 4180956 296.01
577593.3 4180956 296.02
577590.6 4180958 296.01
577593 4180960 296.02
577591.1 4180961 296.02
577590.2 4180961 296.01
577592 4180942 296.03
577595 4180947 296.03
577594.1 4180947 296.03
577592.6 4180949 296.03
577595.2 4180950 296.03
577595.1 4180951 296.03
577593.8 4180951 296.03
577591.8 4180953 296.03
577591.9 4180966 296.03
577590.5 4180967 296.03
577592.1 4180942 296.04
577591.4 4180944 296.05
577595.1 4180946 296.05
577592.9 4180946 296.05
577592.8 4180948 296.04
577590.1 4180950 296.04
577591.2 4180951 296.04
577591.8 4180953 296.05
577592.2 4180954 296.04
577595.7 4180954 296.05
577592.1 4180956 296.04
577594.6 4180956 296.04
577593.2 4180958 296.05
577591.2 4180960 296.04
577592.4 4180961 296.05
577592.8 4180962 296.05
577592.6 4180964 296.04
577591.2 4180965 296.05
577591.1 4180966 296.05
577591.1 4180966 296.05
577592.4 4180967 296.05
577590.8 4180942 296.06
577595.3 4180944 296.06
577594.2 4180946 296.06
577591.2 4180952 296.06
577593.7 4180952 296.06
577597.2 4180952 296.06
577592.3 4180953 296.06
577593.9 4180958 296.06
577592.9 4180960 296.06
577591.3 4180964 296.06
577591.5 4180942 296.07
577595.3 4180943 296.08
577591.9 4180944 296.08
577595.1 4180945 296.08
577597.8 4180946 296.08
577591.6 4180946 296.07
577590.9 4180948 296.08
577590.1 4180957 296.08
577595.9 4180957 296.07
577593.9 4180958 296.08
577591.6 4180961 296.08
577594.2 4180961 296.07
577591.4 4180963 296.08
577590.6 4180966 296.07
577591.5 4180943 296.09
577593.8 4180946 296.09
577594.2 4180947 296.09
577590.1 4180949 296.09
577596.6 4180949 296.09
577591.9 4180952 296.09
577596.2 4180954 296.09
577595.8 4180958 296.09
577591.1 4180948 296.1
577594 4180948 296.1
577620.1 4180948 296.1
577591.3 4180950 296.1
577620.8 4180950 296.11
577597.8 4180952 296.11
577589.8 4180952 296.1
577620.4 4180954 296.11
577590.9 4180954 296.11
577594.8 4180954 296.11
577596.1 4180954 296.1
577590.2 4180957 296.1
577592.5 4180960 296.11
577592.2 4180963 296.11
577590.7 4180943 296.12
577591.2 4180946 296.12
577596.1 4180950 296.12
577597.8 4180951 296.12
577591.8 4180954 296.12
577594.1 4180956 296.12
577594.6 4180956 296.12
577590.6 4180958 296.12
577592.6 4180959 296.12
577591.1 4180962 296.12
577592.2 4180962 296.12
577592.7 4180964 296.12
577592.1 4180941 296.13
577591.1 4180947 296.13
577594.6 4180952 296.13
577591.9 4180952 296.13
577595.6 4180954 296.13
577590.2 4180956 296.13
577593.3 4180956 296.13
577593 4180959 296.13
577591.9 4180966 296.13
577599.4 4180948 296.14
577592.1 4180950 296.14
577589.8 4180954 296.14
577593.4 4180955 296.14
577595.3 4180958 296.14
577593.9 4180959 296.14
577590.9 4180962 296.14
577592.2 4180962 296.14
577595.6 4180940 296.15
577597.2 4180942 296.15
577596.9 4180946 296.15
577593.3 4180950 296.15
577597.2 4180951 296.15
577594.5 4180952 296.15
577615.4 4180954 296.15
577621.7 4180954 296.15
577621.7 4180955 296.15
577593.6 4180962 296.15
577592.5 4180965 296.15
577592.4 4180966 296.15
577590.2 4180943 296.16
577595.2 4180945 296.16
577595.5 4180947 296.16
577596.8 4180947 296.16
577596.3 4180947 296.16
577593.6 4180948 296.16
577621.4 4180948 296.16
577590.8 4180950 296.16
577599 4180953 296.16
577590.3 4180956 296.16
577591.9 4180966 296.16
577592.1 4180941 296.17
577592.8 4180942 296.17
577617.6 4180946 296.17
577622.3 4180948 296.17
577597.1 4180953 296.17
577620.9 4180954 296.17
577590.4 4180955 296.17
577622.1 4180956 296.17
577594.1 4180962 296.17
577591.8 4180967 296.17
577591.6 4180941 296.18
577599.8 4180944 296.18
577593 4180946 296.18
577592.3 4180948 296.18
577618.2 4180948 296.18
577593.2 4180952 296.18
577595 4180952 296.18
577593.2 4180952 296.18
577596.3 4180953 296.18
577590.9 4180954 296.18
577594 4180957 296.18
577595.2 4180958 296.18
577591 4180962 296.18
577593.6 4180962 296.18
577595.6 4180946 296.19
577595 4180946 296.19
577617 4180946 296.19
577618.3 4180947 296.19
577591.5 4180948 296.19
577620.9 4180948 296.19
577592.2 4180949 296.19
577593.4 4180949 296.19
577620 4180949 296.19
577621.4 4180949 296.19
577617.9 4180951 296.19
577591 4180953 296.19
577596.5 4180959 296.19
577591.7 4180940 296.2
577592.9 4180942 296.2
577599.5 4180942 296.2
577594.4 4180944 296.2
577593 4180945 296.2
577619.8 4180946 296.2
577592.4 4180947 296.2
577593.7 4180947 296.2
577621.6 4180947 296.2
577621.5 4180948 296.2
577596.6 4180950 296.2
577598.8 4180950 296.2
577590.1 4180950 296.2
577596.5 4180950 296.2
577597.2 4180952 296.2
577594.4 4180953 296.2
577619.1 4180953 296.2
577621.8 4180954 296.2
577592.9 4180955 296.2
577594.6 4180957 296.2
577594.3 4180960 296.2
577595.6 4180940 296.21
577596 4180941 296.21
577599.2 4180944 296.21
577592.5 4180946 296.21
577619.7 4180947 296.21
577593.4 4180950 296.21
577590.8 4180951 296.21
577590.7 4180952 296.21
577599 4180952 296.21
577594.2 4180955 296.21
577596.1 4180955 296.21
577595.6 4180955 296.21
577594.5 4180958 296.21
577622.9 4180942 296.22
577595.9 4180943 296.22
577621.9 4180944 296.22
577591.8 4180945 296.22
577596.4 4180946 296.22
577593.7 4180946 296.22
577621.6 4180947 296.22
577595.4 4180948 296.22
577596.8 4180948 296.22
577622.2 4180949 296.22
577594 4180949 296.22
577590.8 4180950 296.22
577597.9 4180950 296.22
577593.7 4180952 296.22
577594.4 4180953 296.22
577594.2 4180956 296.22
577621.5 4180957 296.22
577598.5 4180943 296.23
577618.6 4180944 296.23
577622.6 4180945 296.23
577594.3 4180945 296.23
577616.9 4180947 296.23
577589.8 4180948 296.23
577596.6 4180949 296.23
577620.8 4180950 296.23
577596 4180950 296.23
577591.1 4180952 296.23
577597.1 4180952 296.23
577592.3 4180953 296.23
577596.8 4180956 296.23
577594.4 4180959 296.23
577592.4 4180966 296.23
577598.8 4180940 296.24
577599.5 4180941 296.24
577596.6 4180944 296.24
577591.2 4180945 296.24
577592.6 4180945 296.24
577591.7 4180946 296.24
577594.3 4180946 296.24
577618.2 4180948 296.24
577589.9 4180952 296.24
577599.1 4180952 296.24
577594.3 4180954 296.24
577592.1 4180964 296.24
577591 4180940 296.25
577598.6 4180942 296.25
577590.8 4180942 296.25
577593.2 4180942 296.25
577594.6 4180943 296.25
577593.8 4180945 296.25
577617.6 4180946 296.25
577596.4 4180946 296.25
577590.3 4180947 296.25
577618.8 4180947 296.25
577591 4180948 296.25
577616.7 4180950 296.25
577598.4 4180953 296.25
577593.6 4180961 296.25
577592.3 4180962 296.25
577598.1 4180962 296.25
577598.1 4180963 296.25
577592.6 4180964 296.25
577596.9 4180940 296.26
577599.6 4180940 296.27
577593.4 4180940 296.26
577598.2 4180940 296.26
577597.3 4180941 296.27
577599.4 4180943 296.27
577598.4 4180944 296.26
577615 4180944 296.27
577591.9 4180944 296.26
577595.7 4180944 296.26
577597.9 4180944 296.26
577591.2 4180946 296.26
577621.2 4180946 296.27
577618.4 4180946 296.26
577591.6 4180947 296.27
577595.4 4180948 296.27
577622.4 4180948 296.26
577596.2 4180948 296.26
577614.1 4180948 296.26
577616.8 4180948 296.26
577595.3 4180948 296.27
577615.9 4180948 296.26
577598.8 4180949 296.26
577620 4180950 296.27
577592.6 4180950 296.27
577594.7 4180950 296.26
577594.6 4180951 296.26
577618.4 4180952 296.27
577597.7 4180952 296.26
577598.5 4180952 296.26
577600.4 4180952 296.27
577597.6 4180953 296.26
577594.3 4180954 296.26
577619.6 4180954 296.27
577596.9 4180954 296.27
577595.6 4180955 296.27
577622.2 4180955 296.26
577596.8 4180957 296.27
577594.4 4180958 296.26
577597.9 4180959 296.27
577596.5 4180960 296.27
577593.7 4180961 296.27
577592.8 4180962 296.27
577592 4180965 296.27
577597.4 4180941 296.28
577598.7 4180941 296.28
577594.6 4180942 296.28
577598.1 4180942 296.28
577595.9 4180942 296.28
577594 4180944 296.28
577620.6 4180943 296.28
577593.9 4180945 296.28
577592.8 4180948 296.28
577600.3 4180948 296.28
577616.8 4180949 296.28
577616.7 4180950 296.28
577619.4 4180950 296.28
577598.6 4180952 296.28
577595.2 4180959 296.28
577595.1 4180960 296.28
577593.5 4180963 296.28
577589.9 4180966 296.28
577598.8 4180940 296.3
577594.8 4180940 296.3
577592.9 4180941 296.29
577595.5 4180941 296.29
577605.5 4180942 296.3
577597.2 4180942 296.29
577592.8 4180943 296.29
577593.2 4180944 296.3
577613.1 4180944 296.29
577594.4 4180944 296.3
577597.1 4180944 296.29
577604.6 4180945 296.29
577619 4180946 296.29
577621.1 4180946 296.3
577592.9 4180947 296.3
577594.1 4180948 296.3
577615.5 4180948 296.3
577599.4 4180948 296.29
577612.8 4180948 296.29
577615.4 4180948 296.3
577615.4 4180949 296.3
577620.9 4180949 296.29
577597.9 4180949 296.29
577617.2 4180949 296.3
577619.5 4180949 296.29
577593.9 4180950 296.29
577599.2 4180950 296.29
577592.4 4180952 296.29
577604 4180952 296.29
577595.8 4180952 296.29
577597 4180954 296.29
577597.5 4180954 296.29
577615.4 4180955 296.29
577618.1 4180956 296.3
577596.6 4180958 296.29
577595.2 4180959 296.29
577593.8 4180960 296.29
577593.4 4180964 296.3
577595.7 4180940 296.31
577594.3 4180940 296.31
577600 4180942 296.31
577593.2 4180943 296.31
577621.4 4180944 296.31
577595.2 4180944 296.31
577619.1 4180944 296.31
577614.4 4180944 296.31
577597.8 4180945 296.31
577622.6 4180946 296.31
577615.6 4180947 296.31
577620.1 4180948 296.31
577591.4 4180949 296.31
577591.4 4180949 296.31
577592.6 4180950 296.31
577596 4180951 296.31
577617.6 4180954 296.31
577598.3 4180954 296.31
577595.1 4180960 296.31
577596.9 4180960 296.31
577594.7 4180941 296.33
577607.7 4180943 296.32
577594.1 4180943 296.32
577609.6 4180943 296.32
577621.4 4180943 296.32
577598.5 4180944 296.32
577606.2 4180944 296.33
577592.6 4180945 296.33
577619.1 4180944 296.32
577601 4180946 296.32
577612.1 4180946 296.32
577603.1 4180946 296.33
577596.9 4180946 296.32
577616.1 4180947 296.32
577594.9 4180948 296.32
577618.8 4180948 296.33
577591.5 4180948 296.32
577598.8 4180949 296.33
577618.1 4180949 296.32
577598.7 4180950 296.32
577592 4180951 296.33
577598.6 4180951 296.32
577599.1 4180951 296.32
577595.1 4180952 296.33
577596.4 4180952 296.33
577619.7 4180953 296.33
577596.2 4180953 296.33
577599.8 4180953 296.33
577594.9 4180954 296.33
577616.9 4180954 296.32
577620.4 4180954 296.33
577598.2 4180955 296.33
577597.4 4180956 296.33
577617.5 4180956 296.32
577596.7 4180957 296.32
577593.8 4180960 296.33
577596.9 4180961 296.33
577598.2 4180961 296.32
577598.2 4180962 296.33
577599 4180962 296.33
577599.6 4180941 296.34
577600.1 4180941 296.34
577595.4 4180942 296.34
577620.6 4180943 296.34
577620.5 4180944 296.34
577601.9 4180946 296.34
577616.2 4180946 296.34
577618.4 4180946 296.34
577595.6 4180946 296.34
577611.5 4180946 296.34
577614.2 4180946 296.34
577613.3 4180947 296.34
577618.9 4180947 296.34
577612.8 4180948 296.34
577594.8 4180949 296.34
577600.1 4180950 296.34
577601.8 4180952 296.34
577619.2 4180953 296.34
577616.4 4180953 296.34
577621.6 4180956 296.34
577595.9 4180957 296.34
577595.6 4180960 296.34
577594.1 4180962 296.34
577604.3 4180940 296.35
577598.3 4180940 296.36
577596.9 4180941 296.35
577593.3 4180942 296.35
577609.7 4180942 296.36
577599.3 4180944 296.35
577592.6 4180944 296.35
577597.9 4180944 296.36
577601.1 4180944 296.36
577621.3 4180944 296.36
577622.7 4180944 296.35
577611.7 4180945 296.36
577616.3 4180944 296.35
577595.6 4180945 296.35
577600.5 4180946 296.35
577613.4 4180946 296.36
577615.7 4180946 296.35
577618.9 4180946 296.36
577613.4 4180946 296.35
577599.5 4180947 296.36
577610.1 4180947 296.36
577616.1 4180948 296.36
577598.9 4180948 296.35
577594.8 4180949 296.35
577597.3 4180950 296.36
577617.2 4180950 296.36
577593.8 4180951 296.35
577599.8 4180953 296.35
577618.3 4180953 296.36
577598.4 4180954 296.35
577598.8 4180956 296.36
577596 4180956 296.36
577596.6 4180958 296.35
577594.4 4180960 296.35
577597 4180960 296.36
577599 4180962 296.36
577598.9 4180962 296.36
577593.4 4180964 296.36
577601.6 4180940 296.37
577597.4 4180940 296.37
577598.8 4180941 296.37
577598.2 4180941 296.37
577606.4 4180941 296.37
577622.1 4180942 296.37
577595.4 4180942 296.37
577609.1 4180943 296.37
577598 4180944 296.37
577600.6 4180944 296.37
577593.1 4180944 296.37
577614.4 4180945 296.37
577609.2 4180946 296.37
577610.6 4180948 296.37
577615.4 4180950 296.37
577599.9 4180952 296.37
577593.1 4180953 296.37
577594.9 4180953 296.37
577597.5 4180954 296.37
577597.4 4180955 296.37
577598.2 4180956 296.37
577621.6 4180956 296.37
577597.1 4180958 296.37
577599.1 4180961 296.37
577603.8 4180940 296.38
577602.3 4180941 296.38
577612.1 4180941 296.38
577621.7 4180941 296.38
577606.8 4180942 296.38
577608.1 4180944 296.38
577597 4180945 296.38
577610.3 4180945 296.38
577619.1 4180945 296.38
577597 4180945 296.38
577603.7 4180946 296.38
577595.3 4180949 296.38
577618.7 4180949 296.38
577617.2 4180950 296.38
577600.1 4180950 296.38
577595.9 4180952 296.38
577617.6 4180955 296.38
577598.1 4180956 296.38
577597.8 4180961 296.38
577595 4180961 296.38
577596.8 4180962 296.38
577599.7 4180940 296.39
577600.1 4180940 296.39
577601 4180940 296.39
577605.6 4180941 296.39
577619.2 4180943 296.39
577595.8 4180944 296.39
577612.2 4180944 296.39
577608.9 4180945 296.39
577619.9 4180944 296.39
577612.2 4180945 296.39
577620.4 4180945 296.39
577612.9 4180946 296.39
577622.5 4180946 296.39
577617.4 4180947 296.39
577614 4180949 296.39
577619.3 4180951 296.39
577598.5 4180953 296.39
577616.9 4180953 296.39
577618.2 4180954 296.39
577620.9 4180954 296.39
577618.1 4180955 296.39
577596.9 4180956 296.39
577595.8 4180958 296.39
577597.1 4180959 296.39
577598.3 4180960 296.39
577596.4 4180961 296.39
577597.7 4180961 296.39
577596.8 4180962 296.39
577622.2 4180940 296.4
577596 4180942 296.4
577594.1 4180942 296.4
577605.4 4180942 296.4
577619.2 4180943 296.4
577601.2 4180943 296.4
577600.7 4180944 296.4
577602.6 4180944 296.4
577599.2 4180945 296.4
577607.5 4180945 296.4
577606.6 4180946 296.4
577620.4 4180946 296.4
577610.1 4180946 296.4
577617.5 4180947 296.4
577605.8 4180948 296.4
577593.6 4180948 296.4
577617.3 4180948 296.4
577619.6 4180948 296.4
577594.7 4180950 296.4
577592.5 4180951 296.4
577595.9 4180951 296.4
577617.9 4180952 296.4
577617.7 4180954 296.4
577599.8 4180959 296.4
577597.8 4180960 296.4
577594.2 4180961 296.4
577602.2 4180962 296.4
577612.2 4180940 296.41
577614.9 4180940 296.41
577620.4 4180940 296.41
577600 4180941 296.41
577613.8 4180942 296.41
577597.1 4180944 296.41
577618.6 4180944 296.41
577602.4 4180945 296.41
577621.8 4180946 296.41
577615.6 4180946 296.41
577606.4 4180948 296.41
577616.9 4180948 296.41
577596.7 4180948 296.41
577593.5 4180949 296.41
577618.6 4180950 296.41
577617.9 4180952 296.41
577619 4180954 296.41
577600.1 4180956 296.41
577595.7 4180960 296.41
577596.4 4180960 296.41
577600.4 4180961 296.41
577598.9 4180963 296.41
577592.1 4180964 296.41
577609.2 4180942 296.42
577618.8 4180942 296.42
577598.6 4180942 296.42
577607.8 4180942 296.42
577613.2 4180942 296.42
577622.8 4180943 296.42
577614.5 4180944 296.42
577596.5 4180945 296.42
577596.4 4180946 296.42
577611.4 4180947 296.42
577620.2 4180947 296.42
577618.3 4180948 296.42
577617.1 4180951 296.42
577597.6 4180953 296.42
577593.6 4180953 296.42
577618.2 4180954 296.42
577599.6 4180956 296.42
577598.4 4180960 296.42
577601.7 4180962 296.42
577603.6 4180962 296.42
577609.9 4180940 296.43
577605 4180941 296.43
577602.2 4180942 296.43
577608.2 4180942 296.43
577613.2 4180943 296.43
577618.7 4180944 296.43
577612.2 4180944 296.43
577601.9 4180945 296.43
577610.2 4180946 296.43
577614.7 4180948 296.43
577614.5 4180949 296.43
577615.9 4180949 296.43
577619.9 4180950 296.43
577600.4 4180953 296.43
577600.3 4180953 296.43
577599.5 4180956 296.43
577598.4 4180959 296.43
577597.8 4180960 296.43
577599.8 4180960 296.43
577596.9 4180961 296.43
577602.3 4180961 296.43
577600.9 4180962 296.43
577597.6 4180962 296.43
577597 4180940 296.44
577609.4 4180940 296.44
577608.3 4180941 296.44
577609.8 4180941 296.44
577611.1 4180941 296.44
577621.6 4180941 296.44
577610.5 4180942 296.44
577617.9 4180942 296.44
577611.8 4180943 296.44
577601.2 4180944 296.44
577610.4 4180944 296.44
577617.3 4180943 296.44
577617.8 4180943 296.44
577603.8 4180945 296.44
577608.8 4180946 296.44
577614.3 4180946 296.44
577622.6 4180946 296.44
577607.4 4180946 296.44
577608.8 4180946 296.44
577620.3 4180946 296.44
577597.7 4180947 296.44
577613.3 4180948 296.44
577614.1 4180948 296.44
577613.2 4180948 296.44
577599.3 4180949 296.44
577601.7 4180953 296.44
577617.8 4180952 296.44
577600.5 4180960 296.44
577601.6 4180962 296.44
577621.8 4180940 296.45
577596.1 4180940 296.45
577622.2 4180941 296.45
577610.6 4180942 296.45
577611.1 4180942 296.45
577596.8 4180942 296.45
577621.5 4180942 296.45
577618.8 4180943 296.45
577605.4 4180943 296.45
577613.8 4180943 296.45
577596.7 4180943 296.45
577605.3 4180944 296.45
577615.1 4180944 296.45
577621.9 4180943 296.45
577606.8 4180944 296.45
577621.8 4180944 296.45
577606.6 4180945 296.45
577610.8 4180945 296.45
577617.1 4180946 296.45
577612.9 4180946 296.45
577614.6 4180948 296.45
577618.8 4180948 296.45
577619.4 4180950 296.45
577604.1 4180952 296.45
577619.6 4180954 296.45
577616.2 4180955 296.45
577608.5 4180940 296.46
577602.4 4180940 296.46
577620.4 4180940 296.46
577609.2 4180941 296.46
577612.6 4180941 296.46
577613.3 4180942 296.46
577606.3 4180942 296.46
577606.2 4180943 296.46
577597.2 4180943 296.46
577608.2 4180943 296.46
577595.8 4180944 296.46
577613.7 4180944 296.46
577613.6 4180945 296.46
577616.2 4180945 296.46
577612.1 4180946 296.46
577616.2 4180946 296.46
577612.8 4180947 296.46
577605.8 4180948 296.46
577597.9 4180950 296.46
577603.1 4180953 296.46
577617 4180952 296.46
577616.3 4180954 296.46
577601 4180961 296.46
577600.4 4180962 296.46
577603.1 4180962 296.46
577601.1 4180940 296.47
577620.8 4180941 296.47
577606.9 4180942 296.47
577602.1 4180943 296.47
577609.1 4180944 296.47
577611.8 4180944 296.47
577609.4 4180945 296.47
577617.2 4180945 296.47
577608.9 4180945 296.47
577619.9 4180945 296.47
577614.8 4180946 296.47
577617.1 4180946 296.47
577597.7 4180946 296.47
577606.4 4180947 296.47
577622.4 4180947 296.47
577618.6 4180950 296.47
577603.1 4180952 296.47
577609.4 4180940 296.48
577613.6 4180940 296.48
577612 4180941 296.48
577619.4 4180942 296.48
577600.8 4180943 296.48
577617.8 4180944 296.48
577603.9 4180944 296.48
577609 4180944 296.48
577610.4 4180944 296.48
577603.2 4180946 296.48
577604.6 4180946 296.48
577611.6 4180946 296.48
577610.7 4180946 296.48
577621.1 4180947 296.48
577599.4 4180949 296.48
577615.9 4180950 296.48
577618.5 4180951 296.48
577596.9 4180955 296.48
577620.9 4180955 296.48
577600.9 4180961 296.48
577611.2 4180940 296.49
577609.8 4180941 296.49
577612.5 4180942 296.49
577601.3 4180942 296.49
577615.9 4180944 296.49
577620 4180944 296.49
577601 4180945 296.49
577610.2 4180945 296.49
577615.8 4180946 296.49
577605.9 4180946 296.49
577614.8 4180947 296.49
577617.1 4180951 296.49
577599.6 4180955 296.49
577597.6 4180962 296.49
577599.5 4180962 296.49
577602.9 4180940 296.5
577605.2 4180940 296.5
577604.2 4180940 296.5
577609.3 4180940 296.5
577600.9 4180941 296.5
577608.3 4180942 296.5
577609.1 4180942 296.5
577598 4180943 296.5
577613.6 4180944 296.5
577614.9 4180945 296.5
577620.5 4180944 296.5
577621.8 4180945 296.5
577620.2 4180947 296.5
577605.9 4180947 296.5
577611.9 4180947 296.5
577601.2 4180952 296.5
577601.1 4180954 296.5
577595.4 4180956 296.5
577600.7 4180958 296.5
577595.6 4180961 296.5
577610.8 4180940 296.52
577602.4 4180940 296.52
577606.6 4180940 296.51
577609.9 4180940 296.51
577620.3 4180940 296.51
577602.2 4180942 296.51
577613.8 4180942 296.51
577599.4 4180942 296.51
577599.9 4180942 296.52
577616 4180942 296.52
577617.9 4180943 296.51
577622 4180943 296.51
577604.8 4180944 296.51
577596.6 4180944 296.52
577600.6 4180945 296.51
577604.7 4180945 296.52
577615.8 4180945 296.51
577621.3 4180945 296.51
577606.1 4180945 296.52
577617.7 4180945 296.51
577618.5 4180945 296.51
577621.2 4180946 296.51
577606.4 4180946 296.52
577605.9 4180947 296.51
577596.2 4180948 296.52
577616 4180948 296.51
577606.3 4180948 296.51
577599.2 4180950 296.52
577617 4180952 296.52
577618.4 4180952 296.51
577617.8 4180953 296.51
577599.8 4180954 296.52
577596.1 4180956 296.52
577597.3 4180956 296.51
577598.7 4180956 296.51
577595.8 4180959 296.51
577599.7 4180960 296.52
577600.8 4180962 296.51
577605.1 4180941 296.53
577620.8 4180942 296.53
577611.8 4180944 296.53
577613.1 4180944 296.53
577606.1 4180944 296.53
577610.8 4180946 296.53
577607.3 4180947 296.53
577621 4180948 296.53
577620.4 4180954 296.53
577598.5 4180958 296.53
577599.2 4180959 296.53
577600.3 4180962 296.53
577594.9 4180962 296.53
577605.1 4180940 296.54
577603.7 4180940 296.54
577620.9 4180940 296.55
577600.9 4180941 296.54
577605.6 4180941 296.54
577619.4 4180941 296.55
577620.2 4180941 296.54
577620.2 4180942 296.54
577596.8 4180942 296.54
577615.2 4180942 296.54
577615.1 4180943 296.54
577622.8 4180944 296.55
577602 4180944 296.55
577615.9 4180944 296.54
577617.8 4180944 296.54
577600.5 4180945 296.54
577613 4180945 296.54
577614.8 4180946 296.55
577614.2 4180947 296.55
577611.4 4180948 296.54
577619.7 4180948 296.54
577616.6 4180951 296.54
577619.2 4180952 296.54
577603.9 4180953 296.55
577599.6 4180961 296.54
577595.5 4180962 296.55
577602.2 4180962 296.54
577608.4 4180940 296.56
577606.4 4180942 296.56
577610.5 4180943 296.56
577602.1 4180944 296.56
577617.2 4180944 296.56
577602.5 4180944 296.56
577609.5 4180944 296.56
577606 4180946 296.56
577619.2 4180952 296.56
577599.8 4180958 296.56
577598.2 4180962 296.56
577608 4180940 296.58
577607.1 4180940 296.57
577622.2 4180940 296.57
577603.6 4180941 296.57
577614.7 4180942 296.58
577620.7 4180942 296.57
577611.1 4180942 296.57
577617.4 4180942 296.58
577618.8 4180942 296.58
577620.1 4180943 296.58
577606.2 4180943 296.58
577609.6 4180944 296.58
577604.8 4180944 296.58
577617.2 4180944 296.58
577610.8 4180944 296.58
577613.1 4180945 296.58
577614.4 4180945 296.58
577621.7 4180946 296.57
577619.1 4180954 296.57
577595.5 4180956 296.57
577599.3 4180958 296.58
577599.5 4180962 296.57
577602.8 4180940 296.59
577618.1 4180940 296.59
577601.4 4180942 296.59
577621.6 4180942 296.59
577611.9 4180942 296.59
577609.4 4180945 296.59
577607.4 4180946 296.59
577606.5 4180946 296.59
577605.6 4180950 296.59
577595.4 4180957 296.59
577595 4180962 296.59
577611.3 4180940 296.6
577612.6 4180940 296.6
577602.9 4180940 296.6
577610.8 4180940 296.6
577607 4180941 296.61
577610.6 4180941 296.61
577618.1 4180941 296.6
577618.9 4180941 296.6
577606.9 4180942 296.6
577618 4180942 296.6
577607.8 4180942 296.6
577602.2 4180942 296.6
577620.2 4180942 296.6
577622.1 4180942 296.61
577599.9 4180943 296.61
577616 4180943 296.61
577607.6 4180944 296.61
577620.1 4180944 296.6
577616.4 4180944 296.6
577611.6 4180945 296.61
577612 4180947 296.6
577617.4 4180948 296.61
577619.6 4180948 296.61
577604.4 4180948 296.61
577618 4180950 296.61
577601.9 4180951 296.6
577598.8 4180955 296.6
577600.6 4180960 296.6
577599.1 4180960 296.6
577596.3 4180961 296.6
577595.5 4180962 296.6
577611.2 4180940 296.62
577608.4 4180941 296.62
577613.4 4180941 296.62
577601.4 4180941 296.62
577613.9 4180941 296.62
577614.9 4180945 296.62
577614.6 4180949 296.62
577604.7 4180950 296.62
577617.6 4180940 296.63
577612.1 4180940 296.63
577601.4 4180941 296.63
577602.8 4180941 296.63
577613.4 4180941 296.63
577607.6 4180944 296.63
577610.9 4180944 296.63
577607.9 4180946 296.63
577602.6 4180952 296.63
577607.9 4180940 296.64
577609.6 4180942 296.64
577609.3 4180946 296.64
577602.7 4180952 296.64
577603.9 4180954 296.64
577596.2 4180962 296.64
577614.1 4180940 296.65
577618.1 4180940 296.65
577605.3 4180944 296.65
577599.8 4180945 296.65
577611.9 4180948 296.65
577618.5 4180952 296.65
577602.6 4180952 296.65
577616.8 4180954 296.65
577601.2 4180958 296.65
577605.7 4180940 296.66
577621.8 4180940 296.66
577614.8 4180941 296.66
577614.6 4180942 296.66
577616.8 4180955 296.66
577599.5 4180957 296.66
577600.8 4180942 296.67
577602.8 4180956 296.67
577612.6 4180940 296.68
577613.5 4180940 296.68
577619.6 4180940 296.68
577607.9 4180940 296.68
577618.9 4180940 296.68
577601.1 4180945 296.68
577605.2 4180945 296.68
577613.5 4180946 296.68
577602.5 4180953 296.68
577598.9 4180954 296.68
577600.2 4180940 296.69
577619.3 4180942 296.69
577610.9 4180944 296.69
577608.1 4180944 296.69
577603.3 4180944 296.69
577599.6 4180946 296.69
577618.1 4180950 296.69
577604.8 4180950 296.69
577601.7 4180953 296.69
577605.7 4180940 296.7
577617.5 4180942 296.7
577612.4 4180942 296.7
577611 4180943 296.7
577606.7 4180944 296.7
577601.2 4180953 296.7
577603.1 4180953 296.7
577614.9 4180940 296.71
577619 4180940 296.71
577613.9 4180941 296.71
577607.9 4180941 296.71
577603.4 4180944 296.71
577603.2 4180945 296.71
577619.8 4180946 296.71
577616.3 4180954 296.71
577599.7 4180954 296.71
577600.2 4180954 296.71
577601.1 4180955 296.71
577600.8 4180958 296.71
577601.8 4180961 296.71
577607.1 4180940 296.72
577615.2 4180942 296.72
577617.4 4180942 296.72
577612.3 4180943 296.72
577616.4 4180944 296.72
577610.6 4180947 296.72
577600.1 4180956 296.72
577600.8 4180957 296.72
577610.7 4180941 296.73
577606.8 4180943 296.73
577600.6 4180959 296.73
577599.6 4180961 296.73
577620.9 4180940 296.74
577604.2 4180941 296.74
577612.4 4180943 296.74
577603.8 4180945 296.74
577619.1 4180939 296.75
577600.9 4180956 296.75
577601.1 4180960 296.75
577606.5 4180940 296.76
577615.2 4180941 296.76
577616.6 4180942 296.76
577604.7 4180951 296.76
577601 4180955 296.77
577619.5 4180940 296.78
577614.8 4180941 296.78
577599.2 4180960 296.78
577615.4 4180940 296.79
577612 4180942 296.8
577602.4 4180945 296.79
577600.2 4180955 296.79
577601.2 4180958 296.8
577616.1 4180942 296.81
577607.6 4180944 296.81
577601.6 4180954 296.81
577605 4180942 296.82
577616.5 4180943 296.82
577605.1 4180946 296.83
577604.4 4180954 296.82
577602.2 4180956 296.82
577616.6 4180942 296.88
577614 4180940 296.9
577614.6 4180943 296.9
577608.1 4180945 296.9
577605 4180948 296.9
577594.4 4180940 296.91
577607.8 4180947 296.91
577603.9 4180954 296.91
577617.6 4180940 296.92
577604.6 4180946 296.92
577602.9 4180955 296.92
577607.9 4180946 296.93
577617.6 4180941 296.94
577590.4 4180941 296.95
577608 4180945 296.97
577604.4 4180954 296.97
577615.4 4180941 297.01
577615.4 4180940 297.07
577614.8 4180956 297.15
577600.3 4180954 297.28
577616.7 4180941 297.33
577599.7 4180946 297.33
577616.8 4180940 297.37
577616.8 4180940 297.39
577616.2 4180940 297.4
577603.5 4180943 297.4
577615.2 4180957 297.4
577601.1 4180960 297.4
577616.9 4180940 297.41
577602.1 4180958 297.41
577589.7 4180941 297.42
577590.6 4180940 297.43
577603.6 4180942 297.43
577598.1 4180949 297.45
577602.2 4180957 297.5
577604.1 4180942 297.51
577590.5 4180941 297.53
577602.2 4180957 297.53
577604.6 4180953 297.54
577597.6 4180949 297.57
577605.6 4180951 297.57
577604.1 4180943 297.68
577589.8 4180940 297.69
577589.8 4180940 297.72
577599.1 4180947 297.73
577604.1 4180942 297.76
577598.2 4180947 297.81
577598.2 4180946 297.82
577597.7 4180948 297.86
577605.5 4180952 297.91
577602.8 4180958 297.99
