# .PCD v.7 - Point Cloud Data file format
VERSION .7
FIELDS x y z
SIZE 4 4 4
TYPE F F F
COUNT 1 1 1
WIDTH 96
HEIGHT 1
VIEWPOINT 0 0 0 1 0 0 0
POINTS 96
DATA ascii
577600.5625 4180946.75 299.720001221
577603.25 4180947.25 299.859985352
577600.5 4180947.25 299.5
577603.75 4180947.25 299.049987793
577604.625 4180947.25 300
577605.125 4180948.5 300.410003662
577600.375 4180949.75 300.559997559
577604.4375 4180949.75 300.720001221
577604.4375 4180950.25 300.989990234
577601.625 4180951 300.760009766
577602.0625 4180950.75 300.019989014
577603.5 4180950.75 300.720001221
577600.25 4180951.5 301.450012207
577602.9375 4180951.25 301
577603.4375 4180951.5 300.790008545
577604.3125 4180951.5 300.869995117
577600.125 4180952 300.940002441
577600.6875 4180952 301.239990234
577601.5 4180952 300.470001221
577602 4180951.75 300.559997559
577595.0625 4180955.5 302.339996338
577619.3125 4180955.5 303.559997559
577622.5625 4180955.25 303.339996338
577595 4180956 302.809997559
577616.5 4180955.75 303.5
577617 4180956 303.179992676
577619.1875 4180956 303
577615.625 4180956.5 303.309997559
577617 4180956.5 303.519989014
577619.1875 4180956.75 303.489990234
577621.0625 4180956.5 303.369995117
577594.375 4180957.25 303.040008545
577620.5625 4180957 303.929992676
577621.0625 4180957 303.660003662
577620.5 4180957.5 304.179992676
577621 4180957.5 303.100006104
577621.8125 4180958 304.109985352
577611.3125 4180958.75 303.940002441
577615.375 4180959 303.559997559
577611.25 4180959.5 304.339996338
577612.6875 4180959.25 304.690002441
577618.125 4180959.5 304.380004883
577611.25 4180960 305.070007324
577610.6875 4180960.25 305.220001221
577617.4375 4180960.75 304.170013428
577608.4375 4180961 304.779998779
577618 4180961.25 304.519989014
577618.875 4180960.75 304.75
577610.5625 4180961.5 304.839996338
577620.1875 4180961.5 305.100006104
577622.125 4180961.75 305.649993896
577609.125 4180962 304.480010986
577622.0625 4180962.25 305.350006104
577622.875 4180962.25 305
577609.125 4180962.75 305.040008545
577609.6875 4180962.5 305.029998779
577620.0625 4180962.75 305.450012207
577622.875 4180962.75 305.709991455
577611 4180963.5 305.559997559
577595.75 4180964.5 305.929992676
577596.5625 4180964.25 305.070007324
577597.125 4180964.25 305.660003662
577599.25 4180964.25 304.970001221
577602 4180964.25 306.079986572
577605.3125 4180964.5 305.790008545
577610.375 4180964.5 306.700012207
577595.1875 4180965.25 306.529998779
577595.75 4180965 305.890014648
577596.5 4180964.75 304.970001221
577597.0625 4180965 305.670013428
577601.9375 4180964.75 305.839996338
577605.3125 4180965.25 306.329986572
577615.875 4180964.75 306.950012207
577621.8125 4180965.25 306.75
577597.8125 4180965.5 305.290008545
577599.75 4180965.5 306.670013428
577601.9375 4180965.5 306.690002441
577605.25 4180965.75 305.899993896
577614.375 4180965.75 306.769989014
577622.625 4180965.75 307.010009766
577596.9375 4180966 305.5
577597.75 4180966 305.579986572
577605.25 4180966.25 306.510009766
577614.375 4180966.25 307.019989014
577615.75 4180965.75 307.239990234
577593.75 4180966.75 307.070007324
577595.625 4180966.75 306.549987793
577598.3125 4180966.75 306.950012207
577615.75 4180966.5 307.589996338
577605.25 4180967 307.510009766
577614.25 4180967.5 306.700012207
577593.625 4180967.75 306.510009766
577595 4180967.5 306.649993896
577597.625 4180967.75 306.410003662
577601.75 4180967.75 306.790008545
577605.1875 4180967.5 307.609985352
