# .PCD v.7 - Point Cloud Data file format
VERSION .7
FIELDS x y z
SIZE 4 4 4
TYPE F F F
COUNT 1 1 1
WIDTH 1221
HEIGHT 1
VIEWPOINT 0 0 0 1 0 0 0
POINTS 1221
DATA ascii
577591 4180939.75 296.25
577594.375 4180939.5 296.910003662
577594.8125 4180939.75 296.549987793
577595.6875 4180939.5 296.309997559
577597 4180939.75 296.440002441
577598.8125 4180939.5 296.239990234
577599.6875 4180939.5 296.390014648
577600.1875 4180939.5 296.690002441
577601.0625 4180939.5 296.470001221
577601.5625 4180939.5 296.369995117
577602.4375 4180939.75 296.519989014
577602.9375 4180939.5 296.5
577604.3125 4180939.5 296.350006104
577605.1875 4180939.5 296.5
577605.6875 4180939.5 296.660003662
577607.0625 4180939.75 296.570007324
577608 4180939.5 296.579986572
577608.5 4180939.5 296.459991455
577609.4375 4180939.5 296.480010986
577609.9375 4180939.5 296.429992676
577610.8125 4180939.5 296.519989014
577611.3125 4180939.5 296.600006104
577612.1875 4180939.5 296.410003662
577612.625 4180939.75 296.600006104
577613.5625 4180939.5 296.480010986
577614.0625 4180939.75 296.649993896
577614.875 4180939.5 296.410003662
577615.4375 4180939.5 296.790008545
577617.625 4180939.75 296.630004883
577619.0625 4180939.25 296.75
577620.4375 4180939.5 296.410003662
577620.9375 4180939.75 296.739990234
577621.8125 4180939.75 296.660003662
577622.25 4180939.75 296.570007324
577590.9375 4180940.25 296.579986572
577591.75 4180940 296.359985352
577592.1875 4180940 296.339996338
577594.3125 4180940.25 296.309997559
577594.75 4180940.5 296.299987793
577595.625 4180940 296.149993896
577596.125 4180940 296.540008545
577596.9375 4180940.25 296.260009766
577597.4375 4180940 296.369995117
577598.3125 4180940 296.359985352
577598.75 4180940 296.299987793
577599.625 4180940 296.269989014
577600.125 4180940.25 296.390014648
577601 4180940.25 296.390014648
577602.375 4180940.25 296.459991455
577602.875 4180940 296.600006104
577603.75 4180940 296.380004883
577604.25 4180940 296.5
577605.125 4180940 296.540008545
577605.6875 4180940.25 296.700012207
577606.5625 4180940 296.510009766
577607.0625 4180940.25 296.720001221
577607.9375 4180940 296.640014648
577608.4375 4180940 296.559997559
577609.375 4180940 296.440002441
577609.875 4180940 296.510009766
577610.75 4180940.25 296.600006104
577611.25 4180940 296.619995117
577612.125 4180940.25 296.630004883
577612.625 4180940.25 296.679992676
577613.5 4180940.25 296.679992676
577614 4180940.25 296.899993896
577614.875 4180940.25 296.709991455
577615.375 4180940.25 297.070007324
577617.625 4180940.25 296.920013428
577618.125 4180939.75 296.649993896
577619 4180940 296.709991455
577619.5625 4180940 296.679992676
577620.375 4180940 296.459991455
577620.875 4180940.5 296.549987793
577621.75 4180940.25 296.450012207
577622.1875 4180940.5 296.399993896
577590.875 4180940.75 296.429992676
577591.6875 4180940.5 296.200012207
577592.125 4180940.75 296.130004883
577593 4180940.75 296.559997559
577593.4375 4180940.5 296.260009766
577594.25 4180940.75 296.450012207
577594.6875 4180941 296.329986572
577595.5625 4180940.5 296.209991455
577596.0625 4180940.5 296.450012207
577596.875 4180940.75 296.350006104
577597.375 4180940.75 296.279998779
577598.25 4180940.5 296.260009766
577598.75 4180940.75 296.369995117
577599.5625 4180940.75 296.339996338
577600.0625 4180940.75 296.339996338
577600.9375 4180940.75 296.540008545
577601.4375 4180940.75 296.630004883
577602.3125 4180940.75 296.380004883
577602.8125 4180940.5 296.589996338
577603.6875 4180940.5 296.540008545
577604.1875 4180940.75 296.739990234
577605.0625 4180940.75 296.529998779
577605.625 4180940.75 296.540008545
577606.5 4180940.5 296.760009766
577607 4180940.75 296.609985352
577607.9375 4180940.5 296.679992676
577608.375 4180940.75 296.619995117
577609.3125 4180940.5 296.5
577609.8125 4180940.75 296.489990234
577610.6875 4180940.75 296.730010986
577611.1875 4180940.5 296.489990234
577612.0625 4180940.75 296.380004883
577612.5625 4180941 296.459991455
577613.4375 4180940.75 296.619995117
577613.9375 4180940.75 296.709991455
577614.8125 4180940.75 296.779998779
577615.375 4180940.75 297.010009766
577617.5625 4180941 296.940002441
577618.125 4180940.5 296.589996338
577618.9375 4180940.5 296.679992676
577619.5 4180940.5 296.779998779
577620.3125 4180940.5 296.510009766
577620.8125 4180941 296.470001221
577621.6875 4180940.75 296.380004883
577590.4375 4180941.25 296.950012207
577590.8125 4180941.5 296.059997559
577591.625 4180941.25 296.179992676
577592.125 4180941.25 296.170013428
577592.9375 4180941.25 296.290008545
577593.375 4180941.25 296.470001221
577594.1875 4180941.25 296.529998779
577594.625 4180941.5 296.279998779
577595.5 4180941.25 296.290008545
577596 4180941 296.209991455
577596.8125 4180941.5 296.619995117
577597.3125 4180941.25 296.269989014
577598.1875 4180941 296.369995117
577598.6875 4180941.25 296.279998779
577599.5 4180941.25 296.239990234
577600 4180941.25 296.410003662
577600.875 4180941.25 296.5
577601.4375 4180941.25 296.619995117
577602.25 4180941.5 296.510009766
577602.75 4180941.25 296.630004883
577603.625 4180941 296.570007324
577604.1875 4180941.25 297.019989014
577605 4180941.25 296.429992676
577605.5625 4180941.25 296.390014648
577606.4375 4180941 296.369995117
577606.9375 4180941.5 296.600006104
577607.875 4180941.25 296.709991455
577608.3125 4180941.25 296.440002441
577609.25 4180941.25 296.459991455
577609.75 4180941.25 296.440002441
577610.625 4180941.25 296.609985352
577611.125 4180941 296.440002441
577612 4180941.25 296.480010986
577612.5 4180941.5 296.489990234
577613.375 4180941.25 296.630004883
577613.875 4180941.25 296.619995117
577614.75 4180941.25 296.660003662
577615.25 4180941.25 296.760009766
577617.5 4180941.5 296.700012207
577618.0625 4180941 296.600006104
577618.875 4180941 296.600006104
577619.4375 4180941 296.549987793
577620.25 4180941.25 296.540008545
577620.75 4180941.5 296.529998779
577621.625 4180941.25 296.440002441
577622.1875 4180941 296.450012207
577590.3125 4180941.75 296.510009766
577590.75 4180942 296.299987793
577591.5625 4180941.75 296.320007324
577592.0625 4180941.75 296.040008545
577592.875 4180941.75 296.200012207
577593.3125 4180941.75 296.350006104
577594.125 4180942 296.489990234
577595.4375 4180941.75 296.339996338
577596 4180941.75 296.399993896
577596.8125 4180942 296.540008545
577597.25 4180941.75 296.149993896
577598.125 4180941.75 296.279998779
577598.625 4180941.75 296.25
577599.5 4180941.75 296.200012207
577600 4180941.75 296.309997559
577601.375 4180941.75 296.589996338
577602.1875 4180942 296.429992676
577605 4180941.75 296.820007324
577605.5 4180941.75 296.299987793
577606.375 4180941.5 296.559997559
577606.875 4180942 296.470001221
577607.8125 4180941.75 296.600006104
577608.3125 4180941.75 296.5
577609.1875 4180941.75 296.420013428
577609.6875 4180941.75 296.359985352
577610.5625 4180941.75 296.450012207
577611.125 4180941.75 296.450012207
577612 4180942 296.799987793
577612.4375 4180942 296.700012207
577613.3125 4180941.75 296.459991455
577613.8125 4180942 296.510009766
577614.6875 4180942 296.579986572
577615.25 4180941.75 296.720001221
577616.0625 4180942 296.809997559
577616.625 4180941.75 296.880004883
577617.4375 4180942 296.720001221
577618 4180941.5 296.600006104
577618.8125 4180941.75 296.420013428
577619.375 4180941.5 296.480010986
577620.1875 4180941.75 296.540008545
577621.5625 4180942 296.589996338
577622.125 4180941.5 296.369995117
577590.25 4180942.25 296.260009766
577590.75 4180942.5 296.25
577591.5 4180942.25 296.070007324
577592 4180942.5 296.029998779
577592.8125 4180942.25 296.170013428
577593.25 4180942.25 296.25
577594.0625 4180942.5 296.399993896
577594.625 4180942.25 296.489990234
577595.4375 4180942.25 296.369995117
577595.9375 4180942.25 296.279998779
577596.75 4180942.5 296.450012207
577597.25 4180942.5 296.290008545
577598.0625 4180942.25 296.640014648
577598.5625 4180942.5 296.420013428
577599.4375 4180942.25 296.510009766
577599.9375 4180942.5 296.519989014
577600.8125 4180942.5 296.670013428
577601.3125 4180942.5 296.489990234
577602.1875 4180942.5 296.600006104
577605.4375 4180942.5 296.399993896
577606.3125 4180942.25 296.459991455
577606.8125 4180942.5 296.380004883
577607.75 4180942.25 296.420013428
577608.25 4180942.5 296.429992676
577609.125 4180942.25 296.5
577609.625 4180942.5 296.640014648
577610.5 4180942.5 296.440002441
577611.0625 4180942.25 296.570007324
577611.9375 4180942.5 296.589996338
577613.25 4180942.5 296.420013428
577613.75 4180942.5 296.410003662
577614.625 4180942.5 296.660003662
577615.1875 4180942.5 296.540008545
577616 4180942.5 296.519989014
577616.5625 4180942.25 296.760009766
577617.375 4180942.5 296.579986572
577617.9375 4180942.25 296.440002441
577618.8125 4180942.25 296.579986572
577619.3125 4180942.25 296.690002441
577620.1875 4180942.25 296.600006104
577620.6875 4180942 296.570007324
577621.5 4180942.5 296.450012207
577622.0625 4180942.25 296.609985352
577622.875 4180942.5 296.220001221
577590.25 4180942.75 296.160003662
577590.6875 4180943 296.119995117
577591.5 4180942.75 296.089996338
577591.9375 4180943 295.970001221
577592.75 4180943 296.290008545
577593.25 4180943 296.309997559
577594.0625 4180943 296.320007324
577594.5625 4180942.75 296.25
577595.3125 4180943 296.079986572
577595.875 4180942.75 296.220001221
577596.6875 4180943.25 296.450012207
577597.1875 4180943 296.459991455
577598 4180942.75 296.5
577598.5 4180943 296.230010986
577599.375 4180943 296.269989014
577599.875 4180943 296.609985352
577600.75 4180943 296.480010986
577601.25 4180943 296.399993896
577602.125 4180943 296.470001221
577602.625 4180943 296.880004883
577604.875 4180943 297.049987793
577605.375 4180943 296.450012207
577606.25 4180942.75 296.459991455
577606.8125 4180943.25 296.730010986
577607.6875 4180942.75 296.320007324
577608.1875 4180943 296.459991455
577609.0625 4180943 296.369995117
577609.5625 4180943 296.320007324
577610.5 4180943 296.559997559
577611 4180942.75 296.700012207
577611.8125 4180943 296.440002441
577612.375 4180942.75 296.739990234
577613.1875 4180943 296.429992676
577613.75 4180943 296.450012207
577614.625 4180943 296.899993896
577615.125 4180943 296.540008545
577616 4180943 296.609985352
577616.5 4180942.75 296.820007324
577617.3125 4180943.25 296.440002441
577617.875 4180942.75 296.510009766
577618.75 4180942.75 296.450012207
577619.25 4180942.75 296.399993896
577620.125 4180943 296.579986572
577620.625 4180942.75 296.339996338
577621.4375 4180943 296.320007324
577622 4180942.75 296.510009766
577622.8125 4180943 296.420013428
577590.1875 4180943.5 296.600006104
577591.4375 4180943.5 296.049987793
577591.875 4180943.5 296.079986572
577592.6875 4180943.5 296.450012207
577593.1875 4180943.5 296.299987793
577594 4180943.5 296.279998779
577594.5 4180943.25 296.5
577595.3125 4180943.5 296.059997559
577595.8125 4180943.5 296.459991455
577596.625 4180943.75 296.239990234
577597.125 4180943.5 296.410003662
577598 4180943.5 296.369995117
577598.5 4180943.5 296.320007324
577599.3125 4180943.5 296.350006104
577599.8125 4180943.5 296.179992676
577600.6875 4180943.5 296.399993896
577601.1875 4180943.5 296.440002441
577602.0625 4180943.75 296.559997559
577602.5625 4180943.5 296.399993896
577603.9375 4180943.5 296.989990234
577604.8125 4180943.5 296.510009766
577605.3125 4180943.5 296.450012207
577606.25 4180943.25 296.579986572
577606.75 4180943.75 296.450012207
577607.625 4180943.5 296.609985352
577608.125 4180943.5 296.380004883
577609.0625 4180943.5 296.470001221
577609.5625 4180943.5 296.579986572
577610.4375 4180943.5 296.440002441
577610.9375 4180943.5 296.690002441
577611.8125 4180943.5 296.529998779
577612.25 4180943.75 296.429992676
577612.3125 4180943.25 296.720001221
577613.125 4180943.5 296.290008545
577613.6875 4180943.75 296.459991455
577614.5 4180943.5 296.420013428
577615.0625 4180943.5 296.450012207
577615.9375 4180943.75 296.489990234
577616.4375 4180943.5 296.720001221
577617.25 4180943.75 296.559997559
577617.8125 4180943.25 296.440002441
577618.6875 4180943.5 296.429992676
577619.1875 4180943.25 296.390014648
577620.0625 4180943.5 296.600006104
577620.5625 4180943.25 296.279998779
577621.375 4180943.75 296.309997559
577621.9375 4180943.25 296.450012207
577622.75 4180943.75 296.549987793
577591.375 4180944 296.369995117
577591.875 4180944.25 296.260009766
577592.625 4180944 296.350006104
577593.125 4180944 296.470001221
577593.9375 4180944.25 296
577594.4375 4180943.75 296.299987793
577595.25 4180944 296.309997559
577595.75 4180944 296.390014648
577596.5625 4180944.25 296.519989014
577597.0625 4180944 296.290008545
577597.9375 4180944 296.359985352
577598.4375 4180944 296.260009766
577599.25 4180944 296.209991455
577600.625 4180944.25 296.369995117
577601.125 4180944 296.359985352
577602 4180944.25 296.549987793
577602.5 4180944 296.559997559
577603.375 4180944 296.709991455
577603.875 4180944 296.480010986
577604.75 4180944.25 296.579986572
577605.3125 4180944.25 296.649993896
577606.1875 4180944 296.329986572
577606.6875 4180944.25 296.700012207
577607.5625 4180944 296.630004883
577608.0625 4180944.25 296.690002441
577609 4180944 296.480010986
577609.5 4180944.25 296.559997559
577610.375 4180944.25 296.480010986
577610.875 4180944 296.630004883
577611.75 4180944.25 296.470001221
577613.125 4180944.25 296.529998779
577613.625 4180944.25 296.5
577614.4375 4180944.25 296.309997559
577615 4180944 296.269989014
577615.875 4180944.25 296.540008545
577616.375 4180944 296.600006104
577617.25 4180944.25 296.579986572
577617.75 4180943.75 296.480010986
577618.625 4180944 296.230010986
577619.125 4180944 296.309997559
577620 4180944 296.489990234
577620.5 4180943.75 296.339996338
577621.3125 4180944.25 296.359985352
577621.875 4180943.75 296.220001221
577622.6875 4180944.25 296.350006104
577591.75 4180944.75 295.980010986
577592.5625 4180944.75 296.329986572
577593.0625 4180944.5 296.369995117
577593.875 4180944.75 296.279998779
577594.375 4180944.5 296.200012207
577595.1875 4180944.75 296.160003662
577595.6875 4180944.5 296.260009766
577596.5 4180945 296.420013428
577597 4180944.75 296.380004883
577597.875 4180944.5 296.260009766
577598.375 4180944.75 296.010009766
577599.25 4180944.75 296.399993896
577599.75 4180944.75 296.649993896
577600.5625 4180944.75 296.510009766
577601.0625 4180944.75 296.679992676
577601.9375 4180944.75 296.429992676
577602.4375 4180944.75 296.790008545
577603.3125 4180944.5 296.690002441
577603.8125 4180944.75 296.739990234
577604.6875 4180944.75 296.519989014
577605.25 4180944.75 296.679992676
577606.125 4180944.5 296.529998779
577606.625 4180945 296.450012207
577607.5625 4180944.5 296.809997559
577608.0625 4180944.75 296.899993896
577608.9375 4180944.75 296.390014648
577609.4375 4180944.75 296.470001221
577610.3125 4180944.75 296.380004883
577610.8125 4180944.5 296.579986572
577611.6875 4180944.75 296.359985352
577612.1875 4180944.25 296.390014648
577613.0625 4180944.75 296.579986572
577613.5625 4180944.75 296.459991455
577614.4375 4180944.75 296.369995117
577614.9375 4180944.75 296.5
577615.8125 4180944.75 296.510009766
577616.3125 4180944.5 296.350006104
577617.1875 4180945 296.470001221
577617.75 4180944.5 296.540008545
577618.5625 4180944.5 296.410003662
577619.125 4180944.5 296.320007324
577619.9375 4180944.5 296.390014648
577620.5 4180944.5 296.5
577621.3125 4180944.75 296.510009766
577621.8125 4180944.5 296.450012207
577622.625 4180944.75 296.230010986
577591.25 4180945.25 296.239990234
577591.75 4180945.25 296.220001221
577592.5625 4180945.25 296.239990234
577593 4180945.25 296.200012207
577593.8125 4180945.25 296.25
577594.3125 4180945 296.230010986
577595.125 4180945.25 296.079986572
577595.625 4180945 296.350006104
577596.4375 4180945.5 296.420013428
577597 4180945.25 296.380004883
577597.8125 4180945 296.309997559
577598.3125 4180945.25 296.660003662
577600.5 4180945.25 296.540008545
577601 4180945.25 296.489990234
577601.875 4180945.5 296.339996338
577602.375 4180945.25 296.410003662
577603.25 4180945.25 296.709991455
577603.75 4180945.25 296.440002441
577604.625 4180945.25 296.290008545
577605.1875 4180945.25 297.019989014
577606.0625 4180945 296.519989014
577606.5625 4180945.5 296.399993896
577607.5 4180945.25 296.399993896
577608 4180945.25 296.970001221
577608.875 4180945.25 296.470001221
577609.375 4180945.25 296.589996338
577610.25 4180945.25 296.489990234
577610.75 4180945 296.450012207
577611.625 4180945.25 296.609985352
577612.1875 4180945 296.390014648
577613 4180945.25 296.540008545
577613.5 4180945.5 296.679992676
577614.375 4180945.25 296.579986572
577614.875 4180945.25 296.619995117
577615.75 4180945.5 296.489990234
577616.25 4180945 296.459991455
577617.125 4180945.5 296.470001221
577617.6875 4180945 296.510009766
577618.5 4180945 296.510009766
577619.0625 4180945 296.380004883
577619.875 4180945.25 296.470001221
577620.4375 4180945 296.390014648
577621.25 4180945.5 296.510009766
577621.75 4180945 296.5
577622.625 4180945.5 296.309997559
577591.25 4180945.75 296.260009766
577591.6875 4180945.75 296.239990234
577592.5 4180945.75 296.209991455
577593 4180945.75 296.179992676
577593.75 4180945.75 296.089996338
577594.3125 4180945.5 296.239990234
577595.0625 4180945.75 296.049987793
577595.5625 4180945.75 296.190002441
577596.375 4180946 296.220001221
577596.9375 4180945.75 296.149993896
577597.75 4180945.75 296.079986572
577600.5 4180946 296.350006104
577601 4180945.75 296.320007324
577603.1875 4180945.75 296.480010986
577603.6875 4180945.75 296.380004883
577604.5625 4180946 296.480010986
577605.125 4180946 296.829986572
577606 4180945.75 296.559997559
577606.5 4180946 296.589996338
577607.4375 4180945.75 296.589996338
577607.9375 4180946 296.929992676
577608.8125 4180945.75 296.440002441
577609.3125 4180946 296.640014648
577610.1875 4180946 296.429992676
577610.75 4180945.75 296.529998779
577611.5625 4180946 296.480010986
577612.125 4180945.5 296.320007324
577612.9375 4180946 296.390014648
577613.4375 4180946 296.359985352
577614.3125 4180946 296.440002441
577614.8125 4180945.75 296.470001221
577615.6875 4180946 296.350006104
577616.25 4180945.75 296.339996338
577617.0625 4180946 296.450012207
577617.625 4180945.5 296.170013428
577618.4375 4180945.75 296.339996338
577619 4180945.75 296.290008545
577619.8125 4180945.75 296.200012207
577620.375 4180945.5 296.399993896
577621.1875 4180946 296.269989014
577621.75 4180945.5 296.410003662
577622.5625 4180946 296.440002441
577590.375 4180946.5 296.450012207
577591.1875 4180946.25 296.119995117
577591.625 4180946.5 296.070007324
577592.4375 4180946.25 296.010009766
577592.9375 4180946.25 296.049987793
577593.6875 4180946.5 296.220001221
577594.25 4180946 296.059997559
577595 4180946.25 296.190002441
577595.5625 4180946.25 296.339996338
577596.875 4180946.5 296.320007324
577597.6875 4180946.25 296.470001221
577599.5625 4180946.5 296.690002441
577603.125 4180946.25 296.329986572
577604.5625 4180946.5 296.920013428
577605.0625 4180946.5 297.010009766
577605.9375 4180946.25 296.489990234
577606.4375 4180946.5 296.519989014
577607.375 4180946.25 296.440002441
577607.875 4180946.5 296.630004883
577608.75 4180946.25 296.440002441
577609.25 4180946.5 296.369995117
577610.125 4180946.5 296.399993896
577610.6875 4180946.25 296.480010986
577611.5 4180946.5 296.339996338
577612.0625 4180946 296.459991455
577612.875 4180946.5 296.450012207
577613.375 4180946.5 296.350006104
577614.25 4180946.5 296.339996338
577614.8125 4180946.5 296.549987793
577615.625 4180946.5 296.410003662
577616.1875 4180946.25 296.459991455
577617 4180946.5 296.190002441
577617.5625 4180946.25 296.25
577618.375 4180946.25 296.260009766
577618.9375 4180946.25 296.359985352
577619.75 4180946.25 296.709991455
577620.3125 4180946.25 296.440002441
577621.125 4180946.5 296.299987793
577621.6875 4180946.25 296.570007324
577622.5 4180946.5 296.390014648
577590.3125 4180947.25 296.25
577591.125 4180947 296.130004883
577591.5625 4180947 296.269989014
577592.375 4180947 296.200012207
577592.875 4180947 296.299987793
577593.6875 4180947 296.200012207
577594.1875 4180946.75 296.089996338
577595 4180947 296.029998779
577595.5 4180946.75 296.160003662
577596.375 4180946.5 296.25
577596.8125 4180947 296.160003662
577597.6875 4180946.75 296.440002441
577599.5 4180947 296.359985352
577605.0625 4180947 296.989990234
577605.9375 4180946.75 296.510009766
577606.4375 4180947.25 296.470001221
577607.3125 4180947 296.529998779
577607.8125 4180947 296.910003662
577610.0625 4180947 296.359985352
577610.625 4180946.75 296.720001221
577611.4375 4180947 296.420013428
577612 4180946.75 296.600006104
577612.8125 4180947 296.459991455
577613.3125 4180947 296.339996338
577614.1875 4180947 296.549987793
577614.75 4180947 296.489990234
577615.5625 4180947 296.309997559
577616.125 4180946.75 296.320007324
577616.9375 4180947.25 296.230010986
577617.5 4180946.75 296.399993896
577618.3125 4180946.75 296.190002441
577618.875 4180946.75 296.339996338
577619.6875 4180946.75 296.209991455
577620.25 4180946.75 296.5
577621.0625 4180947 296.480010986
577621.625 4180946.75 296.200012207
577622.4375 4180947.25 296.470001221
577589.8125 4180947.5 296.230010986
577590.25 4180947.75 295.980010986
577591.0625 4180947.5 296.100006104
577591.5 4180947.5 296.190002441
577592.3125 4180947.5 296.179992676
577592.8125 4180947.5 296.279998779
577593.625 4180947.5 296.160003662
577594.125 4180947.25 296.029998779
577594.9375 4180947.5 296.320007324
577595.4375 4180947.5 296.220001221
577596.3125 4180947.25 296.160003662
577596.75 4180947.5 296.220001221
577599.4375 4180947.5 296.140014648
577600.3125 4180947.5 296.279998779
577605 4180947.75 296.899993896
577605.875 4180947.25 296.5
577610.5625 4180947.5 296.369995117
577611.4375 4180947.5 296.540008545
577611.9375 4180947.25 296.5
577612.75 4180947.5 296.339996338
577613.3125 4180947.75 296.440002441
577614.125 4180947.75 296.440002441
577614.6875 4180947.5 296.429992676
577615.5 4180947.75 296.299987793
577616.0625 4180947.5 296.359985352
577617.4375 4180947.25 296.390014648
577618.3125 4180947.5 296.420013428
577618.8125 4180947.25 296.25
577619.6875 4180947.5 296.540008545
577620.1875 4180947.25 296.420013428
577621 4180947.75 296.529998779
577621.5625 4180947.25 296.220001221
577622.375 4180947.75 296.260009766
577589.75 4180948 295.839996338
577590.1875 4180948.25 295.779998779
577591 4180948 296.25
577591.5 4180948.25 296.320007324
577592.25 4180948 295.959991455
577592.75 4180948 296.040008545
577593.5625 4180948.25 296.399993896
577594.0625 4180947.75 296.299987793
577594.875 4180948 296.019989014
577595.375 4180948 296.269989014
577596.25 4180947.75 296.519989014
577596.6875 4180948.25 296.410003662
577598.875 4180948 296.350006104
577599.375 4180948.25 296.290008545
577604.375 4180948.25 296.609985352
577605.8125 4180948 296.399993896
577606.375 4180947.75 296.410003662
577611.9375 4180947.75 296.649993896
577612.75 4180948.25 296.290008545
577613.25 4180948.25 296.440002441
577614.0625 4180948.25 296.260009766
577614.625 4180948.25 296.450012207
577615.4375 4180948.25 296.299987793
577616 4180948 296.510009766
577616.875 4180947.75 296.410003662
577617.4375 4180948 296.609985352
577618.25 4180948 296.179992676
577618.75 4180948 296.329986572
577619.625 4180948 296.609985352
577620.125 4180947.75 296.309997559
577620.9375 4180948.25 296.190002441
577621.5 4180947.75 296.200012207
577622.3125 4180948.25 296.170013428
577589.6875 4180948.5 295.989990234
577590.9375 4180948.5 296.079986572
577591.4375 4180948.75 296.309997559
577592.1875 4180948.75 296.019989014
577592.6875 4180948.5 295.929992676
577593.5 4180948.75 296.410003662
577594 4180948.5 296.100006104
577594.8125 4180948.75 296.339996338
577595.3125 4180948.5 296.269989014
577596.1875 4180948.25 296.260009766
577596.625 4180948.75 296.230010986
577598.8125 4180948.75 296.329986572
577599.375 4180948.75 296.480010986
577605.75 4180948.5 296.459991455
577606.3125 4180948.25 296.510009766
577614 4180948.75 296.390014648
577614.5625 4180948.75 296.619995117
577615.4375 4180948.75 296.299987793
577615.9375 4180948.5 296.260009766
577616.8125 4180948.25 296.260009766
577617.3125 4180948.5 296.399993896
577618.1875 4180948.5 296.239990234
577618.75 4180948.5 296.450012207
577619.5625 4180948.5 296.399993896
577620.0625 4180948.5 296.100006104
577620.875 4180948.75 296.290008545
577621.4375 4180948.5 296.160003662
577622.25 4180948.75 296.220001221
577590.125 4180948.75 296.089996338
577590.875 4180949.25 296.329986572
577591.375 4180949.25 296.309997559
577592.1875 4180949.25 296.190002441
577592.625 4180949.25 296.029998779
577593.4375 4180949.25 296.190002441
577594 4180949 296.220001221
577594.75 4180949.25 296.350006104
577595.3125 4180949.25 296.380004883
577596.125 4180949 295.929992676
577596.5625 4180949.25 296.089996338
577597.9375 4180949.25 296.290008545
577598.75 4180949.25 296.260009766
577599.3125 4180949.25 296.440002441
577614.5 4180949.25 296.429992676
577615.375 4180949.5 296.369995117
577615.9375 4180949.25 296.429992676
577616.75 4180949 296.279998779
577617.25 4180949 296.299987793
577618.125 4180949 296.320007324
577618.6875 4180949 296.380004883
577619.5 4180949.25 296.290008545
577620 4180949 296.190002441
577620.8125 4180949.5 296.230010986
577621.375 4180949 296.190002441
577590.0625 4180949.5 296.040008545
577590.8125 4180949.75 296.220001221
577591.3125 4180950 296.100006104
577592.125 4180949.75 296.010009766
577592.625 4180949.75 296.269989014
577593.375 4180950 296.209991455
577593.9375 4180949.5 296.290008545
577594.6875 4180949.75 296.260009766
577595.25 4180949.75 296.029998779
577596.0625 4180949.5 296.119995117
577596.5625 4180949.75 296.200012207
577597.875 4180949.75 296.220001221
577598.75 4180949.75 296.200012207
577599.25 4180950 296.290008545
577600.0625 4180950 296.380004883
577615.875 4180949.75 296.480010986
577616.6875 4180949.5 296.25
577617.25 4180949.5 296.380004883
577618.0625 4180949.75 296.690002441
577618.625 4180949.75 296.410003662
577619.4375 4180949.75 296.450012207
577620 4180949.5 296.269989014
577620.75 4180950 296.109985352
577590.0625 4180950 296.200012207
577590.8125 4180950.25 296.160003662
577591.25 4180950.5 295.950012207
577592.0625 4180950.5 296.140014648
577592.5625 4180950.5 296.309997559
577593.3125 4180950.5 296.149993896
577593.875 4180950.25 296.489990234
577594.6875 4180950.5 296.399993896
577595.1875 4180950.25 295.989990234
577596 4180950 296.230010986
577596.5 4180950.5 296.200012207
577597.3125 4180950.25 296.359985352
577597.875 4180950.5 296.459991455
577598.6875 4180950.5 296.320007324
577599.1875 4180950.5 296.519989014
577600.0625 4180950.5 296.339996338
577616.6875 4180950 296.279998779
577617.1875 4180950.25 296.359985352
577618 4180950.25 296.609985352
577618.5625 4180950.25 296.470001221
577619.375 4180950.25 296.279998779
577619.9375 4180950.25 296.429992676
577590 4180950.5 295.910003662
577590.75 4180951 296.209991455
577591.1875 4180951 296.040008545
577592 4180951 296.329986572
577592.5 4180951 296.399993896
577593.25 4180951 296.010009766
577593.8125 4180950.75 296.350006104
577594.625 4180951 296.260009766
577595.125 4180950.75 296.029998779
577596 4180950.75 296.309997559
577597.25 4180950.75 296.149993896
577597.75 4180951 296.119995117
577598.625 4180951 296.320007324
577599.125 4180951 296.320007324
577601.875 4180951 296.600006104
577616.625 4180950.75 296.540008545
577617.125 4180950.75 296.489990234
577617.9375 4180950.75 296.190002441
577618.5 4180950.75 296.480010986
577619.3125 4180951 296.390014648
577589.9375 4180951.25 295.980010986
577590.6875 4180951.5 296.209991455
577591.1875 4180951.5 296.059997559
577591.9375 4180951.5 296.089996338
577592.4375 4180951.5 296.290008545
577593.25 4180951.75 296.179992676
577593.75 4180951.25 296.029998779
577594.5625 4180951.5 296.130004883
577595.0625 4180951.5 296.329986572
577595.9375 4180951.25 296.399993896
577597.25 4180951.5 296.200012207
577597.75 4180951.5 296.109985352
577598.5625 4180951.5 296.279998779
577599.0625 4180951.75 296.239990234
577602.6875 4180951.5 296.640014648
577604.0625 4180951.75 296.450012207
577617.0625 4180951.25 296.420013428
577617.875 4180951.5 296.410003662
577618.5 4180951.5 296.649993896
577619.25 4180951.5 296.540008545
577589.875 4180951.75 296.239990234
577590.625 4180952 295.970001221
577591.125 4180952.25 296.230010986
577591.875 4180952.25 296.130004883
577592.375 4180952 296
577593.1875 4180952.25 296.179992676
577593.6875 4180951.75 296.059997559
577594.5 4180952 296.149993896
577595 4180952 296.179992676
577595.875 4180951.75 296.380004883
577596.375 4180952.25 296.329986572
577597.1875 4180952 296.059997559
577597.6875 4180952.25 296.260009766
577598.5 4180952.25 296.260009766
577599 4180952.25 296.209991455
577599.875 4180952.25 296.369995117
577600.375 4180952.25 296.269989014
577601.75 4180952 296.339996338
577602.625 4180952 296.630004883
577603.125 4180952.25 296.470001221
577604 4180952.25 296.290008545
577617 4180952 296.519989014
577617.875 4180952 296.399993896
577618.375 4180952 296.269989014
577619.25 4180952 296.559997559
577589.8125 4180952.25 296.100006104
577590.5625 4180952.5 295.920013428
577591.0625 4180952.75 296.5
577591.8125 4180952.75 296.029998779
577592.3125 4180952.75 296.059997559
577593.125 4180952.75 296.369995117
577593.6875 4180952.5 296.220001221
577594.4375 4180952.75 296.220001221
577594.9375 4180952.5 296.010009766
577595.8125 4180952.5 296.290008545
577596.3125 4180952.75 296.179992676
577597.125 4180952.5 296.230010986
577597.625 4180952.75 296.420013428
577598.5 4180952.75 296.390014648
577599 4180952.75 296.160003662
577599.8125 4180952.75 296.350006104
577600.375 4180952.75 296.429992676
577601.25 4180952.25 296.5
577601.6875 4180952.75 296.440002441
577602.5625 4180952.5 296.649993896
577603.0625 4180952.75 296.459991455
577603.9375 4180952.75 296.549987793
577617 4180952.5 296.459991455
577617.8125 4180952.5 296.440002441
577618.375 4180952.5 296.510009766
577619.1875 4180952.75 296.339996338
577589.75 4180952.75 296
577590.5 4180953.25 295.929992676
577591 4180953.25 296.190002441
577591.75 4180953.25 296.049987793
577592.3125 4180953.25 296.230010986
577593.0625 4180953.25 295.950012207
577593.625 4180953 296.420013428
577594.375 4180953.25 296.200012207
577594.9375 4180953.25 296.369995117
577596.25 4180953.25 296.329986572
577597.0625 4180953.25 296.170013428
577597.5625 4180953.25 296.260009766
577598.4375 4180953.25 296.25
577599.75 4180953.25 296.329986572
577600.3125 4180953.25 296.429992676
577601.1875 4180953 296.700012207
577601.6875 4180953.25 296.690002441
577602.5 4180953.25 296.679992676
577603.0625 4180953.25 296.700012207
577616.375 4180953 296.339996338
577616.9375 4180953 296.390014648
577617.75 4180953.25 296.510009766
577618.3125 4180953 296.359985352
577619.125 4180953.25 296.200012207
577619.6875 4180953 296.329986572
577589.75 4180953.5 296.140014648
577590.4375 4180953.75 295.850006104
577590.9375 4180954 296.109985352
577591.75 4180954 296.119995117
577592.25 4180953.75 296.040008545
577593 4180954 296.010009766
577593.5625 4180953.5 295.910003662
577594.3125 4180953.75 296.260009766
577594.875 4180953.75 296.329986572
577595.6875 4180953.5 296.049987793
577596.1875 4180953.75 296.089996338
577597 4180953.75 296.290008545
577597.5 4180954 296.290008545
577598.375 4180953.75 296.350006104
577598.9375 4180953.5 296.75
577601.125 4180953.5 296.5
577601.625 4180953.75 296.869995117
577602.5 4180953.75 297.010009766
577603 4180954 297.079986572
577603.875 4180953.5 296.640014648
577604.4375 4180953.5 296.820007324
577616.3125 4180953.5 296.459991455
577616.875 4180953.75 296.320007324
577617.6875 4180953.75 296.399993896
577618.25 4180953.75 296.390014648
577619.0625 4180953.75 296.570007324
577619.625 4180953.5 296.269989014
577620.4375 4180953.5 296.109985352
577620.9375 4180953.5 296.170013428
577589.6875 4180954 295.970001221
577590.375 4180954.25 295.829986572
577590.9375 4180954.5 296.179992676
577591.6875 4180954.5 295.950012207
577592.1875 4180954.25 295.869995117
577592.9375 4180954.5 295.910003662
577593.5 4180954.25 295.959991455
577594.3125 4180954.5 296.239990234
577594.8125 4180954.25 296.109985352
577595.625 4180954 296.130004883
577596.125 4180954.5 296.100006104
577596.9375 4180954.25 296.269989014
577597.5 4180954.5 296.369995117
577598.3125 4180954.5 296.309997559
577598.875 4180954 296.679992676
577599.75 4180954 296.519989014
577600.1875 4180954.5 296.709991455
577601.125 4180954 296.980010986
577601.5625 4180954.5 296.809997559
577602.4375 4180954.25 296.989990234
577603.875 4180954 296.910003662
577604.4375 4180954 296.970001221
577616.3125 4180954.25 296.709991455
577616.8125 4180954.25 296.649993896
577617.625 4180954.25 296.309997559
577618.1875 4180954.25 296.420013428
577619 4180954.25 296.410003662
577619.5625 4180954.25 296.450012207
577620.4375 4180954 296.329986572
577620.9375 4180954.25 296.390014648
577590.375 4180955 296.170013428
577591.625 4180955 295.980010986
577592.125 4180955 295.929992676
577593.4375 4180954.75 295.970001221
577594.25 4180955 296.209991455
577595.625 4180954.75 296.269989014
577596.0625 4180955 296.209991455
577596.9375 4180955 296.480010986
577597.4375 4180955 296.369995117
577598.25 4180955 296.329986572
577598.875 4180954.5 296.910003662
577599.6875 4180954.5 296.709991455
577601.0625 4180954.75 296.709991455
577602.375 4180955 297.079986572
577602.9375 4180954.5 297.059997559
577603.8125 4180954.5 297.010009766
577616.25 4180954.75 296.450012207
577616.75 4180954.75 296.660003662
577617.5625 4180954.75 296.380004883
577618.125 4180954.75 296.390014648
577620.375 4180954.5 296.529998779
577620.875 4180954.75 296.480010986
577590.3125 4180955.5 296.160003662
577590.8125 4180955.5 295.970001221
577590.875 4180955 296.010009766
577591.5625 4180955.5 295.869995117
577592.0625 4180955.5 296.040008545
577592.9375 4180955 296.200012207
577593.375 4180955.25 296.140014648
577594.1875 4180955.5 296.220001221
577595.5625 4180955.25 296.209991455
577596.875 4180955.5 296.390014648
577597.375 4180955.5 296.329986572
577598.1875 4180955.5 296.369995117
577598.8125 4180955 296.600006104
577599.625 4180955 296.489990234
577600.0625 4180955.5 296.410003662
577600.1875 4180955 296.790008545
577601 4180955.25 296.769989014
577602.875 4180955 296.920013428
577617.5 4180955.5 296.320007324
577618.0625 4180955.5 296.299987793
577590.25 4180956 296.130004883
577591.5 4180956.25 295.829986572
577592 4180956 295.970001221
577592.875 4180955.75 295.970001221
577593.3125 4180956 296.019989014
577594.125 4180956.25 296.119995117
577594.625 4180956 296.119995117
577595.5 4180955.75 296.570007324
577596.0625 4180955.75 296.519989014
577596.8125 4180956 296.230010986
577598.125 4180956.25 296.380004883
577598.75 4180955.75 296.359985352
577599.5625 4180955.75 296.420013428
577602.25 4180956 296.820007324
577602.8125 4180955.75 296.670013428
577590.1875 4180956.75 296.100006104
577590.75 4180956.25 295.839996338
577592 4180956.75 295.899993896
577592.8125 4180956.25 295.850006104
577593.3125 4180956.5 296.130004883
577594.625 4180956.5 296.040008545
577595.4375 4180956.5 296.5
577596 4180956.25 296.359985352
577596.75 4180956.75 296.269989014
577597.3125 4180956.25 296.510009766
577598.6875 4180956.25 296.510009766
577599.5 4180956.25 296.429992676
577600.0625 4180956.25 296.720001221
577600.875 4180956.25 296.75
577590.125 4180957.25 296.079986572
577590.6875 4180956.75 295.970001221
577591.4375 4180956.75 295.980010986
577591.9375 4180957.25 295.899993896
577592.75 4180956.75 295.890014648
577593.25 4180957 295.929992676
577594 4180957.25 296.179992676
577594.5625 4180957.25 296.200012207
577595.4375 4180957 296.589996338
577595.9375 4180956.75 296.339996338
577596.6875 4180957.25 296.320007324
577599.5 4180956.75 296.660003662
577600.8125 4180957 296.720001221
577601.3125 4180957.25 297.010009766
577590.0625 4180957.75 295.950012207
577590.625 4180957.25 295.970001221
577591.375 4180957.25 295.920013428
577591.875 4180957.75 295.869995117
577592.6875 4180957.25 295.910003662
577593.1875 4180957.75 296.049987793
577593.9375 4180957.75 296.079986572
577594.5 4180957.75 296.209991455
577595.3125 4180957.5 296.140014648
577595.875 4180957.25 296.070007324
577596.625 4180957.75 296.290008545
577600.75 4180957.5 296.709991455
577601.25 4180957.75 296.649993896
577590.0625 4180958.25 295.950012207
577590.5625 4180958 296.010009766
577591.375 4180958 295.829986572
577591.8125 4180958.5 295.970001221
577592.625 4180958 295.950012207
577593.125 4180958.25 295.890014648
577594.4375 4180958.25 296.260009766
577595.25 4180958 296.179992676
577595.8125 4180958 296.089996338
577596.5625 4180958.25 296.350006104
577600.6875 4180958 296.5
577601.1875 4180958.5 296.799987793
577590 4180959 295.950012207
577590.5625 4180958.5 296.119995117
577591.25 4180958.5 295.630004883
577591.75 4180959 295.859985352
577592.5625 4180958.5 295.899993896
577593.0625 4180958.75 295.929992676
577593.9375 4180958.5 296.059997559
577594.375 4180959 296.230010986
577595.25 4180958.75 296.290008545
577595.75 4180958.5 296.390014648
577596.5 4180959 296.190002441
577597.125 4180958.5 296.369995117
577598.5 4180958.5 296.529998779
577599.3125 4180958.5 296.579986572
577599.8125 4180958.5 296.559997559
577600.6875 4180958.75 297.070007324
577589.9375 4180959.5 295.880004883
577590.5 4180959 296
577591.25 4180959 295.779998779
577591.6875 4180959.5 295.920013428
577592.5625 4180959 296.119995117
577593 4180959.25 296.130004883
577593.875 4180959 296.140014648
577594.375 4180959.5 296.350006104
577595.1875 4180959.25 296.279998779
577595.75 4180959 296.510009766
577596.5 4180959.5 296.269989014
577597.0625 4180959 296.390014648
577597.875 4180959 296.269989014
577598.4375 4180959 296.429992676
577599.25 4180959.25 296.529998779
577599.75 4180959 296.399993896
577600.625 4180959.25 296.730010986
577589.875 4180960 295.890014648
577590.4375 4180959.75 295.880004883
577591.1875 4180959.75 296.040008545
577591.6875 4180960 295.959991455
577592.5 4180959.75 296.109985352
577593 4180960 296.019989014
577593.8125 4180959.5 296.290008545
577594.3125 4180960 296.200012207
577595.125 4180959.75 296.309997559
577595.6875 4180959.75 296.410003662
577596.4375 4180960 296.410003662
577597 4180959.75 296.359985352
577597.8125 4180959.5 296.429992676
577598.375 4180959.75 296.420013428
577599.1875 4180959.75 296.779998779
577599.75 4180959.75 296.429992676
577600.5625 4180959.75 296.600006104
577589.8125 4180960.75 295.660003662
577590.375 4180960.25 295.779998779
577591.125 4180960.25 295.959991455
577591.625 4180960.75 296.079986572
577592.9375 4180960.5 296.059997559
577593.75 4180960.25 296.329986572
577594.25 4180960.75 296.399993896
577595.0625 4180960.5 296.279998779
577595.625 4180960.25 296.339996338
577596.375 4180960.75 296.390014648
577596.9375 4180960.25 296.309997559
577597.75 4180960.25 296.399993896
577598.3125 4180960.25 296.390014648
577599.125 4180960.25 296.600006104
577599.6875 4180960.25 296.519989014
577600.5 4180960.25 296.440002441
577601.0625 4180960.25 296.75
577589.75 4180961.25 295.859985352
577590.3125 4180960.75 295.829986572
577591.0625 4180960.75 296.019989014
577591.5625 4180961.25 295.760009766
577592.375 4180960.75 296.049987793
577592.875 4180961 296
577593.6875 4180960.75 296.269989014
577594.1875 4180961.25 296.070007324
577595 4180961 296.380004883
577595.5625 4180960.75 296.5
577596.3125 4180961.25 296.600006104
577596.9375 4180960.75 296.329986572
577597.75 4180960.75 296.380004883
577598.25 4180960.75 296.320007324
577599.0625 4180960.75 296.369995117
577599.625 4180960.75 296.730010986
577600.4375 4180961 296.410003662
577601 4180960.75 296.459991455
577601.75 4180961.25 296.709991455
577590.25 4180961.25 296.010009766
577591.0625 4180961.5 296.119995117
577592.3125 4180961.5 296.25
577592.8125 4180961.75 296.269989014
577593.625 4180961.25 296.25
577594.125 4180961.75 296.339996338
577595 4180961.5 296.589996338
577595.5 4180961.5 296.549987793
577596.875 4180961.25 296.429992676
577597.6875 4180961.25 296.390014648
577598.1875 4180961.5 296.329986572
577599 4180961.5 296.329986572
577599.5625 4180961.25 296.540008545
577600.375 4180961.5 296.459991455
577600.9375 4180961.25 296.480010986
577601.6875 4180961.75 296.420013428
577602.3125 4180961.25 296.429992676
577589.6875 4180962.25 295.779998779
577589.75 4180961.75 295.950012207
577590.25 4180962 295.75
577591 4180962 296.179992676
577591.5 4180961.75 295.920013428
577592.25 4180962 296.119995117
577592.75 4180962.25 296.049987793
577593.5625 4180962 296.149993896
577594.0625 4180962.25 296.170013428
577594.9375 4180962.25 296.529998779
577595.5 4180962 296.600006104
577596.25 4180961.75 296.640014648
577596.8125 4180962 296.390014648
577597.625 4180962 296.429992676
577598.1875 4180962 296.559997559
577599 4180962 296.359985352
577599.5 4180962 296.570007324
577600.3125 4180962 296.529998779
577600.875 4180961.75 296.429992676
577601.625 4180962.25 296.440002441
577602.25 4180962 296.540008545
577590.1875 4180962.5 295.850006104
577590.9375 4180962.5 296.140014648
577592.25 4180962.5 296.140014648
577592.6875 4180962.75 295.950012207
577593.5625 4180962.5 296.179992676
577596.75 4180962.5 296.380004883
577597.5625 4180962.5 296.489990234
577598.0625 4180962.5 296.25
577598.9375 4180962.5 296.359985352
577599.5 4180962.5 296.489990234
577600.8125 4180962.5 296.510009766
577602.1875 4180962.5 296.399993896
577590.125 4180963 295.820007324
577591.375 4180963 296.079986572
577592.1875 4180963 296.109985352
577592.6875 4180963.5 296.119995117
577593.5 4180963 296.279998779
577598.0625 4180963.25 296.25
577598.875 4180963.25 296.410003662
577590.0625 4180963.75 295.640014648
577592.125 4180963.75 296.239990234
577592.625 4180964 296.040008545
577593.4375 4180963.75 296.359985352
577590 4180964.25 295.739990234
577590.75 4180964.25 295.760009766
577591.3125 4180964.25 296.059997559
577592.0625 4180964.25 296.410003662
577592.5625 4180964.5 296.25
577593.375 4180964.25 296.299987793
577590 4180964.75 295.910003662
577590.6875 4180964.75 295.850006104
577591.25 4180964.75 295.950012207
577592 4180964.75 296.269989014
577592.5 4180965 296.149993896
577590.6875 4180965.5 295.989990234
577591.1875 4180965.25 296.049987793
577591.9375 4180965.5 296.130004883
577592.4375 4180965.75 296.149993896
577589.875 4180966 296.279998779
577590.625 4180966 296.070007324
577591.125 4180966 296.049987793
577591.9375 4180966 296.160003662
577592.4375 4180966.25 296.230010986
577590.5625 4180966.5 295.959991455
577591.0625 4180966.5 296.049987793
577591.875 4180966.5 296.029998779
