# .PCD v.7 - Point Cloud Data file format
VERSION .7
FIELDS x y z
SIZE 4 4 4
TYPE F F F
COUNT 1 1 1
WIDTH 79
HEIGHT 1
VIEWPOINT 0 0 0 1 0 0 0
POINTS 79
DATA ascii
577602.5625 4180946.25 301.329986572
577603.8125 4180948 301.220001221
577601.875 4180948.75 301.899993896
577600.9375 4180949.75 302.519989014
577602.3125 4180949.75 302.290008545
577597.6875 4180950.25 302.529998779
577600.9375 4180950.5 302.850006104
577621.625 4180950.25 302.769989014
577621.625 4180950.75 303.140014648
577596.75 4180951.5 302.950012207
577620.25 4180951.5 303.910003662
577621.625 4180951.5 304.059997559
577622.5 4180951.25 304.230010986
577596.6875 4180952.25 302.720001221
577620.1875 4180952 303.769989014
577621 4180952.5 304.25
577621.4375 4180953.25 304.350006104
577622.3125 4180953 304.260009766
577622.8125 4180953 303.940002441
577622.25 4180953.5 304.089996338
577622.8125 4180953.5 304.339996338
577622.25 4180954.25 304.609985352
577622.75 4180954.25 304.839996338
577616.375 4180958.25 305.489990234
577618.375 4180958 306.260009766
577616.375 4180959 305.760009766
577616.9375 4180958.5 306.209991455
577616.9375 4180959 306.299987793
577617.75 4180959.25 306.649993896
577618.3125 4180959 306.350006104
577619.125 4180959.25 306.679992676
577612.6875 4180960 306.059997559
577616.875 4180959.5 306.279998779
577609.375 4180960.5 305.989990234
577612.125 4180960.5 306.630004883
577612.6875 4180960.5 306.660003662
577617.625 4180960.25 306.739990234
577609.875 4180960.75 305.820007324
577609.8125 4180961.5 306.369995117
577609.8125 4180962 306.380004883
577612 4180962.25 306.869995117
577610.5625 4180962.75 306.989990234
577611.125 4180962.5 306.950012207
577612.5 4180963 307.559997559
577610.5 4180963.25 307.049987793
577612.4375 4180963.5 307.420013428
577591.375 4180964 306.429992676
577610.5 4180964 307.089996338
577594.4375 4180964.75 306.600006104
577595.3125 4180964.75 307.230010986
577599.3125 4180965 307.119995117
577599.875 4180965 307.480010986
577594.4375 4180965.5 307.420013428
577599.25 4180965.75 307.739990234
577613.125 4180965.75 308.399993896
577614.5 4180965.25 308.339996338
577594.375 4180966 307.630004883
577595.1875 4180965.75 307.209991455
577596.5 4180966 307.220001221
577603.3125 4180966.25 307.880004883
577597.8125 4180966.75 307.769989014
577612.25 4180966.25 308.339996338
577615 4180966.75 308.929992676
577616.3125 4180966.5 308.619995117
577617.125 4180966.75 308.929992676
577617.75 4180966.75 308.850006104
577593.75 4180967.25 307.75
577595.0625 4180967 307.440002441
577595.625 4180967.5 308.279998779
577597 4180967.25 308.100006104
577597.75 4180967.25 307.649993896
577598.3125 4180967.5 307.980010986
577604.6875 4180967.25 308.260009766
577616.3125 4180967.25 309.220001221
577617.0625 4180967.25 308.970001221
577594.25 4180967.75 307.769989014
577596.375 4180967.75 308.040008545
577612.125 4180967.5 308.350006104
577619.8125 4180967.5 309.089996338
