# .PCD v.7 - Point Cloud Data file format
VERSION .7
FIELDS x y z
SIZE 4 4 4
TYPE F F F
COUNT 1 1 1
WIDTH 1501
HEIGHT 1
VIEWPOINT 0 0 0 1 0 0 0
POINTS 1501
DATA ascii
0.7408461 0.3857442 -0.9710313
0.6708182 0.4116003 -0.9768251
0.6909389 0.431167 -0.9733488
0.8366123 0.4493361 -0.9710313
0.7488863 0.4682041 -0.9710313
0.7706166 0.5080363 -0.9745075
0.9146804 0.5038435 -0.9768251
0.8977872 0.5234102 -0.9756663
0.828564 0.5394829 -0.9791425
0.9018112 0.5653389 -0.9733488
0.8535137 -0.6156534 -0.9617613
0.8020129 -0.5730259 -0.967555
0.875244 -0.5541579 -0.9640788
0.8068257 -0.5338924 -0.9687138
0.7915421 -0.5220126 -0.9698725
0.7376268 -0.509434 -0.9663963
0.7255383 -0.4640112 -0.9640788
0.8189142 -0.4150943 -0.9663963
0.6080418 -0.371768 -0.9663963
0.6788746 -0.3703704 -0.9617613
0.8084434 -0.3542977 -0.967555
0.8269464 -0.3361286 -0.9663963
0.7577475 -0.3109713 -0.9698725
0.9002016 -0.315863 -0.9606025
0.6160981 -0.2914046 -0.9698725
0.7432445 -0.2976939 -0.9698725
0.8881131 -0.2809224 -0.9687138
0.9042096 -0.2767296 -0.967555
0.7472686 -0.2543676 -0.9617613
0.8350027 -0.256464 -0.9687138
0.67646 -0.2424878 -0.9652376
0.8205239 -0.2285115 -0.9663963
0.6241303 -0.2110412 -0.9629201
0.551704 -0.1956674 -0.9640788
0.6998 -0.1712089 -0.9652376
0.5557362 -0.1558351 -0.967555
0.703808 -0.1313767 -0.9606025
0.5597603 -0.1160028 -0.9640788
0.6893292 -0.1174004 -0.9663963
0.6193174 -0.09014675 -0.9687138
0.5460622 -0.0754717 -0.9629201
0.9090466 -0.07058001 -0.9606025
0.7682021 -0.04402516 -0.9617613
0.5500944 -0.0349406 -0.9698725
0.5766616 0.04402516 -0.9663963
0.9380284 0.04192872 -0.9698725
0.6354059 0.07896576 -0.9640788
0.6571442 0.1090147 -0.9629201
0.6402429 0.1194969 -0.9687138
0.8760488 0.1432565 -0.9663963
0.5122675 0.1663173 -0.9698725
0.6442509 0.1607268 -0.9687138
0.7899324 0.1649196 -0.9617613
0.5710198 0.174703 -0.9640788
0.718311 0.1761006 -0.9606025
0.8808858 0.1830887 -0.9687138
0.5162997 0.2068484 -0.9687138
0.6482831 0.2033543 -0.967555
0.8108579 0.2096436 -0.9629201
0.575044 0.2173305 -0.9629201
0.7231238 0.2180294 -0.9617613
0.7408461 0.2285115 -0.9617613
0.8848938 0.2236198 -0.9640788
0.6523072 0.2459818 -0.9629201
0.814882 0.2501747 -0.9606025
0.6048145 0.3277428 -0.9629201
0.6611683 0.3291405 -0.967555
0.7617716 0.4283718 -0.9687138
0.9605635 0.4304682 -0.9617613
0.9090466 0.46471 -0.9617613
0.8237271 0.4996506 -0.9606025
0.7529104 0.5115304 -0.9629201
0.8486847 0.5702306 -0.967555
0.8132724 -0.453529 -0.9524913
0.7987936 -0.4353599 -0.9536501
0.6748424 -0.4095038 -0.9559675
0.5420381 -0.2739343 -0.9501738
0.7617716 -0.2697414 -0.958285
0.8156869 -0.2683438 -0.9513326
0.6015952 -0.2550664 -0.9571263
0.8913405 -0.2368973 -0.9513326
0.6056193 -0.2138365 -0.958285
0.4744408 -0.1914745 -0.958285
0.5323882 -0.1998602 -0.9571263
0.7730311 -0.1495458 -0.9513326
0.9050145 -0.1125087 -0.9594438
0.76417 -0.08525506 -0.9571263
0.8366123 -0.05939902 -0.9513326
0.6225206 -0.04682041 -0.9594438
0.4760585 -0.009084556 -0.9501738
0.6265448 -0.004891684 -0.958285
0.5541185 0.008385744 -0.9594438
0.9219319 0.05450734 -0.9571263
0.579881 0.08525506 -0.958285
0.5621587 0.09224319 -0.9594438
0.7094499 0.092942 -0.9594438
0.6603636 0.1502446 -0.9571263
0.7360091 0.1893781 -0.9524913
0.9339963 0.1802935 -0.9536501
0.6684037 0.230608 -0.9536501
0.8663828 0.234102 -0.9501738
0.5790761 0.2592593 -0.9559675
0.727148 0.2613557 -0.958285
0.8881131 0.2648498 -0.9548088
0.5050161 0.2795248 -0.9501738
0.8712198 0.2753319 -0.9559675
0.7303753 0.3039832 -0.9524913
0.8921453 0.3053809 -0.9536501
0.5919453 0.3850454 -0.9548088
0.5356156 0.4095038 -0.9501738
0.9050145 0.4262753 -0.9571263
0.8881131 0.4416492 -0.9548088
0.8921453 0.4835779 -0.9536501
0.8398397 0.4912648 -0.958285
0.9211271 0.5877009 -0.9501738
0.9050145 0.6086653 -0.9571263
0.8784713 -0.512928 -0.9478563
0.5066338 -0.4507338 -0.9455388
0.6539169 -0.4493361 -0.9478563
0.6619571 -0.3647799 -0.9432213
0.8945598 -0.3529001 -0.94438
0.519519 -0.3242488 -0.94438
0.6667861 -0.3228512 -0.94438
0.53803 -0.312369 -0.9420626
0.4615555 -0.3095737 -0.9432213
0.8108579 -0.3095737 -0.9478563
0.5959775 -0.2948987 -0.94438
0.4655796 -0.2690426 -0.9420626
0.4696118 -0.2299092 -0.9478563
0.7649748 -0.2285115 -0.9490151
0.6088467 -0.1698113 -0.9409038
0.5364204 -0.1572327 -0.9466976
0.4776681 -0.1495458 -0.9432213
0.7770633 -0.1083159 -0.9420626
0.4671973 -0.09154437 -0.94438
0.8502944 -0.09364081 -0.9490151
0.6354059 -0.08944794 -0.9478563
0.7062225 -0.08874913 -0.9409038
0.4712214 -0.04891684 -0.9409038
0.4905373 -0.03004892 -0.94438
0.4985936 0.04961566 -0.9432213
0.8494895 0.06638714 -0.94438
0.5026016 0.08944794 -0.9455388
0.7802826 0.08385744 -0.9490151
0.7971839 0.09084556 -0.9432213
0.5066338 0.129979 -0.9420626
0.5830842 0.1271838 -0.9490151
0.7842906 0.1250874 -0.9490151
0.5661829 0.1355695 -0.9478563
0.713474 0.1355695 -0.9490151
0.7311801 0.1502446 -0.9478563
0.5871164 0.1684137 -0.9432213
0.4961791 0.1977638 -0.9455388
0.5911404 0.208246 -0.94438
0.9380284 0.2243187 -0.94438
0.5002032 0.2396925 -0.9409038
0.519519 0.2487771 -0.9490151
0.5951646 0.2487771 -0.9432213
0.9420525 0.2655486 -0.9466976
0.7343994 0.3466108 -0.94438
0.5171046 0.405311 -0.9409038
0.612066 0.4095038 -0.9432213
0.8181094 0.4591195 -0.9490151
0.8430429 0.5331936 -0.9455388
0.8309786 0.5849057 -0.9490151
0.851904 0.6128581 -0.9478563
0.8647732 -0.4856744 -0.9339513
0.8824955 -0.4716981 -0.9385864
0.5138772 -0.3640811 -0.9304751
0.5331931 -0.3522013 -0.9374276
0.4494911 -0.2571628 -0.9339513
0.5267544 -0.2382949 -0.9304751
0.5452574 -0.2320056 -0.9362688
0.5396397 -0.1146052 -0.9351101
0.556541 0.05310971 -0.9362688
0.5814745 0.3032844 -0.9351101
0.5267544 0.3305381 -0.9397451
0.8221335 0.3340321 -0.9362688
0.5122675 0.3654787 -0.9304751
0.6635668 0.3738644 -0.9362688
0.5943598 0.4290706 -0.9362688
0.5991968 0.4716981 -0.9339513
0.9146804 -0.7078966 -0.9212051
0.6603636 -0.5255066 -0.9246814
0.5090483 -0.4060098 -0.9258401
0.6008064 -0.4060098 -0.9223638
0.819719 -0.3696716 -0.9200463
0.5227222 -0.2802236 -0.9281576
0.4615555 -0.1306778 -0.9269989
0.4929518 0.01118099 -0.9293163
0.86157 0.02865129 -0.9235226
0.4824809 0.07617051 -0.9212051
0.598392 0.2921034 -0.9258401
0.8044112 0.3361286 -0.9269989
0.5854986 0.3466108 -0.9269989
0.5299737 0.3731656 -0.9212051
0.6064241 0.3724668 -0.9235226
0.5203239 0.4486373 -0.9293163
0.6957678 0.5171209 -0.9223638
0.9154853 0.5499651 -0.9293163
0.7714214 0.5541579 -0.9293163
0.6555265 -0.5639413 -0.9142526
0.5686054 -0.5436758 -0.9154114
0.5879212 -0.5248078 -0.9142526
0.6434461 -0.5283019 -0.9119351
0.519519 -0.4696017 -0.9188876
0.5774665 -0.4598183 -0.9130939
0.4470767 -0.4241789 -0.9154114
0.5235271 -0.4283718 -0.9107764
0.5903357 -0.3333333 -0.9154114
0.4527104 -0.2138365 -0.9177288
0.7834858 -0.02515723 -0.9177288
0.4905373 0.1593291 -0.9188876
0.893755 0.3508036 -0.9107764
0.8124676 0.4213836 -0.9188876
0.6144804 0.4528302 -0.9188876
0.6708182 0.4612159 -0.9142526
0.6015952 0.5150245 -0.9119351
0.6225206 0.5338924 -0.9107764
0.6788746 0.5436758 -0.9177288
0.9066241 0.6540881 -0.9188876
0.8575459 0.6967156 -0.9130939
0.6506976 -0.6030748 -0.9096176
0.5911404 -0.4842767 -0.9073001
0.5806858 -0.4171908 -0.9073001
0.450296 -0.382949 -0.9038239
0.5275592 -0.3885395 -0.9084589
0.4350123 -0.3766597 -0.9049826
0.5854986 -0.3745632 -0.9061413
0.4543201 -0.3438155 -0.9038239
0.8969743 0.3927324 -0.9015064
0.8808858 0.4067086 -0.9038239
0.828564 0.4178896 -0.9061413
0.6177078 0.4940601 -0.9073001
0.6740375 0.5038435 -0.9003477
0.6989952 0.5597484 -0.9061413
0.6828825 0.5863033 -0.9073001
0.7030032 0.6009783 -0.9038239
0.7738359 -0.6387142 -0.8945539
0.7207255 -0.6198463 -0.8957126
0.7247335 -0.580014 -0.8968714
0.708645 -0.5793152 -0.8910776
0.6378284 -0.568833 -0.8980301
0.7287657 -0.5394829 -0.8922364
0.5718247 -0.498253 -0.8968714
0.4985936 -0.487072 -0.8968714
0.6466654 -0.4849755 -0.8980301
0.6619571 -0.4814815 -0.8922364
0.870415 -0.3969252 -0.8933951
0.455133 -0.1684137 -0.8933951
0.8720247 0.3242488 -0.8968714
0.8760488 0.3654787 -0.8991889
0.8237271 0.3787561 -0.8957126
0.8060209 0.3822502 -0.8910776
0.5364204 0.4563242 -0.8968714
0.8358075 0.6743536 -0.8945539
0.76417 -0.7204752 -0.8806489
0.9283544 -0.6855346 -0.8829664
0.769007 -0.6792453 -0.8876014
0.8446525 -0.6477987 -0.8876014
0.703808 -0.6198463 -0.8806489
0.5822793 -0.5611461 -0.8876014
0.5943598 -0.4402516 -0.8829664
0.4374268 -0.3326345 -0.8829664
0.4422397 -0.2921034 -0.8841252
0.7561297 0.6030748 -0.8841252
0.7770633 0.639413 -0.8887601
0.7601619 0.6450035 -0.8876014
0.7818922 0.6806429 -0.8887601
0.8132724 -0.9412998 -0.8725377
0.8293689 -0.9378057 -0.8760139
0.2281641 -0.8448637 -0.8748552
0.9154853 -0.802935 -0.8783314
-0.8712198 -0.7756813 -0.8725377
0.8446525 -0.7791754 -0.8702202
0.8350027 -0.7302586 -0.8760139
0.7110595 -0.6960168 -0.8736964
0.6989952 -0.6603774 -0.8713789
0.7150837 -0.6561845 -0.8760139
0.6321866 -0.6086653 -0.8794901
0.7118644 -0.5366876 -0.8771726
0.436622 -0.498253 -0.8760139
0.750496 0.5632425 -0.8713789
0.311866 0.6072676 -0.8725377
0.8510992 0.661775 -0.8760139
0.256341 0.8728162 -0.8748552
-0.5895308 -0.918239 -0.8632677
0.9018112 -0.918239 -0.8621089
0.690134 -0.8923829 -0.8667439
-0.5098531 -0.8756115 -0.8621089
0.3818778 -0.870021 -0.8667439
0.9066241 -0.8798043 -0.8690614
0.893755 -0.8679245 -0.8679026
0.3996 -0.8525507 -0.8655851
0.8221335 -0.8553459 -0.8644264
-0.0977984 -0.8469602 -0.8609502
0.4028032 -0.8120196 -0.8621089
0.8261415 -0.8134172 -0.8655851
0.8406445 -0.8183089 -0.8632677
0.685297 -0.7854647 -0.8621089
0.6144804 -0.7749825 -0.8644264
-0.08974209 -0.7686932 -0.8609502
0.6313818 -0.7554158 -0.8632677
-0.3561394 -0.7316562 -0.8609502
0.6185126 -0.732355 -0.8609502
0.8486847 -0.7393431 -0.8655851
-0.5098531 -0.7148847 -0.8655851
0.8390349 -0.6855346 -0.8621089
0.5678005 -0.6778477 -0.8621089
0.7834858 -0.6785465 -0.8621089
0.5525088 -0.6631726 -0.8621089
0.5726295 -0.6387142 -0.8679026
0.4993984 -0.6219427 -0.8621089
-0.002812866 -0.6079665 -0.8632677
0.2531137 -0.591195 -0.8655851
0.7915421 -0.5995807 -0.8655851
0.5042112 -0.5828092 -0.8655851
0.5122675 -0.5024458 -0.8621089
0.4197206 -0.4961565 -0.8632677
-0.4076402 -0.4654088 -0.8621089
-0.6104563 -0.3878407 -0.8632677
0.2949727 -0.3542977 -0.8655851
0.37626 -0.3291405 -0.8679026
0.3842922 -0.2487771 -0.8609502
-0.6426654 0.1900769 -0.8609502
-0.5211368 0.487072 -0.8644264
0.2225222 0.5527603 -0.8621089
-0.04065577 0.5674354 -0.8609502
0.4494911 0.5681342 -0.8621089
0.8301737 0.6366177 -0.8655851
0.3199061 0.6890287 -0.8644264
0.83823 0.7190776 -0.8667439
-0.02454316 0.7281621 -0.8609502
0.9114611 0.7449336 -0.8621089
0.8422542 0.7610063 -0.8644264
0.3319866 0.8099231 -0.8621089
0.3955759 0.8273934 -0.8621089
-0.556541 0.8630328 -0.8621089
0.8712198 0.8651293 -0.8655851
0.4993984 0.8714186 -0.8609502
0.875244 0.9056604 -0.8621089
0.5034064 0.9126485 -0.8621089
0.5388349 -0.9531796 -0.8528389
0.6675989 -0.9524808 -0.8516802
-0.6829067 -0.9447939 -0.8505214
0.4494911 -0.9433962 -0.8597914
-0.6675989 -0.9399022 -0.8574739
0.2185142 -0.9266247 -0.8563152
0.6152853 -0.9126485 -0.8586327
0.1557378 -0.9000699 -0.8539977
0.23783 -0.9063592 -0.8597914
0.4543201 -0.9000699 -0.8563152
0.394771 -0.8902865 -0.8539977
0.6008064 -0.8993711 -0.8516802
0.8164917 -0.895877 -0.8505214
0.745659 -0.8853948 -0.8574739
0.5307785 -0.8707198 -0.8505214
0.6193174 -0.873515 -0.8574739
0.7625603 -0.8756115 -0.8586327
-0.8076386 -0.8672257 -0.8539977
-0.6595587 -0.8616352 -0.8586327
0.6048145 -0.8574423 -0.8516802
0.7488863 -0.8427673 -0.8505214
-0.5066338 -0.8350804 -0.8539977
0.7665845 -0.836478 -0.8586327
0.9098515 -0.8392732 -0.8586327
-0.3496928 -0.8204053 -0.8528389
0.6804842 -0.8273934 -0.8597914
0.8969743 -0.8245982 -0.8539977
-0.3649845 -0.8148148 -0.8539977
0.4623603 -0.8155136 -0.8551564
-0.09457105 -0.8064291 -0.8539977
-0.5187142 -0.7959469 -0.8551564
0.5549233 -0.7952481 -0.8516802
-0.4253464 -0.78826 -0.8539977
0.4663925 -0.7735849 -0.8505214
0.4824809 -0.7791754 -0.8505214
0.8301737 -0.7700908 -0.8563152
0.3134756 -0.7645003 -0.8505214
0.0696134 -0.7526205 -0.8505214
0.08651474 -0.758211 -0.8539977
0.7746407 -0.7575122 -0.8597914
-0.7955742 -0.7491265 -0.8551564
0.1718263 -0.7421384 -0.8516802
0.4865131 -0.7400419 -0.8528389
0.9058193 -0.7407407 -0.8586327
0.4712214 -0.7316562 -0.8551564
-0.08651474 -0.7274633 -0.8505214
0.6346011 -0.7134871 -0.8505214
0.7786729 -0.7169811 -0.8528389
0.1758585 -0.7037037 -0.8574739
0.2579507 -0.7085954 -0.8551564
0.5476799 -0.7037037 -0.8528389
0.851904 -0.698812 -0.8551564
-0.08250671 -0.6883298 -0.8516802
-0.413282 -0.6701607 -0.8528389
0.2619587 -0.6687631 -0.8539977
-0.8599603 -0.6547869 -0.8597914
-0.2676005 -0.6491964 -0.8516802
0.3432461 -0.6436059 -0.8563152
0.7867051 -0.6387142 -0.8574739
-0.0744504 -0.6100629 -0.8574739
0.4229239 -0.6128581 -0.8505214
0.7754456 -0.5918938 -0.8563152
-0.5541266 -0.5625437 -0.8505214
-0.7762585 -0.5520615 -0.8505214
-0.6273577 -0.5457722 -0.8539977
0.1919469 -0.5457722 -0.8563152
0.4148917 -0.53529 -0.8516802
0.4309801 -0.53529 -0.8551564
0.3553346 -0.5248078 -0.8551564
-0.9219319 -0.5101328 -0.8539977
0.2780713 -0.5108316 -0.8528389
-0.08009224 -0.5010482 -0.8551564
0.2603491 -0.5052411 -0.8505214
-0.5460702 -0.4828791 -0.8516802
-0.4704166 -0.4800839 -0.8528389
-0.2330011 -0.4828791 -0.8574739
-0.2507072 -0.479385 -0.8505214
-0.07606006 -0.4598183 -0.8551564
0.01408847 -0.4395528 -0.8528389
0.2869163 -0.4325646 -0.8586327
-0.404437 -0.4220825 -0.8539977
0.4277608 -0.4129979 -0.8586327
-0.1589652 -0.4095038 -0.8586327
0.2732343 -0.3794549 -0.8528389
-0.5332011 -0.3640811 -0.8551564
0.3714231 -0.3675751 -0.8528389
-0.9058434 -0.3508036 -0.8516802
0.2780713 -0.338225 -0.8574739
-0.6748504 -0.2948987 -0.8574739
-0.5436718 -0.2872117 -0.8528389
-0.5251608 -0.2851153 -0.8528389
-0.7625844 -0.2550664 -0.8505214
-0.7432686 -0.2348008 -0.8505214
-0.5356156 -0.2033543 -0.8516802
-0.8124676 -0.1781971 -0.8539977
-0.8277593 -0.1649196 -0.8516802
-0.6547298 -0.09573725 -0.8563152
-0.727156 -0.07617051 -0.8551564
-0.7995984 -0.05939902 -0.8563152
-0.5903357 -0.02515723 -0.8597914
-0.7191158 0.004192872 -0.8505214
-0.7923469 0.01956674 -0.8516802
-0.7979887 0.129979 -0.8528389
-0.7070354 0.1236897 -0.8505214
-0.7939646 0.1705101 -0.8516802
-0.7167013 0.2040531 -0.8528389
-0.6981903 0.2026555 -0.8574739
-0.9171029 0.2753319 -0.8574739
0.4189158 0.2781272 -0.8505214
-0.704637 0.3284416 -0.8505214
-0.5388349 0.3284416 -0.8516802
-0.5299737 0.4074074 -0.8563152
-0.6177078 0.4409504 -0.8528389
-0.3158981 0.453529 -0.8597914
-0.3722359 0.4744934 -0.8551564
0.44063 0.4856744 -0.8597914
-0.7432686 0.4996506 -0.8516802
-0.4446783 0.5115304 -0.8505214
-0.3682038 0.5136268 -0.8586327
-0.0663941 0.5115304 -0.8516802
-0.6660054 0.5227114 -0.8505214
-0.6096514 0.524109 -0.8574739
-0.1492992 0.5227114 -0.8528389
0.4438493 0.5276031 -0.8505214
-0.7392365 0.5394829 -0.8551564
-0.06158124 0.5520615 -0.8586327
-0.2829083 0.6051712 -0.8551564
-0.2990048 0.6212439 -0.8539977
0.3971855 0.6450035 -0.8574739
0.4011936 0.6848358 -0.8539977
-0.8929501 0.7078966 -0.8574739
0.4052177 0.7253669 -0.8528389
0.3231255 0.7302586 -0.8539977
0.8575459 0.7449336 -0.8505214
-0.4197287 0.7505241 -0.8528389
0.2217174 0.7512229 -0.8505214
-0.1863131 0.7749825 -0.8551564
-0.6579491 0.7861635 -0.8551564
0.06880858 0.7854647 -0.8528389
0.3907389 0.7868623 -0.8505214
0.9162901 0.7868623 -0.8597914
0.05029758 0.7945493 -0.8563152
0.4905373 0.7924528 -0.8505214
-0.787518 0.8078267 -0.8528389
0.2506992 0.8357792 -0.8528389
-0.2579507 0.8455625 -0.8563152
0.8502944 0.8462614 -0.8516802
-0.5766616 0.8574423 -0.8516802
-0.1967839 0.8560447 -0.8516802
-0.178281 0.8567435 -0.8505214
0.07686488 0.8651293 -0.8539977
-0.8760568 0.8749126 -0.8586327
-0.426956 0.8791055 -0.8528389
0.3996 0.8707198 -0.8516802
-0.008454694 0.8888889 -0.8539977
0.4824809 0.9014675 -0.8586327
-0.6458848 0.9112509 -0.8528389
-0.7754536 0.9287212 -0.8516802
-0.6981903 0.9412998 -0.8551564
-0.8164997 -0.9454927 -0.8458865
0.5959775 -0.940601 -0.8424102
0.8832842 -0.9475891 -0.8400927
-0.7569426 -0.9378057 -0.8412514
0.2957775 -0.932914 -0.8458865
-0.8897308 -0.92942 -0.8424102
-0.7400413 -0.9252271 -0.8424102
0.6844922 -0.92942 -0.8435689
-0.9042338 -0.918239 -0.8412514
0.3134756 -0.9175402 -0.8435689
-0.8116627 -0.9063592 -0.8493627
-0.6796793 -0.9014675 -0.8447277
-0.7529185 -0.8965758 -0.8435689
-0.6643957 -0.8986723 -0.8435689
0.4704166 -0.8979734 -0.8458865
0.8309786 -0.8944794 -0.8458865
-0.8261657 -0.8839972 -0.8493627
-0.7360172 -0.8867925 -0.848204
-0.8993968 -0.8770091 -0.8493627
-0.5863115 -0.8763103 -0.8447277
-0.5275592 -0.8777079 -0.8470452
-0.2740472 -0.8756115 -0.8412514
0.3183126 -0.8784067 -0.8447277
0.2410332 -0.8644305 -0.8400927
0.6756472 -0.8686233 -0.848204
-0.6756552 -0.85884 -0.8400927
0.8350027 -0.8553459 -0.8458865
-0.8816906 -0.8497554 -0.8447277
-0.731985 -0.8469602 -0.8435689
-0.8953726 -0.8336827 -0.8470452
-0.4462718 -0.839972 -0.8493627
0.06075227 -0.8357792 -0.8412514
0.07766971 -0.8350804 -0.8400927
-0.1847035 -0.8211041 -0.8458865
0.5348027 -0.8273934 -0.8435689
-0.8768617 -0.8113208 -0.848204
0.4784729 -0.8183089 -0.8470452
0.1484863 -0.8036338 -0.8424102
-0.4430687 -0.7966457 -0.8400927
0.2297737 -0.7980433 -0.8400927
0.6265448 -0.7931516 -0.8458865
-0.9508976 -0.7861635 -0.8470452
-0.8004032 -0.7868623 -0.8435689
0.2490895 -0.7854647 -0.8400927
0.3891292 -0.7833683 -0.8412514
0.9010065 -0.780573 -0.8424102
-0.7400413 -0.7700908 -0.8470452
-0.3609764 -0.7714885 -0.848204
0.1525104 -0.7610063 -0.8412514
-0.5146901 -0.7540182 -0.8493627
-0.4382316 -0.7554158 -0.8493627
-0.1066354 -0.7512229 -0.8435689
0.5589555 -0.7540182 -0.8424102
0.2531137 -0.7463312 -0.8412514
0.6885244 -0.7407407 -0.8458865
-0.8688053 -0.732355 -0.8470452
0.4100547 -0.7302586 -0.8400927
-0.8092483 -0.7141859 -0.8412514
0.5629635 -0.7155835 -0.8470452
-0.7923469 -0.7085954 -0.8424102
-0.8647974 -0.6932215 -0.848204
-0.1895405 -0.6995108 -0.8424102
0.4905373 -0.6995108 -0.8458865
-0.7311801 -0.6862334 -0.8470452
-0.7158965 -0.6883298 -0.8412514
-0.3529201 -0.6869322 -0.8412514
0.4744408 -0.687631 -0.8400927
0.6217158 -0.6883298 -0.8447277
-0.8052402 -0.6736548 -0.8493627
0.3215158 -0.6799441 -0.8470452
0.6386333 -0.672956 -0.8424102
-0.9388332 -0.6659679 -0.8400927
0.1790617 -0.6631726 -0.8470452
0.4189158 -0.6526904 -0.848204
-0.2499024 -0.6401118 -0.8412514
0.01166595 -0.6457023 -0.8435689
-0.801208 -0.6303284 -0.8400927
0.1653877 -0.6359189 -0.8400927
-0.6362188 -0.6240391 -0.8447277
-0.5026258 -0.628232 -0.8493627
0.1830858 -0.6233403 -0.8458865
0.5557362 -0.6184486 -0.8435689
-0.723148 -0.6002795 -0.8458865
0.1017984 -0.6002795 -0.8435689
0.3464735 -0.602376 -0.8435689
-0.7802826 -0.591195 -0.8493627
-0.930777 -0.5870021 -0.8400927
-0.8696102 -0.5821104 -0.8493627
-0.4985936 -0.5863033 -0.8458865
-0.5734423 -0.5779175 -0.8458865
-0.1766633 -0.5737247 -0.8400927
0.4108595 -0.5765199 -0.848204
0.426956 -0.5737247 -0.848204
0.5597603 -0.5765199 -0.8458865
-0.3392461 -0.5625437 -0.8493627
-0.2418622 -0.5611461 -0.8470452
0.001195166 -0.5646401 -0.8493627
0.1066354 -0.5604472 -0.8435689
0.4873179 -0.5639413 -0.8470452
-0.4020225 -0.5506639 -0.848204
0.09053887 -0.5408805 -0.8400927
-0.5694102 -0.5359888 -0.8435689
-0.5500944 -0.5220126 -0.8458865
-0.23783 -0.5213138 -0.8470452
0.02373834 -0.5269043 -0.8424102
0.1106595 -0.520615 -0.8435689
-0.7722263 -0.5115304 -0.8412514
-0.7142869 -0.5178197 -0.848204
0.1782729 -0.5101328 -0.8412514
-0.7883228 -0.5059399 -0.8447277
-0.3183126 -0.5031447 -0.8400927
-0.1525185 -0.5045423 -0.8458865
-0.5645973 -0.4940601 -0.848204
0.1146917 -0.4807827 -0.8470452
-0.7682021 -0.4723969 -0.848204
0.3424413 -0.4709993 -0.8412514
-0.6201223 -0.4654088 -0.8458865
-0.3142885 -0.4633124 -0.8412514
0.1991823 -0.46471 -0.8412514
-0.6917437 -0.4521314 -0.8435689
-0.561378 -0.4521314 -0.8412514
0.09857908 -0.4584207 -0.8424102
0.4229239 -0.4528302 -0.8493627
0.4382316 -0.453529 -0.8400927
-0.2297818 -0.4416492 -0.8447277
-0.7802826 -0.4220825 -0.8435689
-0.8366204 -0.4150943 -0.8470452
-0.6877196 -0.4116003 -0.8400927
0.103408 -0.4157932 -0.8470452
0.1227239 -0.4018169 -0.8470452
-0.9267689 -0.3948288 -0.8435689
0.1911421 -0.3857442 -0.8493627
-0.6837115 -0.3724668 -0.8412514
-0.4004129 -0.3794549 -0.8470452
-0.5525169 -0.3689727 -0.8470452
-0.9227448 -0.3535989 -0.8458865
0.3553346 -0.3466108 -0.8493627
-0.828564 -0.3361286 -0.8470452
-0.6796793 -0.3326345 -0.8447277
-0.3963807 -0.3375262 -0.8470452
-0.7521057 -0.3137666 -0.8435689
0.298192 -0.312369 -0.8470452
-0.8245561 -0.2955975 -0.8447277
0.3786745 -0.2865129 -0.8447277
-0.4462718 -0.2403913 -0.8412514
-0.612074 -0.2320056 -0.8458865
-0.7585523 -0.2124389 -0.848204
-0.5179094 -0.2061495 -0.848204
-0.7400413 -0.1935709 -0.8458865
-0.7545282 -0.1705101 -0.8447277
-0.4567426 -0.1705101 -0.848204
-0.5315914 -0.1607268 -0.8447277
-0.5138853 -0.1649196 -0.8400927
-0.8245561 -0.1229909 -0.8447277
-0.750496 -0.1278826 -0.8424102
-0.5098531 -0.1257862 -0.8435689
-0.731985 -0.1146052 -0.8447277
-0.819719 -0.08036339 -0.8424102
-0.6692086 -0.0580014 -0.8400927
-0.723148 -0.0349406 -0.8470452
-0.888926 -0.01956674 -0.8447277
-0.9468896 -0.001397624 -0.8412514
-0.5871164 0.01956674 -0.8412514
-0.9428654 0.03773585 -0.8435689
-0.8808858 0.0635919 -0.8458865
-0.7303753 0.07966457 -0.8400927
-0.8575459 0.1278826 -0.8447277
-0.5026258 0.1320755 -0.8424102
-0.575052 0.1439553 -0.8412514
-0.930777 0.1572327 -0.8447277
-0.7215384 0.163522 -0.8424102
-0.7038321 0.1649196 -0.8424102
-0.6265528 0.1837876 -0.8470452
-0.7907373 0.2124389 -0.8447277
-0.4937646 0.2145353 -0.8458865
-0.5661909 0.2271139 -0.8424102
-0.694971 0.2438854 -0.848204
0.422119 0.3214535 -0.8400927
-0.7601619 0.3410203 -0.8400927
-0.8334011 0.3668763 -0.8435689
-0.6829067 0.3640811 -0.8424102
0.426956 0.3633823 -0.8400927
-0.8470911 0.3969252 -0.8458865
-0.4535233 0.4325646 -0.8400927
-0.3770649 0.4353599 -0.8435689
0.2756568 0.4514326 -0.8447277
-0.7649989 0.4626136 -0.848204
-0.4486863 0.4716981 -0.8470452
-0.8213287 0.487072 -0.8447277
-0.6144885 0.4842767 -0.8447277
-0.2346107 0.4828791 -0.8424102
-0.6877196 0.4975542 -0.8435689
-0.5943678 0.5038435 -0.8447277
-0.4647989 0.5059399 -0.8412514
0.02051098 0.5031447 -0.8447277
-0.8350107 0.5234102 -0.8458865
-0.2917534 0.5255066 -0.8424102
0.1098547 0.5227114 -0.8424102
-0.5187142 0.5303983 -0.8447277
0.283689 0.53529 -0.8424102
-0.9106563 0.5436758 -0.8412514
-0.5903357 0.5436758 -0.8447277
-0.8124676 0.5667365 -0.8493627
-0.5146901 0.5702306 -0.8447277
0.3690086 0.5793152 -0.8435689
-0.6796793 0.580014 -0.8435689
0.02856729 0.5870021 -0.8400927
0.04788311 0.5849057 -0.8493627
0.1380316 0.5883997 -0.8412514
-0.8857228 0.5967855 -0.8447277
0.2249448 0.5960867 -0.8400927
-0.8092483 0.6079665 -0.8400927
-0.03743647 0.6093641 -0.848204
0.03259947 0.628232 -0.8412514
0.05190724 0.6254368 -0.8458865
0.2088483 0.628232 -0.8400927
-0.4325978 0.6317261 -0.8447277
-0.1195287 0.6338225 -0.8447277
-0.05352493 0.6359189 -0.8493627
-0.279689 0.6464011 -0.8412514
-0.1372268 0.6477987 -0.8435689
-0.03340429 0.6498952 -0.8470452
0.1227239 0.6470999 -0.8458865
0.3778697 0.6638714 -0.8470452
-0.3521153 0.6743536 -0.8493627
-0.2756568 0.6862334 -0.8412514
-0.5742472 0.7037037 -0.8447277
-0.2917534 0.7058001 -0.8412514
-0.7963791 0.7274633 -0.848204
-0.3649845 0.7428372 -0.8470452
-0.2869163 0.7477289 -0.8447277
-0.8696102 0.758211 -0.8447277
-0.3448638 0.7554158 -0.8435689
0.04546863 0.7533194 -0.8435689
-0.7931598 0.7686932 -0.8400927
0.3263528 0.7721873 -0.8424102
0.3086466 0.7840671 -0.8424102
0.86157 0.7861635 -0.8412514
-0.8656021 0.7987421 -0.8412514
-0.4358172 0.7973445 -0.8447277
-0.4165013 0.7924528 -0.8400927
0.4124692 0.8078267 -0.8412514
-0.1823051 0.8169113 -0.8447277
0.1629651 0.8287911 -0.8400927
0.865578 0.8266946 -0.8412514
-0.86157 0.8378756 -0.8435689
-0.6338043 0.8448637 -0.8458865
0.4165013 0.847659 -0.8400927
0.1436493 0.8560447 -0.8435689
-0.3521153 0.8665269 -0.8458865
-0.09457105 0.8742138 -0.8447277
0.1484863 0.8972746 -0.848204
0.3392381 0.8923829 -0.8493627
-0.5726376 0.9000699 -0.8412514
-0.5533217 0.9056604 -0.8435689
0.1710214 0.9084556 -0.8412514
-0.8535217 0.9189378 -0.8400927
-0.09054692 0.9147449 -0.8400927
0.5605652 0.9133473 -0.8412514
-0.4953743 0.9322152 -0.8470452
0.3432461 0.9336129 -0.8470452
0.8583507 0.9301188 -0.8447277
-0.5686054 0.9412998 -0.848204
-0.1887276 0.940601 -0.8424102
0.5822793 0.9433962 -0.8435689
-0.612074 -0.9538784 -0.8308227
0.3714231 -0.9503843 -0.8366165
0.7529104 -0.951782 -0.8354577
0.4655796 -0.9371069 -0.8389339
-0.8309786 -0.9245283 -0.8377752
0.7400413 -0.9245283 -0.8366165
-0.5162997 -0.9105521 -0.8319815
0.5251367 -0.9112509 -0.8377752
0.5420381 -0.9119497 -0.8366165
-0.210466 -0.9084556 -0.8389339
0.6708182 -0.9084556 -0.8331402
0.8873083 -0.9056604 -0.8377752
0.1388204 -0.8867925 -0.8331402
0.2209126 -0.881202 -0.8319815
0.07284075 -0.873515 -0.8308227
0.5452574 -0.8714186 -0.8308227
-0.7488863 -0.8532495 -0.8377752
-0.02938016 -0.8567435 -0.8389339
0.158941 -0.85884 -0.8377752
0.4567426 -0.8553459 -0.8377752
0.4736359 -0.8567435 -0.8389339
0.1436493 -0.8455625 -0.8366165
-0.5243561 -0.8350804 -0.8366165
-0.1146917 -0.8343816 -0.8377752
0.5500944 -0.8329839 -0.8377752
-0.9557346 -0.8232006 -0.834299
-0.2024257 -0.8232006 -0.834299
0.2442525 -0.8238994 -0.8319815
0.3842922 -0.8238994 -0.8308227
-0.02534799 -0.8134172 -0.8331402
0.1621603 -0.8183089 -0.8319815
-0.7448783 -0.8099231 -0.8377752
0.3078418 -0.8036338 -0.8308227
-0.1114724 -0.791754 -0.8331402
0.06478444 -0.7931516 -0.8377752
0.08087292 -0.7945493 -0.8308227
0.7529104 -0.7980433 -0.8331402
-0.02133995 -0.7721873 -0.834299
0.1669973 -0.7798742 -0.8389339
-0.001219311 -0.7624039 -0.834299
-0.5002112 -0.7540182 -0.8319815
0.2338059 -0.7540182 -0.8308227
0.7569426 -0.7561146 -0.8331402
-0.8873324 -0.74703 -0.8366165
0.5420381 -0.7428372 -0.834299
-0.01650295 -0.7302586 -0.8354577
-0.7207255 -0.7260657 -0.8308227
-0.4961791 -0.7148847 -0.8308227
0.1565426 -0.7183788 -0.8331402
0.3335962 -0.7190776 -0.8308227
0.9211271 -0.7176799 -0.8331402
-0.6587539 -0.6911251 -0.8366165
0.3971855 -0.6995108 -0.8331402
0.6925485 -0.6967156 -0.8366165
-0.01247882 -0.6890287 -0.8366165
0.006836995 -0.684137 -0.8331402
0.09376622 -0.6778477 -0.8389339
-0.5823035 -0.6589797 -0.8319815
-0.3352139 -0.6596785 -0.8308227
-0.1855083 -0.6568833 -0.834299
0.4937566 -0.6582809 -0.8319815
-0.7279608 -0.6422082 -0.8354577
-0.7126772 -0.6484976 -0.8389339
-0.08009224 -0.6464011 -0.8319815
0.4776681 -0.6450035 -0.8308227
0.09779035 -0.6387142 -0.8366165
0.2466751 -0.6303284 -0.8389339
-0.9348091 -0.6268344 -0.8389339
-0.4261512 -0.628232 -0.8366165
0.265186 -0.6261356 -0.8331402
-0.5782713 -0.617051 -0.8308227
-0.1815003 -0.6149546 -0.8331402
0.4052177 -0.6149546 -0.834299
-0.6498927 -0.6072676 -0.8389339
0.0148933 -0.60587 -0.8377752
0.4824809 -0.6037736 -0.8354577
-0.4841148 -0.5967855 -0.8308227
0.1694118 -0.5932914 -0.8366165
-0.7971839 -0.5883997 -0.8366165
-0.08974209 -0.583508 -0.8377752
0.187118 -0.5828092 -0.8389339
-0.9444751 -0.5625437 -0.8389339
-0.6466734 -0.5653389 -0.8319815
0.3496928 -0.5611461 -0.8331402
-0.7199206 -0.557652 -0.8354577
0.173444 -0.5513627 -0.8377752
-0.9275737 -0.546471 -0.8331402
-0.7931598 -0.546471 -0.8331402
-0.4945695 -0.5422781 -0.8366165
0.2555362 -0.5450734 -0.8366165
0.5058209 -0.5380853 -0.8308227
-0.9404429 -0.520615 -0.8354577
-0.7006049 -0.5296995 -0.8308227
-0.06800375 -0.5276031 -0.8308227
-0.4760585 -0.5171209 -0.8308227
0.3376284 -0.5115304 -0.8331402
-0.4140869 -0.501747 -0.8319815
-0.8454815 -0.4940601 -0.8366165
0.02695764 -0.4856744 -0.8331402
0.3577491 -0.4828791 -0.8319815
-0.9356139 -0.4786862 -0.8366165
-0.7851196 -0.4626136 -0.8319815
-0.394771 -0.4689029 -0.834299
0.1814761 -0.4675052 -0.834299
0.2635683 -0.4612159 -0.8308227
0.2812745 -0.4696017 -0.834299
-0.6338043 -0.4402516 -0.8331402
-0.05916676 -0.4493361 -0.8389339
-0.9315817 -0.4367575 -0.834299
-0.7649989 -0.431167 -0.8331402
-0.4680021 -0.4374563 -0.8308227
-0.3102643 -0.4234801 -0.8389339
-0.145267 -0.4234801 -0.8354577
0.1863131 -0.4262753 -0.8389339
-0.8543265 -0.4136967 -0.8366165
-0.4825051 -0.4185884 -0.834299
-0.07284075 -0.4157932 -0.8389339
0.2676005 -0.4192872 -0.8366165
-0.5573459 -0.4095038 -0.8377752
-0.5388349 -0.4011181 -0.8319815
-0.05513459 -0.4095038 -0.8389339
0.3657893 -0.4046122 -0.8377752
-0.7609668 -0.3920335 -0.8331402
-0.6297721 -0.397624 -0.8319815
-0.3239544 -0.3927324 -0.8354577
0.3504976 -0.3871419 -0.8366165
-0.7569426 -0.3529001 -0.8366165
-0.2394477 -0.3515024 -0.8319815
-0.6989952 -0.3487072 -0.8319815
-0.4744488 -0.3361286 -0.8308227
-0.5492895 -0.3263452 -0.8354577
-0.5307785 -0.3228512 -0.8377752
-0.6217399 -0.3130678 -0.8308227
-0.6040338 -0.3053809 -0.8389339
0.3593587 -0.3032844 -0.8377752
-0.7682021 -0.2955975 -0.8389339
-0.3923566 -0.2941999 -0.8366165
-0.7480815 -0.2732355 -0.8389339
-0.6169029 -0.2718379 -0.8308227
-0.6000016 -0.2655486 -0.8366165
0.3625619 -0.2613557 -0.8319815
-0.6724359 -0.2522711 -0.8366165
-0.5227464 -0.2438854 -0.8354577
-0.686126 -0.2250175 -0.8366165
-0.6675989 -0.2124389 -0.8389339
-0.8334011 -0.2047519 -0.8366165
-0.4430687 -0.1998602 -0.8331402
-0.6048386 -0.1467505 -0.8308227
-0.8092483 -0.1355695 -0.834299
-0.9597587 -0.1201957 -0.8308227
-0.8833083 -0.1097135 -0.8319815
-0.505829 -0.08525506 -0.8389339
-0.5235512 -0.07617051 -0.8389339
-0.5959775 -0.06289309 -0.8319815
-0.579881 -0.06708595 -0.8366165
-0.5766616 -0.02655486 -0.8319815
-0.870415 0.009783369 -0.834299
-0.7352123 0.03913347 -0.8331402
-0.7158965 0.04612159 -0.8331402
-0.7891276 0.06149546 -0.8354577
-0.6571442 0.06918239 -0.8319815
-0.8623828 0.09014675 -0.8319815
-0.5637925 0.09084556 -0.8389339
-0.8776665 0.1062194 -0.834299
-0.7851196 0.1013277 -0.8389339
-0.5790761 0.1034242 -0.8331402
-0.7263673 0.1222921 -0.8389339
-0.7810874 0.1418588 -0.8389339
-0.6313818 0.1453529 -0.8354577
-0.6482831 0.152341 -0.8319815
-0.4993984 0.1754018 -0.8319815
-0.6241544 0.2264151 -0.8308227
-0.8462864 0.2480783 -0.8366165
-0.713482 0.2480783 -0.8366165
-0.5476799 0.2508735 -0.8331402
-0.4905373 0.2578616 -0.834299
-0.6193174 0.2648498 -0.8377752
-0.5621828 0.2697414 -0.8366165
-0.7094499 0.2886094 -0.8389339
-0.6917437 0.2851153 -0.8377752
-0.7835099 0.2969951 -0.8319815
-0.5436718 0.290007 -0.8366165
-0.4865131 0.2997904 -0.8331402
-0.6321946 0.3193571 -0.8308227
-0.4655877 0.3137666 -0.8331402
-0.6877196 0.3242488 -0.8389339
0.3633668 0.3263452 -0.8366165
0.3432461 0.3326345 -0.8331402
-0.9106563 0.3577918 -0.8366165
-0.851904 0.3563941 -0.8366165
-0.6273577 0.3612858 -0.8319815
0.3673989 0.3661775 -0.8366165
-0.7014177 0.3724668 -0.8366165
-0.5356156 0.3703704 -0.8366165
-0.4036322 0.3710692 -0.8308227
0.2853067 0.3731656 -0.8389339
-0.7569426 0.3815514 -0.8354577
-0.3819019 0.3962264 -0.8389339
-0.6233496 0.4018169 -0.8354577
0.270015 0.4116003 -0.8319815
-0.7706166 0.4227813 -0.8319815
-0.473644 0.4241789 -0.8331402
-0.5460702 0.4367575 -0.8319815
0.2080434 0.4367575 -0.834299
-0.8438718 0.4402516 -0.8377752
-0.6756552 0.4458421 -0.8308227
-0.5275592 0.4500349 -0.8377752
-0.7488863 0.4626136 -0.8319815
0.1911421 0.4633124 -0.8354577
0.4567426 0.4744934 -0.8366165
-0.6716231 0.4849755 -0.8354577
0.1058306 0.4814815 -0.8389339
-0.3907469 0.4954577 -0.8308227
-0.2160997 0.4961565 -0.834299
0.2788762 0.4940601 -0.8377752
0.2973871 0.4926625 -0.8377752
-0.7617796 0.5059399 -0.834299
0.03902198 0.5059399 -0.8377752
0.1291705 0.509434 -0.8354577
0.4599619 0.5143256 -0.8331402
-0.8173046 0.5290007 -0.8354577
-0.6845164 0.5394829 -0.8389339
-0.7577475 0.5471698 -0.8377752
0.02373834 0.546471 -0.8377752
0.1340075 0.5485674 -0.8366165
-0.441459 0.5534591 -0.8331402
-0.8309786 0.5660377 -0.8377752
-0.6635909 0.5653389 -0.8354577
-0.2273593 0.5681342 -0.8308227
-0.1468767 0.5667365 -0.8308227
0.3875196 0.5674354 -0.8319815
0.3054273 0.5716282 -0.8389339
0.2040112 0.5877009 -0.8366165
-0.05836194 0.5960867 -0.8389339
0.468807 0.5939902 -0.8308227
-0.5291689 0.6037736 -0.8308227
0.3923485 0.6072676 -0.8389339
-0.5114708 0.6121593 -0.8319815
-0.9026241 0.6268344 -0.8377752
-0.7327979 0.6219427 -0.8331402
0.1412348 0.6296296 -0.8331402
0.3730327 0.6226415 -0.8377752
-0.8816906 0.6373166 -0.8389339
-0.7496911 0.6303284 -0.8366165
-0.4527185 0.6317261 -0.8354577
-0.8060451 0.6491964 -0.8308227
-0.598392 0.6519916 -0.834299
-0.5074386 0.6519916 -0.8331402
-0.2000113 0.6568833 -0.8331402
-0.8985919 0.6687631 -0.8377752
0.2957775 0.6603774 -0.8389339
-0.8776665 0.6785465 -0.8377752
-0.7448783 0.6722572 -0.8389339
0.03662359 0.6708595 -0.8331402
0.4768633 0.6736548 -0.8377752
-0.8020209 0.6890287 -0.8308227
-0.5211368 0.6855346 -0.8319815
-0.5943678 0.6939203 -0.834299
-0.2144901 0.6932215 -0.834299
-0.03018499 0.6918239 -0.8319815
-0.6675989 0.7058001 -0.8389339
0.3818778 0.7058001 -0.8389339
-0.4253464 0.7141859 -0.8308227
-0.3488879 0.7162823 -0.8377752
-0.1114724 0.7148847 -0.834299
0.04063163 0.7120894 -0.8377752
-0.2724375 0.7281621 -0.8319815
-0.210466 0.7344514 -0.8354577
0.1307802 0.732355 -0.8377752
-0.7199206 0.7428372 -0.834299
-0.570215 0.7449336 -0.8366165
0.06316675 0.7477289 -0.8308227
0.3850971 0.7484277 -0.8308227
-0.8897308 0.7526205 -0.8366165
-0.4406542 0.7568134 -0.8366165
-0.4945695 0.7707897 -0.8331402
-0.1251464 0.7728861 -0.8366165
-0.02214478 0.7714885 -0.8366165
0.1348123 0.7742837 -0.8331402
-0.9452799 0.7833683 -0.834299
-0.1034161 0.7945493 -0.8389339
0.2249448 0.7938505 -0.8377752
0.8446525 0.8071279 -0.8331402
-0.1211383 0.8148148 -0.8366165
0.1388204 0.8169113 -0.8308227
0.07122305 0.8280922 -0.8319815
0.3126708 0.8266946 -0.8354577
-0.6547298 0.8301887 -0.8389339
0.2289689 0.836478 -0.8331402
-0.7851196 0.8497554 -0.8319815
-0.5042354 0.8518519 -0.8308227
-0.1171062 0.8567435 -0.8389339
0.3344091 0.8532495 -0.8377752
0.1669973 0.8693222 -0.8377752
0.5734343 0.8630328 -0.8366165
-0.7247577 0.8798043 -0.8377752
-0.6515024 0.8721174 -0.8308227
0.2338059 0.8777079 -0.8389339
-0.02938016 0.8874913 -0.8319815
0.4205094 0.8881901 -0.8354577
0.7987936 0.8874913 -0.8331402
0.8527088 0.8895877 -0.8319815
-0.4993984 0.8923829 -0.8389339
-0.113082 0.8993711 -0.8319815
-0.7038321 0.9035639 -0.8319815
-0.3488879 0.9084556 -0.8377752
0.08006809 0.9077568 -0.834299
-0.404437 0.9126485 -0.8389339
0.4019984 0.9154437 -0.8319815
-0.7199206 0.9210342 -0.8377752
-0.2515121 0.9287212 -0.8389339
-0.5500944 0.9468903 -0.8308227
-0.3448638 0.9503843 -0.8308227
0.5203239 -0.9524808 -0.8285052
0.3891292 -0.9259259 -0.8273464
-0.6080418 -0.9105521 -0.8285052
-0.5332011 -0.918239 -0.829664
0.7561297 -0.9105521 -0.8238702
0.3754552 -0.907058 -0.8285052
-0.2949727 -0.8965758 -0.8261877
-0.03420912 -0.8972746 -0.825029
-0.8865276 -0.8867925 -0.825029
0.2989968 -0.8874913 -0.8227115
-0.1903453 -0.8581412 -0.8285052
0.3030048 -0.8441649 -0.8215527
-0.8229464 -0.8385744 -0.8273464
-0.5839131 -0.8336827 -0.8215527
-0.01006435 -0.8392732 -0.8285052
-0.8060451 -0.8232006 -0.8215527
-0.6000016 -0.8266946 -0.8285052
-0.431793 -0.8232006 -0.8227115
0.6209271 -0.8294899 -0.8215527
0.6080418 -0.8120196 -0.8273464
-0.006032169 -0.799441 -0.8238702
0.3247351 -0.7966457 -0.8215527
0.769007 -0.7924528 -0.8261877
-0.8921453 -0.7889588 -0.825029
-0.3472783 -0.777079 -0.8261877
-0.1823051 -0.7791754 -0.8261877
0.4044129 -0.7672956 -0.8227115
0.3287673 -0.758211 -0.8285052
0.9162901 -0.7568134 -0.8273464
-0.736822 -0.7246681 -0.8285052
0.3158981 -0.7190776 -0.8261877
-0.8841131 -0.7030049 -0.8227115
-0.1742488 -0.7002096 -0.8261877
-0.1034161 -0.706499 -0.820394
0.07284075 -0.7085954 -0.8285052
-0.492155 -0.6743536 -0.825029
0.2418381 -0.6701607 -0.825029
0.3368236 -0.6792453 -0.8285052
-0.5082434 -0.6673655 -0.8285052
-0.09940805 -0.665269 -0.8238702
0.07686488 -0.6659679 -0.8285052
-0.1702247 -0.6596785 -0.8215527
0.4003887 -0.6568833 -0.825029
-0.3496928 -0.6429071 -0.825029
0.6410477 -0.6310273 -0.8238702
-0.875252 -0.6205451 -0.8285052
-0.4108676 -0.6275332 -0.829664
-0.09457105 -0.6233403 -0.825029
-0.8583507 -0.6107617 -0.8261877
-0.3456686 -0.6009783 -0.8238702
-0.265186 -0.6030748 -0.825029
-0.5597603 -0.5981831 -0.8238702
-0.422948 -0.5856045 -0.8261877
-0.4068354 -0.5877009 -0.8285052
0.08490509 -0.5807128 -0.820394
-0.8543265 -0.5709294 -0.8227115
-0.7054418 -0.568833 -0.8273464
-0.4800906 -0.5569532 -0.8273464
-0.1573475 -0.5415793 -0.829664
-0.08651474 -0.5401817 -0.8285052
0.2724295 -0.5471698 -0.8261877
-0.3231496 -0.5394829 -0.820394
-0.173444 -0.5303983 -0.8261877
0.003617692 -0.5199161 -0.829664
-0.399608 -0.5073375 -0.8215527
0.1943694 -0.5024458 -0.8273464
-0.6386333 -0.4814815 -0.8261877
-0.1694198 -0.4877708 -0.820394
-0.06397962 -0.4877708 -0.829664
-0.3327995 -0.4751922 -0.8273464
-0.9195174 -0.4668064 -0.8261877
-0.150104 -0.4619147 -0.825029
-0.8591555 -0.453529 -0.825029
-0.4873179 -0.4584207 -0.8215527
0.3617571 -0.4430468 -0.8273464
-0.5436718 -0.4395528 -0.8227115
-0.3287673 -0.4332635 -0.8261877
0.1171062 -0.4388539 -0.825029
-0.9162982 -0.4269741 -0.8215527
0.2024016 -0.4227813 -0.825029
-0.4639941 -0.397624 -0.8285052
-0.912266 -0.3871419 -0.820394
-0.7030274 -0.3899371 -0.8273464
-0.3875196 -0.3878407 -0.820394
-0.8342059 -0.3724668 -0.8215527
-0.7770633 -0.3780573 -0.8261877
-0.4784729 -0.3766597 -0.829664
-0.2225464 -0.360587 -0.8261877
-0.6257641 -0.3549965 -0.8261877
-0.45997 -0.3577918 -0.829664
-0.6088467 -0.3438155 -0.8261877
-0.3827067 -0.3487072 -0.8238702
-0.303029 -0.3424179 -0.8261877
-0.7730392 -0.3368274 -0.8285052
-0.9195174 -0.3095737 -0.8261877
-0.9042338 -0.3074773 -0.8215527
-0.4704166 -0.2928022 -0.8238702
0.2796649 -0.2928022 -0.825029
-0.4519137 -0.2767296 -0.820394
-0.4663925 -0.2508735 -0.8238702
-0.3891292 -0.2515723 -0.8273464
-0.9114611 -0.2264151 -0.829664
-0.5975871 -0.2236198 -0.8215527
-0.8181094 -0.2138365 -0.8285052
-0.9074531 -0.1851852 -0.8261877
-0.6088467 -0.1872816 -0.8261877
-0.6652005 -0.1712089 -0.8238702
-0.7376268 -0.1516422 -0.8215527
-0.903429 -0.1425577 -0.8215527
-0.5895308 -0.1446541 -0.8215527
-0.5283641 -0.1174004 -0.829664
-0.8993968 -0.1013277 -0.825029
-0.6008145 -0.1034242 -0.8227115
-0.8060451 -0.09503844 -0.8227115
-0.7480815 -0.08455625 -0.8227115
-0.8164997 -0.03633823 -0.829664
-0.5203319 -0.03284416 -0.8261877
-0.875252 -0.02795248 -0.820394
-0.7400413 -0.001397624 -0.820394
-0.5162997 0.009783369 -0.8238702
-0.6611764 0.02725367 -0.829664
-0.8672118 0.05101328 -0.8227115
-0.5082434 0.09364081 -0.820394
-0.6370236 0.1076171 -0.820394
-0.6531201 0.1118099 -0.8285052
-0.5605732 0.1320755 -0.8238702
-0.8551314 0.1712089 -0.820394
-0.5718327 0.1879804 -0.8215527
-0.8510992 0.2110412 -0.820394
-0.787518 0.256464 -0.8261877
-0.7698118 0.2627533 -0.8261877
-0.8607652 0.2739343 -0.8285052
-0.4704166 0.2739343 -0.829664
-0.7649989 0.3032844 -0.8273464
-0.9154933 0.3193571 -0.8273464
-0.856741 0.315863 -0.8261877
-0.5589555 0.3130678 -0.8227115
-0.4825051 0.3417191 -0.8285052
-0.5549313 0.3542977 -0.825029
-0.4623845 0.3542977 -0.8261877
-0.9283625 0.3794549 -0.825029
-0.9074531 0.3997205 -0.8261877
-0.6796793 0.4060098 -0.829664
-0.399608 0.4136967 -0.8215527
-0.3223448 0.4157932 -0.8261877
-0.9243544 0.4213836 -0.8227115
-0.7537233 0.4234801 -0.8238702
-0.8269705 0.4493361 -0.8238702
-0.9203222 0.4633124 -0.820394
-0.5420622 0.479385 -0.8238702
-0.8398397 0.4835779 -0.8273464
-0.2973871 0.4877708 -0.825029
-0.1557378 0.4849755 -0.820394
0.3786745 0.4877708 -0.8273464
0.1951743 0.5059399 -0.8238702
-0.1332027 0.5164221 -0.820394
-0.2321962 0.5276031 -0.8215527
0.3826826 0.5283019 -0.8261877
-0.3875196 0.5380853 -0.820394
-0.2128804 0.5366876 -0.829664
-0.04788311 0.5317959 -0.8238702
0.3005903 0.5338924 -0.820394
-0.4623845 0.5492662 -0.825029
0.04224128 0.5471698 -0.8238702
0.1991823 0.5485674 -0.8227115
-0.3665941 0.557652 -0.825029
0.46397 0.5548567 -0.825029
-0.2893308 0.5681342 -0.820394
0.113082 0.5653389 -0.8285052
-0.3827067 0.5786164 -0.8273464
-0.2088483 0.5779175 -0.820394
0.2869163 0.5786164 -0.8285052
-0.7545282 0.5897973 -0.8285052
-0.7376268 0.583508 -0.8215527
-0.5871164 0.5856045 -0.8273464
-0.4374268 0.594689 -0.8261877
-0.2233512 0.6100629 -0.8238702
0.2909405 0.6198463 -0.8285052
-0.6772649 0.6233403 -0.8238702
-0.3577491 0.6366177 -0.829664
-0.8237512 0.6491964 -0.829664
-0.5251608 0.6443047 -0.829664
-0.2193271 0.6519916 -0.8273464
0.3134756 0.6526904 -0.8285052
0.455133 0.6554857 -0.8285052
-0.7287657 0.6631726 -0.8215527
-0.579881 0.6666667 -0.8215527
-0.3746504 0.6624738 -0.8238702
0.05513459 0.6673655 -0.829664
-0.4301753 0.6743536 -0.8238702
-0.1163013 0.67645 -0.8215527
0.2321882 0.6778477 -0.8261877
-0.6515024 0.6862334 -0.829664
-0.7247577 0.7030049 -0.8261877
0.05833779 0.7092942 -0.8215527
0.2997855 0.7030049 -0.829664
-0.741659 0.7155835 -0.8227115
0.1492911 0.7106918 -0.8238702
0.2160997 0.7127883 -0.8285052
0.2362204 0.7176799 -0.8285052
-0.8744472 0.7204752 -0.8238702
-0.5171046 0.7274633 -0.8273464
-0.8156949 0.732355 -0.825029
-0.191955 0.7379455 -0.825029
-0.1299834 0.7330538 -0.8285052
-0.6643957 0.7484277 -0.8285052
0.3030048 0.7449336 -0.8238702
-0.7376268 0.7561146 -0.825029
-0.108245 0.7561146 -0.8261877
0.1533233 0.7505241 -0.825029
0.2402284 0.7589099 -0.820394
-0.5130804 0.7686932 -0.8261877
-0.2684053 0.7686932 -0.8261877
-0.8116627 0.7742837 -0.8215527
-0.2072386 0.777079 -0.8215527
0.4076402 0.7700908 -0.820394
-0.7158965 0.7833683 -0.829664
-0.5669957 0.7861635 -0.829664
-0.3617812 0.7868623 -0.8273464
0.1581523 0.7896576 -0.8285052
-0.8873324 0.7952481 -0.8215527
-0.2837131 0.7910552 -0.829664
0.2442525 0.7987421 -0.820394
0.5468751 0.7931516 -0.820394
-0.2643812 0.8092243 -0.8227115
-0.5090483 0.8106219 -0.825029
-0.4913501 0.8127184 -0.8238702
-0.2032306 0.8190077 -0.820394
-0.01892548 0.8127184 -0.825029
-0.5629877 0.8266946 -0.8261877
-0.413282 0.8336827 -0.8261877
0.9179078 0.8336827 -0.820394
-0.03420912 0.847659 -0.8227115
-0.01408847 0.8525507 -0.8261877
0.6498927 0.8672257 -0.8261877
-0.4092499 0.8742138 -0.8215527
-0.2756568 0.8742138 -0.8261877
0.3158981 0.870021 -0.8227115
-0.8583507 0.8805031 -0.829664
-0.7810874 0.8902865 -0.8273464
-0.256341 0.8902865 -0.8215527
-0.1758585 0.8993711 -0.8261877
-0.1943694 0.9007687 -0.8285052
-0.2716327 0.9154437 -0.829664
-0.6273577 0.9280224 -0.820394
-0.7947695 0.9392034 -0.829664
-0.4792778 0.932914 -0.8215527
-0.1718343 0.9399022 -0.8238702
0.4840906 0.9461915 -0.825029
-0.6434702 0.955276 -0.8238702
0.5050161 0.9559748 -0.825029
0.6080418 -0.9454927 -0.811124
-0.1951743 -0.895877 -0.8169177
-0.1050257 -0.8805031 -0.8169177
-0.6048386 -0.8672257 -0.8180765
-0.2716327 -0.8336827 -0.8180765
0.3199061 -0.8357792 -0.815759
-0.2869163 -0.8127184 -0.8169177
-0.5050402 -0.7910552 -0.8169177
0.5364204 -0.7819706 -0.8146002
0.6989952 -0.7672956 -0.8192352
-0.8156949 -0.7533194 -0.8180765
-0.3440751 -0.7351502 -0.8122827
0.3915437 -0.7386443 -0.8192352
0.08812439 -0.7134871 -0.8122827
-0.436622 -0.7085954 -0.811124
0.2370252 -0.709993 -0.8146002
-0.3400509 -0.6960168 -0.8134415
0.4124692 -0.687631 -0.815759
-0.5686054 -0.6757512 -0.8134415
0.1597458 -0.6750524 -0.8180765
-0.8808858 -0.6603774 -0.8134415
-0.431793 -0.6680643 -0.8192352
-0.6418606 -0.6596785 -0.8169177
-0.6555346 -0.6464011 -0.8192352
-0.5637925 -0.6366177 -0.8192352
-0.4889276 -0.6345213 -0.815759
-0.7859244 -0.6254368 -0.8146002
-0.3319947 -0.617051 -0.8122827
-0.1669973 -0.6191474 -0.8146002
-0.7094499 -0.6065688 -0.8192352
-0.2474799 -0.5967855 -0.815759
0.5734343 -0.5918938 -0.8192352
-0.6338043 -0.5807128 -0.8180765
-0.1621845 -0.580014 -0.8180765
0.2676005 -0.5842068 -0.8122827
-0.07284075 -0.5653389 -0.815759
0.01730778 -0.5639413 -0.8169177
-0.261178 -0.5583508 -0.815759
-0.4189158 -0.5422781 -0.8169177
-0.8680005 -0.5359888 -0.8122827
-0.8510992 -0.5303983 -0.815759
-0.3376284 -0.5157233 -0.8192352
-0.2571459 -0.5157233 -0.811124
0.4897324 -0.5178197 -0.8169177
-0.6257641 -0.5010482 -0.8169177
-0.7118644 -0.4709993 -0.8180765
0.006836995 -0.475891 -0.811124
-0.843067 -0.4514326 -0.8180765
-0.1661925 -0.4451433 -0.811124
-0.708645 -0.4297694 -0.8169177
-0.3915517 -0.427673 -0.8180765
0.3448558 -0.4255765 -0.815759
0.03340429 -0.405311 -0.8146002
-0.3078418 -0.3801537 -0.8134415
0.2877212 -0.3871419 -0.8122827
-0.3207351 -0.3487072 -0.8169177
-0.4567426 -0.315863 -0.8146002
-0.6957759 -0.3060797 -0.8180765
-0.3794874 -0.3088749 -0.8192352
-0.316703 -0.3067785 -0.815759
-0.9162982 -0.2669462 -0.8192352
-0.6917437 -0.2641509 -0.8180765
-0.8229464 -0.2508735 -0.811124
-0.8390349 -0.2438854 -0.8146002
-0.5420622 -0.2403913 -0.811124
-0.9645957 -0.1586303 -0.8180765
-0.6619812 -0.129979 -0.8134415
-0.6748504 -0.09643606 -0.8122827
-0.7440735 -0.04262753 -0.815759
-0.7987936 -0.01467505 -0.8122827
-0.6667941 -0.01257862 -0.8122827
-0.8132804 0.00698812 -0.8180765
-0.5734423 0.01467505 -0.8192352
-0.8873324 0.02655486 -0.8122827
-0.6450799 0.03004892 -0.8122827
-0.5694102 0.05520615 -0.8169177
-0.5130804 0.05310971 -0.811124
-0.6410558 0.06918239 -0.8122827
-0.713482 0.0873515 -0.8192352
-0.8052402 0.09224319 -0.8122827
-0.8744472 0.1502446 -0.815759
-0.870415 0.1928721 -0.8180765
-0.9283625 0.200559 -0.811124
-0.8656021 0.234102 -0.8180765
-0.6410558 0.2382949 -0.8180765
-0.4752536 0.2354997 -0.815759
-0.9243544 0.2403913 -0.811124
-0.6370236 0.2795248 -0.8169177
-0.6169029 0.3074773 -0.8169177
-0.6088467 0.3871419 -0.8134415
-0.4792778 0.3850454 -0.8146002
-0.5508992 0.3969252 -0.8192352
-0.4591571 0.3955276 -0.8122827
-0.8309786 0.4102027 -0.8192352
-0.6989952 0.4171908 -0.8122827
0.2877212 0.4150943 -0.8169177
-0.9042338 0.4416492 -0.8122827
-0.6941662 0.4598183 -0.8134415
-0.1372268 0.4765898 -0.8192352
0.1235287 0.4723969 -0.811124
-0.3142885 0.4996506 -0.8192352
-0.05191528 0.4919637 -0.8169177
-0.9171029 0.5066387 -0.8122827
0.2152949 0.5185185 -0.815759
-0.8961775 0.520615 -0.8122827
-0.3102643 0.5408805 -0.8180765
0.3633668 0.5422781 -0.8146002
-0.8913405 0.5597484 -0.8180765
-0.5348107 0.5639413 -0.8169177
-0.6080418 0.5716282 -0.8122827
-0.3062322 0.5828092 -0.8180765
-0.3625861 0.5981831 -0.8192352
-0.1251464 0.5974843 -0.8134415
-0.6603636 0.6072676 -0.815759
-0.6040338 0.6142558 -0.811124
-0.2056289 0.6191474 -0.811124
-0.5839131 0.6275332 -0.815759
-0.3794874 0.6219427 -0.815759
0.4712214 0.6373166 -0.8122827
-0.6563394 0.6464011 -0.8192352
-0.6732408 0.6666667 -0.815759
-0.450296 0.6750524 -0.8169177
0.2112627 0.6736548 -0.8146002
-0.05191528 0.6813417 -0.8192352
-0.3714311 0.7051013 -0.8134415
-0.4462718 0.7183788 -0.8122827
-0.04788311 0.7239693 -0.811124
-0.5911404 0.7379455 -0.8180765
-0.04305415 0.7651992 -0.815759
0.4671973 0.7812718 -0.8169177
-0.8084434 0.8169113 -0.811124
-0.7126772 0.8245982 -0.8192352
-0.3585539 0.8287911 -0.8169177
-0.8833083 0.8378756 -0.815759
-0.2804939 0.8336827 -0.8192352
0.05190724 0.8392732 -0.8192352
-0.7303753 0.8406709 -0.8146002
-0.4334027 0.8420685 -0.8169177
-0.708645 0.8651293 -0.8192352
-0.6321946 0.8895877 -0.8134415
0.05593941 0.881202 -0.815759
-0.7995984 0.8986723 -0.8192352
-0.4841148 0.8930818 -0.8169177
-0.330385 0.918239 -0.8180765
0.3199061 0.9119497 -0.8180765
-0.875252 0.9210342 -0.811124
-0.4253464 0.9245283 -0.815759
0.4237287 0.9301188 -0.815759
0.6370236 0.9433962 -0.8122827
-0.1219432 -0.8721174 -0.8030127
-0.0148933 -0.8763103 -0.8088065
-0.2080434 -0.862334 -0.806489
-0.3569442 -0.8532495 -0.8030127
-0.2925582 -0.8525507 -0.8006952
-0.6732408 -0.8120196 -0.8041715
0.6941582 -0.8043326 -0.8006952
-0.4253464 -0.7428372 -0.8030127
-0.1790858 -0.7379455 -0.8099653
-0.6652005 -0.7281621 -0.8053302
0.0003903405 -0.7190776 -0.8030127
-0.588726 -0.6981132 -0.8053302
-0.7907373 -0.6638714 -0.806489
-0.01006435 -0.6429071 -0.806489
0.6233255 -0.6401118 -0.8030127
0.08006809 -0.6212439 -0.8076478
0.3271576 -0.5897973 -0.8006952
-0.3287673 -0.5765199 -0.8053302
-0.8647974 -0.4926625 -0.8030127
-0.4929598 -0.4975542 -0.801854
-0.6981903 -0.4877708 -0.8099653
0.02937211 -0.4430468 -0.8076478
