# .PCD v.7 - Point Cloud Data file format
VERSION .7
FIELDS x y z
SIZE 4 4 4
TYPE F F F
COUNT 1 1 1
WIDTH 276
HEIGHT 1
VIEWPOINT 0 0 0 1 0 0 0
POINTS 276
DATA ascii
0.2893308 0.2375961 -0.2641947
-0.4873179 -0.01048218 -0.2560834
-0.2531217 -0.2054507 -0.2433372
0.05352493 0.431167 -0.2421784
-0.01247882 0.4591195 -0.2491309
0.1847035 -0.1481481 -0.2387022
-0.4052257 -0.1146052 -0.2363847
0.2788762 -0.03563941 -0.239861
0.2828842 0.1984626 -0.235226
-0.4422638 0.2725367 -0.2329085
-0.3786745 0.3242488 -0.230591
-0.173444 -0.2243187 -0.2201622
-0.08329544 -0.21174 -0.2247972
0.006836995 -0.2089448 -0.221321
0.09457105 -0.2019567 -0.2236385
-0.3472783 -0.1467505 -0.221321
-0.4205335 -0.09014675 -0.2294322
0.2812745 0.00698812 -0.2201622
-0.4817003 0.0754717 -0.2224797
0.2289689 0.2893082 -0.2282735
-0.3617812 0.32355 -0.2201622
-0.3577491 0.3626834 -0.2201622
-0.293363 0.39413 -0.2201622
-0.03824129 0.4122991 -0.221321
-0.1243416 0.4220825 -0.225956
0.07284075 0.4241789 -0.2294322
-0.2080434 0.4325646 -0.2224797
-0.0148933 -0.2313068 -0.216686
-0.3311898 -0.1453529 -0.216686
0.1661925 -0.1355695 -0.2155272
-0.3432702 -0.104123 -0.2143685
-0.3271576 -0.1048218 -0.212051
0.1710214 -0.09364081 -0.2143685
-0.4028274 -0.07197764 -0.2155272
-0.3987952 -0.03284416 -0.2143685
-0.4857083 0.03563941 -0.216686
0.2853067 0.04682041 -0.2190035
0.2692102 0.07617051 -0.2143685
0.2893308 0.0873515 -0.212051
0.2080434 0.2802236 -0.2108922
0.2128724 0.3214535 -0.2190035
-0.298192 0.3529001 -0.212051
0.04304611 0.3515024 -0.212051
0.1509008 0.3542977 -0.2143685
0.154933 0.3948288 -0.212051
-0.108245 0.4067086 -0.2190035
-0.1042209 0.4465409 -0.2190035
0.07364558 -0.2061495 -0.2016222
-0.1887276 -0.1977638 -0.2050985
-0.2724375 -0.1865828 -0.2062572
-0.2515121 -0.1607268 -0.2050985
-0.08009224 -0.1698113 -0.2062572
0.0100563 -0.1677149 -0.2097335
-0.2466751 -0.1222921 -0.2097335
0.1863131 -0.104123 -0.2062572
-0.3239544 -0.0635919 -0.2016222
0.1903373 -0.0642907 -0.2039398
0.1943694 -0.02515723 -0.207416
-0.4052257 0.07966457 -0.202781
-0.4607748 0.1167016 -0.2097335
0.2724295 0.1194969 -0.2039398
0.2925501 0.1278826 -0.2050985
0.2772665 0.160028 -0.2085747
0.2973871 0.1677149 -0.2050985
-0.3923566 0.2040531 -0.2050985
0.2233271 0.2522711 -0.207416
-0.3673989 0.2858141 -0.2039398
-0.303029 0.3130678 -0.2016222
0.1460719 0.3151642 -0.2085747
0.1332027 0.3745632 -0.2039398
-0.1943694 0.3934312 -0.202781
0.04707828 0.3934312 -0.202781
-0.0197303 0.4248777 -0.2016222
0.07766971 -0.1642208 -0.1969873
-0.1847035 -0.1551363 -0.1993047
0.0961807 -0.1586303 -0.1958285
-0.2684053 -0.1439553 -0.1946698
0.08167774 -0.1222921 -0.1923523
0.1009936 -0.1194969 -0.198146
-0.418111 -0.04472397 -0.1946698
-0.4575475 0.1579315 -0.1969873
-0.3971855 0.1656184 -0.1911935
0.2136853 0.1754018 -0.1900348
0.3005903 0.2089448 -0.193511
0.2185142 0.2145353 -0.1946698
0.2032064 0.2403913 -0.1993047
-0.1992064 0.3535989 -0.1993047
0.0663941 0.3885395 -0.1923523
-0.2756568 0.4143955 -0.1911935
-0.1710295 -0.1809923 -0.1877173
-0.01328365 -0.1844864 -0.1819235
-0.00925952 -0.1432565 -0.1830823
-0.3408558 -0.05870021 -0.188876
0.1726311 -0.04821803 -0.1807648
0.2547314 -0.04472397 -0.188876
0.2587555 -0.00349406 -0.1865585
-0.473644 0.001397624 -0.188876
-0.3963807 0.009783369 -0.188876
-0.4704166 0.04122991 -0.1830823
-0.3923566 0.05031446 -0.188876
-0.3891292 0.09084556 -0.1819235
0.2056289 0.09643606 -0.184241
0.2088483 0.1362683 -0.1807648
-0.3770649 0.2089448 -0.184241
-0.3891292 0.2473795 -0.188876
-0.3722359 0.2480783 -0.1865585
-0.3078418 0.2739343 -0.1865585
-0.3859099 0.2893082 -0.1830823
-0.279689 0.3759609 -0.1865585
-0.131593 0.3857442 -0.184241
-0.2152949 0.3955276 -0.184241
-0.03581877 0.4584207 -0.1877173
0.158941 -0.1719078 -0.170336
-0.1678021 -0.1404612 -0.1772885
0.01247882 -0.1243885 -0.1784473
-0.1645828 -0.1006289 -0.170336
0.103408 -0.07686932 -0.174971
-0.4156965 -0.000698812 -0.1784473
0.2619587 0.0405311 -0.170336
-0.4663925 0.0810622 -0.1761298
-0.4028274 0.126485 -0.1714948
0.1975887 0.2012579 -0.1784473
-0.450296 0.2396925 -0.1772885
0.1396252 0.2795248 -0.1772885
-0.288526 0.2976939 -0.1738123
-0.2853067 0.338225 -0.1714948
-0.136422 0.3452131 -0.1772885
-0.2201319 0.3563941 -0.1761298
-0.04546863 0.3780573 -0.1738123
-0.1927598 0.4367575 -0.174971
-0.1042209 -0.2019567 -0.1680185
-0.2458702 -0.07686932 -0.1691773
-0.2627877 -0.05660377 -0.1610661
0.1758585 -0.004192872 -0.1668598
-0.4116724 0.04262753 -0.1680185
0.1999871 0.05870021 -0.1680185
-0.4808955 0.1236897 -0.1691773
-0.3819019 0.1712089 -0.1668598
-0.4728391 0.2075472 -0.1622248
-0.455133 0.2012579 -0.1691773
-0.3134837 0.2348008 -0.1645423
0.121919 0.2962963 -0.1633835
-0.2056289 0.3186583 -0.165701
-0.05030563 0.3375262 -0.1622248
0.1259512 0.3375262 -0.1680185
0.06075227 0.3522013 -0.1668598
-0.1154965 0.3731656 -0.1668598
-0.02615281 0.3899371 -0.1610661
-0.1831099 -0.1076171 -0.1599073
-0.2667957 -0.09713487 -0.1587486
0.2490895 -0.08245981 -0.1599073
0.08410027 -0.07617051 -0.1599073
0.08731957 -0.03424179 -0.1552723
0.1058306 -0.03424179 -0.1506373
-0.3392461 -0.01327743 -0.1575898
0.1798665 0.03843466 -0.1575898
0.1879228 0.1215933 -0.1552723
-0.3867147 0.1334731 -0.156431
-0.4776681 0.1670161 -0.1552723
0.1919469 0.1628232 -0.1575898
0.1299753 0.2033543 -0.1517961
-0.468807 0.2494759 -0.156431
0.1340075 0.2424878 -0.1517961
-0.03501394 0.3116702 -0.1529548
0.03581877 0.3172607 -0.1575898
-0.1018225 -0.1579315 -0.1460023
-0.08009224 -0.1229909 -0.1483198
-0.0977984 -0.1160028 -0.1413673
-0.3231496 -0.0174703 -0.1471611
-0.3199303 0.0230608 -0.1402086
0.1951743 0.02166317 -0.1494786
-0.3360188 0.03004892 -0.1436848
0.1830858 0.08036339 -0.1471611
0.1122692 0.2159329 -0.1413673
-0.2990048 0.2222222 -0.1436848
-0.2949727 0.2620545 -0.1483198
-0.1420638 0.3067785 -0.1483198
-0.008454694 -0.09503844 -0.1309386
-0.07686488 -0.08245981 -0.1355736
-0.3319947 0.07337526 -0.1332561
-0.3279625 0.1146052 -0.1378911
-0.1259512 0.2983927 -0.1355736
-0.2265544 0.3193571 -0.1378911
-0.1219432 0.338225 -0.1309386
-0.03179464 0.3529001 -0.1367323
-0.09457105 -0.07197764 -0.1228273
0.01328365 -0.07896576 -0.1274623
-0.1815003 -0.06149546 -0.1239861
-0.2603732 -0.0118798 -0.1297798
0.1074402 0.008385744 -0.1216686
0.08973405 0.01118099 -0.1239861
-0.316703 0.0642907 -0.1297798
-0.3239544 0.1572327 -0.1297798
-0.3046225 0.1844864 -0.1263036
0.1154965 0.2592593 -0.1297798
-0.0414606 0.2753319 -0.1228273
-0.2120756 0.2837177 -0.1263036
0.05432976 0.3172607 -0.1286211
-0.2450654 -0.03074773 -0.1147161
-0.3134837 0.1069182 -0.1112399
0.1195045 0.1278826 -0.1181924
0.1235287 0.1684137 -0.1158749
0.1058306 0.1781971 -0.1170336
-0.3207351 0.1991614 -0.1181924
-0.06158124 0.2606569 -0.1147161
-0.2321962 0.2809224 -0.1100811
-0.05755711 0.3025856 -0.1181924
-0.1645828 -0.05310971 -0.1066049
-0.006032169 -0.04891684 -0.1031286
-0.2418622 0.009084556 -0.1054461
-0.2579507 0.03284416 -0.1054461
0.09296139 0.05520615 -0.1031286
0.1146917 0.09014675 -0.1031286
-0.3094515 0.1467505 -0.1077636
-0.2410574 0.1991614 -0.1031286
0.0398268 0.2019567 -0.1019699
-0.2370252 0.2403913 -0.1031286
0.02776246 0.2816212 -0.1042874
0.04788311 0.2802236 -0.1054461
-0.07606006 -0.03703704 -0.09154113
0.0148933 -0.0349406 -0.09038239
-0.1790858 -0.01607268 -0.09617613
0.01890133 0.004192872 -0.09849363
-0.2386429 0.05031446 -0.09501738
0.1106595 0.05101328 -0.09965237
0.0961807 0.09783369 -0.09501738
-0.2458702 0.1586303 -0.09269989
-0.2265544 0.1691125 -0.09154113
-0.2225464 0.2089448 -0.09269989
-0.2177094 0.2487771 -0.09501738
-0.04707828 0.2410901 -0.09038239
0.02292546 0.2410901 -0.09965237
-0.1323979 0.2627533 -0.09965237
-0.1492992 0.2718379 -0.09965237
-0.1621845 -0.01048218 -0.0811124
-0.2547314 0.07686932 -0.08458865
0.1001887 0.1404612 -0.08806489
-0.154933 0.2320056 -0.08690614
0.04304611 0.2438854 -0.0834299
-0.2515121 0.1201957 -0.0764774
-0.1380397 0.2264151 -0.07531866
0.0003903405 0.03773585 -0.06836616
0.02131581 0.04682041 -0.06836616
-0.2362204 0.09364081 -0.06257242
-0.2321962 0.1334731 -0.06488992
-0.1605748 0.1942697 -0.06257242
-0.05352493 0.2040531 -0.06373117
0.01730778 0.2040531 -0.06836616
-0.06962145 0.2250175 -0.06257242
0.01166595 0.1642208 -0.05677868
-0.005227343 -1.627054e-11 -0.04750869
-0.0744504 0.008385744 -0.04519119
-0.178281 0.03214535 -0.04750869
-0.1653877 0.1558351 -0.04519119
-0.0961807 -0.02026555 -0.0382387
-0.1613796 0.0349406 -0.03360371
-0.1702247 0.115304 -0.0359212
0.001999992 0.08385744 -0.02665122
-0.145267 0.1928721 -0.02780996
-0.1758585 0.07617051 -0.01506373
-0.1581603 0.07617051 -0.01738123
0.02131581 0.09364081 -0.01042874
0.005227343 0.1278826 -0.01274623
0.03017694 0.1733054 -0.01042874
-0.07686488 0.1907757 -0.01274623
-0.09376622 0.02445842 -0.008111239
-0.06077642 0.1712089 -0.006952491
-0.1557378 0.118798 0.009269988
-0.08250671 0.1516422 0.005793743
0.02373834 0.1362683 0.01274623
-0.1525185 0.160028 0.01969873
-0.08812439 0.1118099 0.02665122
-0.07606006 0.05870021 0.04171495
-0.09296139 0.07337526 0.0428737
-0.07364558 0.1013277 0.06141367
-0.07042628 0.1418588 0.0764774
