# .PCD v.7 - Point Cloud Data file format
VERSION .7
FIELDS x y z
SIZE 4 4 4
TYPE F F F
COUNT 1 1 1
WIDTH 975
HEIGHT 1
VIEWPOINT 0 0 0 1 0 0 0
POINTS 975
DATA ascii	
-0.367403745126  0.306861156128  0.797886053106
-0.340204738329  0.341437061026  0.475638051044
-0.260362492571  0.391139924365  -0.562773910802
-0.252466006724  0.421934089671  -0.625161124001
-0.224828306268  0.458670988654  -0.95153390049
-0.220441369689  0.488924905434  -0.959267852539
-0.216493126768  0.519178822238  -0.966486207786
-0.212983577501  0.548892490541  -0.964423820572
-0.229215242847  0.571582928138  -0.699407063676
-0.225266999927  0.601296596415  -0.704563031709
-0.234479566743  0.627768773629  -0.529775715391
-0.232724792115  0.656401944877  -0.502964681619
-0.226583080902  0.687196110209  -0.53905645785
-0.21210180325  0.720151269575  -0.686517143594
-0.20903533458  0.749864937852  -0.681876772364
-0.214299658476  0.776337115066  -0.558649136375
-0.212983577501  0.804970286314  -0.531838102604
-0.210790109214  0.834683954616  -0.513792214488
-0.205964478976  0.864397622894  -0.529260118587
-0.205964478976  0.891950297137  -0.4844031967
-0.20201623605  0.922204213916  -0.48904356793
-0.193242362892  0.95461912478  -0.554524361949
-0.192364975575  0.982712047526  -0.517916988915
-0.171746373649  0.970826580225  -0.495230729569
-0.174817229253  0.94057266342  -0.505027068832
-0.183591102416  0.908698001058  -0.43284351637
-0.184472876667  0.880605078313  -0.467904098995
-0.184902796452  0.851971907065  -0.509151843259
-0.18666195802  0.823338735818  -0.529260118587
-0.191048894599  0.793084819013  -0.518948182521
-0.187100651679  0.766072393297  -0.622067543181
-0.188855426312  0.736898973522  -0.643207012117
-0.200261461421  0.704484062658  -0.53905645785
-0.203332317025  0.674770394381  -0.546274813096
-0.206407559569  0.645596974605  -0.550915184326
-0.207719253605  0.61642355483  -0.58288218613
-0.210790109214  0.586169638026  -0.589584944573
-0.207280559946  0.55915721231  -0.684970353184
-0.190610200941  0.535926526185  -0.952565094096
-0.194119750208  0.50567260938  -0.955658674916
-0.196751912154  0.475958941103  -0.966486207786
-0.200261461421  0.446245272826  -0.968032998195
-0.250706845156  0.403025391665  -0.33281773653
-0.31344442519  0.357644516471  0.472544470224
-0.340643431987  0.322528363045  0.797886053106
-0.345030368567  0.293895191772  0.809229182779
-0.348982998427  0.264721771997  0.818509925238
-0.352926854413  0.235548352222  0.824181490075
-0.356875097334  0.206915180975  0.828821861304
-0.360823340255  0.1777417612  0.836040216551
-0.365644583558  0.149108589952  0.855632895076
-0.36915851976  0.120475418679  0.856664088683
-0.372668069022  0.0913019989039  0.861820056716
-0.376611925009  0.0626688276562  0.866976024749
-0.379248473894  0.0340356563833  0.860788863109
-0.382314942563  0.00594273363786  0.855632895076
-0.385828878765  -0.0237709346395  0.854601701469
-0.390654509003  -0.0524041058872  0.871100799175
-0.392852364229  -0.08103727716  0.855117298273
-0.39548013924  -0.109670448408  0.84841453983
-0.39854660791  -0.138303619681  0.841196184584
-0.401621850453  -0.166936790928  0.835524619747
-0.404692706057  -0.195569962201  0.832946635731
-0.408202255325  -0.224203133449  0.831915442124
-0.410395723612  -0.253376553224  0.817994328435
-0.413027885562  -0.282009724472  0.805620005156
-0.416976128483  -0.311183144247  0.813353957205
-0.394602751924  -0.338195569963  0.450889404486
-0.39986707582  -0.366828741235  0.478216035061
-0.337133882725  -0.393841166951  -0.447280226863
-0.330114784195  -0.423554835229  -0.59216292859
-0.309496182269  -0.452728255004  -0.931425625161
-0.313005731532  -0.481901674779  -0.931425625161
-0.31651089386  -0.512695840086  -0.936065996391
-0.319586136403  -0.542409508388  -0.939159577211
-0.323095685665  -0.571582928163  -0.937097189997
-0.327048315525  -0.601836844968  -0.937097189997
-0.330114784195  -0.632090761773  -0.941737561227
-0.333185639799  -0.66180443005  -0.948955916473
-0.336256495408  -0.691518098327  -0.952565094096
-0.340643431987  -0.721772015132  -0.943284351637
-0.34415298125  -0.751485683435  -0.94534673885
-0.347662530517  -0.781199351712  -0.945862335654
-0.351172079779  -0.811453268517  -0.942768754834
-0.3551203227  -0.841166936794  -0.938643980407
-0.358629871968  -0.870880605097  -0.938128383604
-0.36213942123  -0.900594273374  -0.938128383604
-0.366087664151  -0.930307941651  -0.932972415571
-0.369597213418  -0.960021609954  -0.935034802784
-0.373106762681  -0.989735278231  -0.934519205981
-0.345469062225  -0.981631550521  -0.926785253931
-0.340643431987  -0.952458130746  -0.94225315803
-0.337572576383  -0.922744462469  -0.935034802784
-0.334063027116  -0.891950297137  -0.935034802784
-0.330114784195  -0.861696380357  -0.939159577211
-0.326166541274  -0.832522960582  -0.94379994844
-0.323095685665  -0.80280929228  -0.936065996391
-0.318708749086  -0.772555375475  -0.944315545244
-0.316080974075  -0.742841707198  -0.936065996391
-0.312567037873  -0.71312803892  -0.932456818768
-0.308180101294  -0.682874122115  -0.941221964424
-0.304231858373  -0.65370070234  -0.94844031967
-0.301161002764  -0.623446785536  -0.941737561227
-0.297212759843  -0.593733117233  -0.946377932457
-0.293264516922  -0.562938951926  -0.947409126063
-0.289754967655  -0.533765532151  -0.947924722867
-0.286684112051  -0.504051863874  -0.944315545244
-0.283178949723  -0.474338195571  -0.938128383604
-0.279226319863  -0.444084278767  -0.947409126063
-0.311250956898  -0.415451107519  -0.446249033256
-0.374422843656  -0.38897893033  0.484918793503
-0.392409283636  -0.360886007585  0.784480536221
-0.390215815344  -0.33171258781  0.80149523073
-0.388022347052  -0.303079416537  0.820572312452
-0.384951491448  -0.274446245289  0.827275070895
-0.382314942563  -0.245813074016  0.840164990977
-0.379687167552  -0.217179902769  0.848930136633
-0.376611925009  -0.188546731496  0.853570507863
-0.373106762681  -0.159913560248  0.852023717453
-0.370035907077  -0.131280389  0.859242072699
-0.366965051468  -0.102647217728  0.864398040732
-0.364771583181  -0.0734737979526  0.879865944831
-0.361262033913  -0.0448406267049  0.882959525651
-0.357752484651  -0.0167477039594  0.880897138438
-0.35380424173  0.0118854673134  0.872131992782
-0.349855998804  0.0405186385611  0.867491621552
-0.346346449542  0.0702323068385  0.864913637535
-0.343279980872  0.0988654781113  0.872131992782
-0.33976604467  0.126958400857  0.870069605568
-0.335379108091  0.156131820632  0.859242072699
-0.330992171512  0.185305240407  0.849445733436
-0.327921315903  0.213938411655  0.850476927043
-0.324411766641  0.242571582928  0.852539314256
-0.320902217378  0.271204754175  0.849445733436
-0.31651089386  0.299837925423  0.834493426141
-0.310807876305  0.328471096696  0.804073214746
-0.30642532666  0.358184764973  0.791183294664
-0.173505535217  0.422474338174  -0.962361433359
-0.170430292673  0.452188006476  -0.955143078113
-0.167359437069  0.481361426251  -0.950502706883
-0.162538193766  0.512155591558  -0.964423820572
-0.177888084862  0.536466774713  -0.708172209332
-0.173935455002  0.56618044299  -0.716937354988
-0.172623760966  0.594813614263  -0.68600154679
-0.172623760966  0.623987034013  -0.63598865687
-0.175255922911  0.651539708256  -0.554524361949
-0.17130767999  0.680713128031  -0.558133539572
-0.161656419515  0.712587790368  -0.638566640887
-0.16034033854  0.74230145867  -0.611240010312
-0.166920743411  0.767152890327  -0.473575663831
-0.162968113551  0.796866558604  -0.479247228667
-0.157265095996  0.828200972438  -0.509151843259
-0.157265095996  0.855753646656  -0.457076566125
-0.152882546351  0.886007563461  -0.473575663831
-0.148934303431  0.915721231764  -0.474606857437
-0.145867834761  0.945434900041  -0.470997679814
-0.130509169792  0.980010804964  -0.623098736788
-0.123490071267  0.980551053466  -0.38747099768
-0.122173990292  0.952998379248  -0.450373807682
-0.108131406298  0.930307941651  -0.688063934004
-0.129193088822  0.893030794166  -0.451920598092
-0.132702638084  0.863857374391  -0.453467388502
-0.13094786345  0.836844948675  -0.521526166538
-0.132702638084  0.8076715289  -0.544728022686
-0.140160430272  0.776877363568  -0.49368393916
-0.14498606051  0.746083198261  -0.475638051044
-0.137089574663  0.720691518077  -0.630832688837
-0.140603510865  0.6909778498  -0.631348285641
-0.14498606051  0.660723932995  -0.617942768755
-0.143231285876  0.633171258777  -0.69064191802
-0.147618222455  0.603457590475  -0.676205207528
-0.157708176589  0.571042679611  -0.59216292859
-0.134018719059  0.54997298757  -0.958752255736
-0.136650881005  0.520259319268  -0.970095385409
-0.140603510865  0.490545650991  -0.967001804589
-0.143669979535  0.460831982713  -0.972157772622
-0.148056916114  0.430578065909  -0.960814642949
-0.280542400838  0.365748244181  0.793245681877
-0.285806724734  0.336574824405  0.815416344419
-0.289316273997  0.30740140463  0.820572312452
-0.293703210581  0.278768233383  0.829337458108
-0.297651453502  0.25013506211  0.837071410157
-0.301599696422  0.221501890862  0.844289765403
-0.305986633002  0.192328471087  0.857179685486
-0.310807876305  0.163155051312  0.876772364011
-0.314321812507  0.134521880064  0.878834751225
-0.318708749086  0.105348460289  0.89224026811
-0.321345297971  0.0767152890163  0.885537509667
-0.324411766641  0.0480821177686  0.879865944831
-0.328360009561  0.0189086979935  0.885021912864
-0.332312639422  -0.00972447327933  0.89224026811
-0.336256495408  -0.038357644527  0.89688063934
-0.338888657354  -0.0669908157747  0.89224026811
-0.341520819304  -0.0956239870476  0.876772364011
-0.345469062225  -0.123716909793  0.885537509667
-0.348101224176  -0.152350081041  0.873678783192
-0.349855998804  -0.180983252314  0.855117298273
-0.353365548072  -0.210156672089  0.855632895076
-0.355997710017  -0.238249594834  0.842742974994
-0.358629871968  -0.266882766082  0.830368651714
-0.361262033913  -0.29551593733  0.820056715648
-0.364332889522  -0.324689357105  0.816447538025
-0.367403745126  -0.35278227985  0.809744779582
-0.370035907077  -0.381955699625  0.799432843516
-0.350294692463  -0.410588870898  0.477184841454
-0.288000193026  -0.437601296614  -0.443155452436
-0.258607717937  -0.466234467862  -0.908223769013
-0.262994654516  -0.496488384666  -0.894818252127
-0.265188122808  -0.526742301471  -0.911317349832
-0.266065510125  -0.556455969748  -0.949471513277
-0.269575059387  -0.585629389523  -0.951018303687
-0.273523302308  -0.615883306328  -0.946377932457
-0.277032851576  -0.646137223133  -0.947409126063
-0.280981094497  -0.67585089141  -0.944831142047
-0.284490643759  -0.705564559713  -0.94225315803
-0.287561499368  -0.735818476517  -0.951018303687
-0.291509742289  -0.765532144795  -0.945862335654
-0.294576210958  -0.795245813072  -0.94998711008
-0.298967534477  -0.824959481375  -0.941737561227
-0.302915777398  -0.854673149652  -0.935034802784
-0.30642532666  -0.884386817954  -0.934003609178
-0.309496182269  -0.914100486232  -0.938643980407
-0.314321812507  -0.943814154509  -0.923176076308
-0.317831361769  -0.974068071314  -0.921113689095
-0.291948435947  -0.997839005941  -0.938643980407
-0.289316273997  -0.968125337663  -0.924722866718
-0.285806724734  -0.938411669386  -0.928332044341
-0.281419788155  -0.908157752581  -0.937097189997
-0.277905851953  -0.878444084279  -0.932456818768
-0.274400689625  -0.848730416001  -0.936065996391
-0.270013753046  -0.819556996226  -0.944831142047
-0.266938510503  -0.789303079422  -0.937097189997
-0.262994654516  -0.759049162617  -0.941221964424
-0.259485105254  -0.729875742842  -0.938643980407
-0.256414249645  -0.700162074565  -0.932456818768
-0.252027313065  -0.66990815776  -0.941221964424
-0.248956457462  -0.639113992453  -0.936065996391
-0.245446908194  -0.609940572678  -0.932456818768
-0.241937358932  -0.580226904375  -0.934003609178
-0.237989116011  -0.549972987596  -0.938128383604
-0.236234341377  -0.519719070791  -0.913379737046
-0.258607717937  -0.490545651016  -0.547821603506
-0.262555960858  -0.460831982713  -0.440061871616
-0.324411766641  -0.432739059968  0.473060067028
-0.343709900657  -0.404646137222  0.79530806909
-0.341082125646  -0.376012965975  0.804073214746
-0.338445576761  -0.3468395462  0.816963134829
-0.33581780175  -0.317666126425  0.832946635731
-0.332742559206  -0.289573203679  0.838102603764
-0.330114784195  -0.261480280934  0.849445733436
-0.32747823531  -0.232306861159  0.860273266306
-0.325289153957  -0.203673689911  0.874194379995
-0.322218298348  -0.175580767165  0.882443928848
-0.320024830061  -0.14748784442  0.89688063934
-0.31651089386  -0.118314424645  0.89842742975
-0.313005731532  -0.0891410048697  0.898943026553
-0.309934875928  -0.0610480821243  0.903583397783
-0.30642532666  -0.0324149108766  0.901005413766
-0.304231858373  -0.00378173960374  0.920082495489
-0.29941061507  0.024851431644  0.898943026553
-0.296335372526  0.0540248514191  0.908739365816
-0.292825823264  0.0826580226919  0.907192575406
-0.289316273997  0.111831442442  0.906161381799
-0.284490643759  0.139924365187  0.889662284094
-0.280542400838  0.169097784962  0.879865944831
-0.276155464259  0.197730956235  0.869038411962
-0.27176852768  0.22690437601  0.856664088683
-0.266938510503  0.255537547258  0.838618200567
-0.262994654516  0.284170718531  0.831915442124
-0.258607717937  0.313884386808  0.821087909255
-0.254659475016  0.341977309554  0.813353957205
-0.251149925749  0.371150729329  0.810775973189
-0.22438961261  0.406266882754  0.495230729569
-0.113838810787  0.466234467836  -0.955143078113
-0.109890567866  0.495948136139  -0.959267852539
-0.106381018603  0.525661804416  -0.960299046146
-0.102871469336  0.556455969723  -0.958236658933
-0.127438314188  0.576985413286  -0.575663830884
-0.127877007846  0.605078336032  -0.523588553751
-0.122173990292  0.635332252836  -0.553493168342
-0.116032279079  0.666126418143  -0.586491363754
-0.113395730194  0.694759589391  -0.572570250064
-0.109451874207  0.724473257694  -0.579273008507
-0.114277504445  0.752025931912  -0.464294921371
-0.108131406298  0.781739600214  -0.499871100799
-0.100678001049  0.812533765521  -0.555039958752
-0.0989232264152  0.841707185296  -0.526682134571
-0.101116694707  0.869259859514  -0.453982985305
-0.0932202088606  0.900594273349  -0.510183036865
-0.0813754800931  0.93354943274  -0.622067543181
-0.0923428215438  0.957320367367  -0.422015983501
-0.08225286741  0.990275526733  -0.513276617685
-0.0682146703555  0.971907077255  -0.407579273009
-0.0682146703555  0.943273905982  -0.450373807682
-0.0734789942515  0.913560237704  -0.42974993555
-0.0695263643914  0.887088060491  -0.530291312194
-0.07391768791  0.856293895184  -0.517401392111
-0.0778659308308  0.826580226881  -0.513792214488
-0.0726016069347  0.801188546723  -0.632379479247
-0.0848850293606  0.767693138829  -0.514307811292
-0.0813754800931  0.740680713113  -0.605568445476
-0.0848850293606  0.710967044836  -0.609693219902
-0.0901493532567  0.680713128031  -0.586491363754
-0.0962910644697  0.649918962724  -0.549883990719
-0.0989232264152  0.620745542949  -0.559680329982
-0.102871469336  0.591031874646  -0.553493168342
-0.10462624397  0.561858454871  -0.579788605311
-0.0800637860572  0.540788762831  -0.958752255736
-0.0831302547269  0.511615343056  -0.964423820572
-0.0866398039892  0.480821177724  -0.966486207786
-0.0910311275078  0.450027012417  -0.957721062129
-0.223950918951  0.385197190689  0.800979633926
-0.227899161877  0.356023770914  0.808713585976
-0.231847404798  0.327390599666  0.813869554009
-0.236673035036  0.298217179891  0.835009022944
-0.240621277956  0.269584008643  0.842742974994
-0.245885601852  0.239870340341  0.862851250322
-0.24939515112  0.211777417595  0.869038411962
-0.253343394041  0.18260399782  0.875741170405
-0.257291636962  0.153970826573  0.881928332044
-0.261244266822  0.1253376553  0.891209074504
-0.265626816467  0.0961642355498  0.902552204176
-0.270013753046  0.067531064277  0.913895333849
-0.273961995967  0.0383576445019  0.920082495489
-0.277032851576  0.0102647217564  0.916988914669
-0.28010370718  -0.0183684494913  0.916473317865
-0.2840519501  -0.0475418692664  0.921629285898
-0.287122805709  -0.0761750405392  0.917504511472
-0.289754967655  -0.104267963285  0.905645784996
-0.292825823264  -0.132901134532  0.897396236143
-0.295896678868  -0.162074554307  0.895849445733
-0.29941061507  -0.190707725555  0.894818252127
-0.301161002764  -0.218800648301  0.875225573601
-0.303793164715  -0.247433819573  0.861304459912
-0.30642532666  -0.276066990821  0.85150812065
-0.31037795652  -0.305240410596  0.856148491879
-0.313005731532  -0.333873581869  0.846352152617
-0.315199199824  -0.362506753117  0.831915442124
-0.316953974452  -0.391139924365  0.809229182779
-0.320024830061  -0.419773095637  0.799432843516
-0.300722309106  -0.447866018383  0.48285640629
-0.253343394041  -0.476499189631  -0.233307553493
-0.207280559946  -0.506212857933  -0.926785253931
-0.210351415555  -0.53592652621  -0.932972415571
-0.213422271159  -0.565640194488  -0.939159577211
-0.216493126768  -0.59535386279  -0.947409126063
-0.22000267603  -0.624527282565  -0.94534673885
-0.223950918951  -0.65478119937  -0.939675174014
-0.227899161877  -0.685035116175  -0.939675174014
-0.230970017481  -0.714748784452  -0.94689352926
-0.23535695406  -0.744462452729  -0.934519205981
-0.238866503328  -0.774716369534  -0.932972415571
-0.24237605259  -0.804970286339  -0.935550399588
-0.246324295511  -0.834143706114  -0.930394431555
-0.249833844778  -0.863857374391  -0.928847641145
-0.253343394041  -0.894111291196  -0.930394431555
-0.256852943303  -0.923824959499  -0.930910028358
-0.259923798912  -0.953538627776  -0.935034802784
-0.263872041833  -0.983252296078  -0.934519205981
-0.23535695406  -0.981091302019  -0.934519205981
-0.232724792115  -0.951377633717  -0.923691673112
-0.229215242847  -0.921663965439  -0.921629285898
-0.224828306268  -0.891410048634  -0.930394431555
-0.221757450664  -0.861696380357  -0.925238463522
-0.218686595055  -0.831982712055  -0.919051301882
-0.215177045793  -0.802269043777  -0.919566898685
-0.211228802872  -0.772555375475  -0.920598092292
-0.206407559569  -0.74230145867  -0.940190770817
-0.202893623367  -0.712587790393  -0.935550399588
-0.198945380446  -0.682874122115  -0.939675174014
-0.195440218118  -0.653160453813  -0.941221964424
-0.191487588258  -0.622906537008  -0.942768754834
-0.187978038995  -0.593733117233  -0.942768754834
-0.184472876667  -0.563479200454  -0.940190770817
-0.180958940466  -0.533765532151  -0.937612786801
-0.177449391203  -0.503511615346  -0.936581593194
-0.237989116011  -0.474338195571  -0.0373807682392
-0.294576210958  -0.445705024324  0.804588811549
-0.291948435947  -0.417071853051  0.816963134829
-0.288000193026  -0.388438681803  0.809744779582
-0.285806724734  -0.360345759058  0.830884248518
-0.283178949723  -0.33171258781  0.843258571797
-0.281419788155  -0.303079416537  0.865944831142
-0.277475932168  -0.273905996762  0.857695282289
-0.275278076942  -0.245272825514  0.879350348028
-0.27308460865  -0.216639654241  0.89378705852
-0.270013753046  -0.188006482994  0.899458623357
-0.266508590718  -0.158833063219  0.901005413766
-0.264310735491  -0.130740140473  0.921113689095
-0.262994654516  -0.102647217728  0.945862335654
-0.259923798912  -0.0734737979526  0.95153390049
-0.255971169052  -0.0459211237345  0.945862335654
-0.252027313065  -0.0167477039594  0.94225315803
-0.248079070145  0.0124257158157  0.934003609178
-0.245003827601  0.0410588870885  0.937612786801
-0.241059971615  0.069151809834  0.930910028358
-0.236673035036  0.0972447325543  0.918535705079
-0.232286098456  0.126418152329  0.906161381799
-0.228772162255  0.155051323602  0.905645784996
-0.22438961261  0.184224743377  0.89224026811
-0.219563982372  0.212857914625  0.876256767208
-0.215615739451  0.241491085898  0.870585202372
-0.211671883465  0.270664505673  0.860273266306
-0.205964478976  0.299837925423  0.834493426141
-0.20201623605  0.329011345198  0.827790667698
-0.197190605812  0.358184764973  0.809229182779
-0.192803669233  0.387358184748  0.7968548595
-0.0594407971919  0.452728254978  -0.964939417376
-0.056369941588  0.482441923281  -0.958236658933
-0.0528647792598  0.512695840086  -0.958752255736
-0.0480347620828  0.542949756865  -0.975766950245
-0.0708468323009  0.564019448931  -0.618973962361
-0.0721629132762  0.592112371676  -0.549883990719
-0.0603181845088  0.62452728254  -0.659190513019
-0.0633890401178  0.651539708256  -0.572570250064
-0.0603181845088  0.681253376533  -0.565351894818
-0.0598794908503  0.710426796308  -0.524619747358
-0.0554925542711  0.739600216083  -0.53441608662
-0.050228230375  0.769313884386  -0.557617942769
-0.0471617617053  0.799027552663  -0.547306006703
-0.0467186811126  0.828200972438  -0.508120649652
-0.0506669240334  0.854132901125  -0.403454498582
-0.0458412937958  0.884386817929  -0.423562773911
-0.0375061142906  0.916261480266  -0.483887599897
-0.0383835016075  0.944354403011  -0.426140757927
-0.0344352586867  0.973527822786  -0.428718741944
-0.0094253332422  0.993517017822  -0.392626965713
-0.0142597373534  0.963263101017  -0.376643464811
-0.0125005757855  0.936790923804  -0.449858210879
-0.0111844948102  0.909238249586  -0.509151843259
-0.0125005757855  0.879524581308  -0.540087651457
-0.0177648996816  0.849810913006  -0.522557360144
-0.0212744489439  0.820637493231  -0.521526166538
-0.0225905299192  0.791464073456  -0.546790409899
-0.0225905299192  0.762830902208  -0.595772106213
-0.0291709347906  0.732036736876  -0.560195926785
-0.0322417903945  0.702323068599  -0.566383088425
-0.035751339662  0.673149648824  -0.565351894818
-0.0392608889244  0.643976229048  -0.563289507605
-0.0396995825828  0.614262560771  -0.606599639082
-0.0449639064789  0.584008643966  -0.581335395721
-0.0436478255036  0.556455969723  -0.649909770559
-0.0239066108945  0.533225283624  -0.967517401392
-0.0282935474738  0.502971366819  -0.95617427172
-0.0322417903945  0.473257698542  -0.947409126063
-0.164727275119  0.407347379784  0.80149523073
-0.167802517662  0.378714208536  0.794792472287
-0.173062454624  0.349000540234  0.822634699665
-0.177010697545  0.319827120459  0.829853054911
-0.182275021441  0.291193949211  0.854086104666
-0.186223264362  0.262020529436  0.856148491879
-0.190167120348  0.233387358163  0.864913637535
-0.195440218118  0.203673689886  0.891209074504
-0.199822767763  0.175040518638  0.905645784996
-0.203771010684  0.146407347365  0.910286156226
-0.208157947263  0.11723392759  0.924207269915
-0.21210180325  0.0891410048446  0.929878834751
-0.215615739451  0.0605078335969  0.930394431555
-0.22000267603  0.0313344138218  0.94534673885
-0.223950918951  0.00270124254894  0.9530806909
-0.22702177456  -0.0259319286988  0.946377932457
-0.230531323823  -0.0545650999465  0.950502706883
-0.233606566366  -0.0831982712193  0.942768754834
-0.236673035036  -0.111831442467  0.937612786801
-0.238866503328  -0.139924365212  0.925238463522
-0.242814746249  -0.169097784988  0.929878834751
-0.245446908194  -0.19773095626  0.914926527456
-0.246762989169  -0.226364127508  0.889146687291
-0.249833844778  -0.254457050254  0.883475122454
-0.252466006724  -0.283090221501  0.874194379995
-0.254659475016  -0.311183144247  0.858726475896
-0.257291636962  -0.33981631552  0.844805362207
-0.260801186229  -0.368989735295  0.844289765403
-0.262994654516  -0.39816315507  0.830368651714
-0.266065510125  -0.426256077815  0.823665893271
-0.267820284754  -0.45542949759  0.795823665893
-0.180958940466  -0.483522420336  -0.466357308585
-0.150689078064  -0.513236088613  -0.945862335654
-0.154198627327  -0.54294975689  -0.943284351637
-0.158146870247  -0.572663425193  -0.942768754834
-0.162538193766  -0.602917341998  -0.930394431555
-0.165165968777  -0.633171258777  -0.94379994844
-0.16867551804  -0.662344678552  -0.94534673885
-0.172185067307  -0.692598595357  -0.941221964424
-0.176133310228  -0.721772015132  -0.938128383604
-0.179199778898  -0.751485683435  -0.94225315803
-0.183591102416  -0.781739600214  -0.934519205981
-0.186223264362  -0.811993517019  -0.944315545244
-0.190610200941  -0.841166936794  -0.936065996391
-0.194997137525  -0.871420853599  -0.925238463522
-0.198067993129  -0.901674770403  -0.934519205981
-0.201577542392  -0.931388438681  -0.930910028358
-0.204648398001  -0.960561858456  -0.937097189997
-0.208596640921  -0.990815775261  -0.931425625161
-0.17964285949  -0.99891950297  -0.936581593194
-0.176133310228  -0.968665586191  -0.938128383604
-0.172623760966  -0.938411669386  -0.936065996391
-0.169114211698  -0.909238249611  -0.930910028358
-0.165165968777  -0.878984332806  -0.938128383604
-0.161217725857  -0.848730416001  -0.943284351637
-0.158146870247  -0.818476499197  -0.930910028358
-0.153759933668  -0.789303079422  -0.94534673885
-0.149811690747  -0.759589411144  -0.947924722867
-0.146740835138  -0.729875742842  -0.942768754834
-0.142792592218  -0.700162074565  -0.944831142047
-0.139721736614  -0.670448406287  -0.938128383604
-0.135773493688  -0.640194489482  -0.944315545244
-0.132263944425  -0.609940572678  -0.944315545244
-0.129193088822  -0.580226904375  -0.933488012374
-0.125244845896  -0.551053484625  -0.939159577211
-0.121296602975  -0.520259319293  -0.94379994844
-0.138405655638  -0.490005402488  -0.650425367363
-0.238866503328  -0.46245272827  0.805104408353
-0.235795647719  -0.434359805525  0.812838360402
-0.233606566366  -0.40518638575  0.831399845321
-0.230970017481  -0.376012965975  0.842742974994
-0.227899161877  -0.347920043229  0.850476927043
-0.225266999927  -0.319286871982  0.860788863109
-0.222196144323  -0.290653700709  0.869038411962
-0.220441369689  -0.261480280934  0.888115493684
-0.217804820804  -0.233927606716  0.90152101057
-0.215615739451  -0.205294435443  0.919566898685
-0.212544883842  -0.176121015668  0.926785253931
-0.209912721897  -0.14748784442  0.937612786801
-0.207719253605  -0.119935170177  0.955143078113
-0.205087091659  -0.091301998929  0.966486207786
-0.201134461799  -0.0621285791539  0.958236658933
-0.198067993129  -0.0334954079062  0.967001804589
-0.194558443867  -0.00486223663338  0.962877030162
-0.191048894599  0.0237709346143  0.963908223769
-0.185784570703  0.0529443543894  0.943284351637
-0.183591102416  0.0815775256623  0.959783449343
-0.17832677852  0.11021069691  0.932972415571
-0.175255922911  0.138303619655  0.938643980407
-0.170868986332  0.167477039431  0.930910028358
-0.166482049753  0.196650459206  0.914926527456
-0.162095113173  0.224743381951  0.902036607373
-0.156392095619  0.254997298756  0.870585202372
-0.151570852315  0.283630470003  0.853570507863
-0.147179528797  0.312263641276  0.840164990977
-0.142353898559  0.340896812524  0.824697086878
-0.13796696198  0.370070232299  0.813869554009
-0.134018719059  0.399243652074  0.806651198763
-0.000655847017979  0.465153970807  -0.95617427172
0.00329239590282  0.494867639109  -0.959783449343
0.00724502576295  0.525121555914  -0.964939417376
-0.0103071074933  0.548352242013  -0.674658417118
-0.00723625188937  0.578065910316  -0.669502449085
-0.00504278359721  0.607239330091  -0.650940964166
0.000221540298888  0.637493246871  -0.672080433101
0.000221540298888  0.666126418143  -0.621036349575
-0.000655847017979  0.693679092362  -0.565867491622
-0.00241062165171  0.721772015107  -0.48904356793
0.00373108956125  0.752566180439  -0.528228924981
0.0120662690664  0.783360345746  -0.58752255736
0.0177692866209  0.813614262551  -0.618973962361
0.00855671979891  0.838465694207  -0.446249033256
0.0177692866209  0.870880605071  -0.522557360144
0.0243496914872  0.901674770378  -0.560711523589
0.0274205470962  0.931388438681  -0.551430781129
0.0186422869984  0.955159373308  -0.38901778809
0.0243496914872  0.985413290112  -0.416860015468
0.0462843743884  0.982171799024  -0.365300335138
0.0480391490222  0.955159373308  -0.436968290797
0.0528647792598  0.928687196094  -0.551430781129
0.051987391943  0.900054024846  -0.58597576695
0.0454113740109  0.869259859514  -0.544212425883
0.0471617617053  0.841707185296  -0.613302397525
0.0427748251261  0.811993517019  -0.603506058262
0.0392652758637  0.781739600214  -0.606084042279
0.0353170329378  0.752566180439  -0.597834493426
0.0318074836755  0.722852512137  -0.599896880639
0.0326848709923  0.694759589391  -0.658159319412
0.0287366280715  0.664505672586  -0.657128125806
0.0278592407547  0.635872501339  -0.691157514823
0.0212788358833  0.605078336032  -0.648878576953
0.0173305929625  0.575364667729  -0.644238205723
0.0195240612495  0.547271744984  -0.725186903841
0.0340009519676  0.522960561855  -0.970095385409
0.0304914027002  0.493246893552  -0.965970610982
0.0265431597794  0.463533225275  -0.964939417376
-0.10725840592  0.396542409488  0.80149523073
-0.112522729816  0.36682874121  0.826243877288
-0.116032279079  0.338195569963  0.828821861304
-0.120419215658  0.30956239869  0.840164990977
-0.124806152237  0.280388978915  0.852023717453
-0.128754395163  0.251755807667  0.860273266306
-0.134018719059  0.223122636394  0.886053106471
-0.138405655638  0.193949216619  0.89533384893
-0.142353898559  0.165316045371  0.903583397783
-0.147179528797  0.136682874124  0.925238463522
-0.152443852693  0.106969205821  0.944831142047
-0.15595340196  0.0783360345733  0.947409126063
-0.16034033854  0.0497028633005  0.961845836556
-0.165165968777  0.0205294435254  0.977313740655
-0.16867551804  -0.00810372772229  0.978344934261
-0.171746373649  -0.0367368989951  0.975766950245
-0.175255922911  -0.0648298217406  0.977313740655
-0.177449391203  -0.0934629929883  0.960299046146
-0.180520246807  -0.122096164236  0.955143078113
-0.183152408758  -0.150729335509  0.942768754834
-0.185784570703  -0.179362506757  0.931941221964
-0.187978038995  -0.207995678029  0.917504511472
-0.189737200563  -0.236088600775  0.894818252127
-0.194119750208  -0.264721772023  0.90306780098
-0.195440218118  -0.293354943295  0.875225573601
-0.198067993129  -0.321988114543  0.863882443929
-0.200704542014  -0.350621285791  0.85150812065
-0.203332317025  -0.379794705566  0.841711781387
-0.205525785317  -0.408427876839  0.824697086878
-0.207719253605  -0.436520799584  0.808197989172
-0.210351415555  -0.465153970832  0.794792472287
-0.192364975575  -0.494327390607  0.49368393916
-0.0927815152022  -0.523500810382  -0.94998711008
-0.0976071454399  -0.553214478659  -0.937097189997
-0.100678001049  -0.583468395464  -0.939675174014
-0.104187550311  -0.613722312269  -0.944831142047
-0.107701486513  -0.642895732044  -0.944831142047
-0.110767955183  -0.673149648849  -0.948955916473
-0.115154891762  -0.702863317126  -0.939675174014
-0.118225747371  -0.733117233931  -0.94534673885
-0.122173990292  -0.762830902233  -0.94379994844
-0.125683539554  -0.792544570511  -0.941737561227
-0.130066089199  -0.822258238788  -0.930910028358
-0.133141331742  -0.852512155593  -0.940190770817
-0.139283042955  -0.881685575368  -0.90461459139
-0.141915204901  -0.91139924367  -0.912864140242
-0.144547366851  -0.941653160475  -0.928332044341
-0.148056916114  -0.971366828752  -0.931941221964
-0.120419215658  -0.979470556462  -0.913379737046
-0.116909666396  -0.949216639657  -0.915957721062
-0.112965810409  -0.920043219882  -0.915442124259
-0.109451874207  -0.889789303077  -0.918020108275
-0.103748856653  -0.859535386298  -0.94225315803
-0.100678001049  -0.829821717995  -0.934519205981
-0.0967341450623  -0.800108049718  -0.941737561227
-0.0932202088606  -0.770394381416  -0.938128383604
-0.0897106595983  -0.740140464636  -0.938643980407
-0.0861967233966  -0.710426796333  -0.936065996391
-0.0826915610684  -0.680713128056  -0.931425625161
-0.0796207054645  -0.650999459754  -0.922660479505
-0.0756724625386  -0.620745542949  -0.930910028358
-0.0712855259594  -0.591031874672  -0.942768754834
-0.0673372830386  -0.561318206394  -0.941221964424
-0.064705121088  -0.532144786619  -0.933488012374
-0.0603181845088  -0.501890869814  -0.94225315803
-0.181397634124  -0.472177201512  0.807166795566
-0.179199778898  -0.444084278767  0.822634699665
-0.176133310228  -0.415451107519  0.831915442124
-0.173505535217  -0.386817936271  0.84532095901
-0.170868986332  -0.358184764998  0.853570507863
-0.169114211698  -0.329551593751  0.877803557618
-0.166043356094  -0.300918422478  0.884506316061
-0.163411194144  -0.27228525123  0.89688063934
-0.161217725857  -0.244192328485  0.916473317865
-0.158585563906  -0.215559157212  0.928847641145
-0.155514708302  -0.186925985964  0.932456818768
-0.152443852693  -0.157752566189  0.938128383604
-0.150250384406  -0.129659643443  0.955658674916
-0.147179528797  -0.101026472196  0.965455014179
-0.14498606051  -0.0723933009229  0.984016499098
-0.142792592218  -0.0443003781775  1
-0.138405655638  -0.0156672069298  0.988141273524
-0.134457412718  0.0135062128453  0.982985305491
-0.130066089199  0.0415991355908  0.969064191802
-0.125244845896  0.0702323068385  0.952049497293
-0.120419215658  0.099945975141  0.934003609178
-0.116909666396  0.128579146389  0.931425625161
-0.112965810409  0.157212317662  0.924722866718
-0.106819712262  0.185845488909  0.8906934777
-0.102871469336  0.214478660182  0.882443928848
-0.0993619200736  0.243652079957  0.881928332044
-0.0940975961775  0.272285251205  0.859757669502
-0.0892719659398  0.30145867098  0.842742974994
-0.0848850293606  0.330632090755  0.828821861304
-0.0800637860572  0.35980551053  0.810260376386
-0.076111156197  0.388438681778  0.803557617943
0.0576904094975  0.453808752008  -0.959783449343
0.061199958765  0.484062668813  -0.957721062129
0.0651482016858  0.514316585618  -0.961845836556
0.0515443113503  0.538627768772  -0.730858468677
0.0537421665767  0.56726094002  -0.707656612529
0.0581291031559  0.597514856824  -0.722608919825
0.051987391943  0.623987034013  -0.58906934777
0.055058247552  0.653160453788  -0.580304202114
0.063393427052  0.684494867622  -0.64217581851
0.0625116528009  0.713668287397  -0.58597576695
0.0664642826611  0.742841707172  -0.587006960557
0.069535138265  0.772015126947  -0.583913379737
0.0717286065572  0.801728795225  -0.559680329982
0.0734789942515  0.830361966498  -0.538540861047
0.0831346416662  0.862236628834  -0.617942768755
0.0840164159173  0.89032955158  -0.580304202114
0.0857668036117  0.920043219882  -0.556071152359
0.0897106595983  0.94975688816  -0.561742717195
0.0844463357022  0.975148568318  -0.442639855633
0.12788578172  0.989735278206  -0.659190513019
0.105069324567  0.951377633691  -0.404485692189
0.113404504067  0.927606699065  -0.566898685228
0.115159278701  0.900054024846  -0.634957463264
0.101998468958  0.866018368451  -0.507089456045
0.0971728387208  0.835764451646  -0.49213714875
0.0954136771528  0.806591031871  -0.515339004898
0.0954136771528  0.778498109125  -0.561742717195
0.087082884587  0.747163695291  -0.500386697602
0.0831346416662  0.717450027014  -0.491621551946
0.0831346416662  0.688816855741  -0.54060324826
0.0826959480078  0.661264181523  -0.584944573344
0.0787433181476  0.631010264718  -0.581335395721
0.080941173374  0.602917341972  -0.656096932199
0.0787433181476  0.573743922197  -0.674658417118
0.080941173374  0.545650999452  -0.754060324826
0.0932245958  0.520259319268  -0.967001804589
0.0892807398134  0.490545650991  -0.961330239753
0.0862054972701  0.460291734186  -0.973188966228
-0.0475916814902  0.394381415428  0.79066769786
-0.0519830050087  0.365748244181  0.807166795566
-0.0572473289048  0.337115072933  0.829337458108
-0.0607568781672  0.307941653158  0.833977829337
-0.064705121088  0.278768233383  0.839649394174
-0.0704081386425  0.249594813608  0.868522815159
-0.0747994621611  0.220961642335  0.878319154421
-0.0791820118061  0.19178822256  0.8906934777
-0.0835689483853  0.163155051312  0.907192575406
-0.0888332722814  0.133981631537  0.932972415571
-0.0919041278853  0.105348460289  0.924207269915
-0.0971640648472  0.0761750405141  0.947924722867
-0.101555388366  0.047001620739  0.964939417376
-0.105503631287  0.0178282009639  0.968032998195
-0.109013180549  -0.0102647217816  0.972673369425
-0.114716198103  -0.0388978930293  0.999484403197
-0.117787053712  -0.0675310643021  0.997422015984
-0.119541828341  -0.0961642355498  0.975766950245
-0.123051377609  -0.124257158295  0.971642175819
-0.124363071645  -0.152890329568  0.947409126063
-0.127438314188  -0.182063749343  0.939675174014
-0.129636169414  -0.210156672089  0.923691673112
-0.131825250767  -0.238249594834  0.905645784996
-0.135330413095  -0.267423014609  0.90306780098
-0.13796696198  -0.296056185857  0.89533384893
-0.140160430272  -0.324689357105  0.875741170405
-0.141915204901  -0.353322528377  0.855117298273
-0.14498606051  -0.381955699625  0.84996133024
-0.147618222455  -0.410048622371  0.838102603764
-0.149811690747  -0.438681793643  0.822634699665
-0.1520007721  -0.467855213419  0.803042021139
-0.154198627327  -0.497028633194  0.783964939417
-0.0344352586867  -0.526202052944  -0.94225315803
-0.0383835016075  -0.555915721246  -0.939675174014
-0.0423273575941  -0.586169638051  -0.937612786801
-0.0454026001373  -0.615343057826  -0.943284351637
-0.0497895367166  -0.645056726103  -0.931941221964
-0.0528647792598  -0.675310642908  -0.939675174014
-0.0559312479295  -0.705564559713  -0.943284351637
-0.0607568781672  -0.734737979488  -0.931425625161
-0.0638321207105  -0.764451647765  -0.937612786801
-0.0673372830386  -0.79470556457  -0.939675174014
-0.0708468323009  -0.824419232847  -0.937612786801
-0.07391768791  -0.853592652622  -0.941737561227
-0.0783046244892  -0.883846569427  -0.936065996391
-0.0818141737516  -0.914640734759  -0.936065996391
-0.085323723019  -0.943814154509  -0.935550399588
-0.0897106595983  -0.973527822812  -0.927300850735
-0.0616342654841  -0.990815775261  -0.936581593194
-0.0581291031559  -0.961642355486  -0.932456818768
-0.0554925542711  -0.931388438681  -0.923176076308
-0.0519830050087  -0.901674770403  -0.916473317865
-0.0489121493997  -0.871961102126  -0.908739365816
-0.044086519162  -0.842247433824  -0.927816447538
-0.0396995825828  -0.812533765546  -0.937097189997
-0.035751339662  -0.782820097244  -0.940706367621
-0.0322417903945  -0.753106428967  -0.941221964424
-0.0287322411322  -0.722852512162  -0.936065996391
-0.0256569985889  -0.693138843884  -0.931425625161
-0.0217131426024  -0.66288492708  -0.933488012374
-0.01820359334  -0.633171258777  -0.932456818768
-0.0142597373534  -0.6034575905  -0.937097189997
-0.00986841383487  -0.573743922223  -0.94534673885
-0.00592017091407  -0.54403025392  -0.94844031967
-0.00504278359721  -0.514316585643  -0.913895333849
-0.123051377609  -0.48460291734  0.792730085073
-0.120419215658  -0.455969746093  0.805104408353
-0.118668827964  -0.427336574845  0.828306264501
-0.116032279079  -0.398703403572  0.842742974994
-0.112965810409  -0.370070232324  0.84532095901
-0.110329261524  -0.341437061051  0.858726475896
-0.107701486513  -0.312803889804  0.870585202372
-0.105942324945  -0.284710967058  0.89533384893
-0.103310162994  -0.256077795785  0.909254962619
-0.100678001049  -0.226904376035  0.921113689095
-0.0976071454399  -0.19881145329  0.925754060325
-0.0949749834944  -0.170178282017  0.938128383604
-0.0919041278853  -0.141545110769  0.94689352926
-0.0897106595983  -0.112911939497  0.965455014179
-0.0870784976477  -0.0842787682489  0.976282547048
-0.0840076420437  -0.0556455969761  0.980407321475
-0.0800637860572  -0.0270124257284  0.976282547048
-0.0756724625386  0.00162074554446  0.961330239753
-0.0721629132762  0.0297136682648  0.963392626966
-0.0673372830386  0.0588870880398  0.942768754834
-0.0625116528009  0.0869800107853  0.925754060325
-0.0581291031559  0.11615343056  0.911317349832
-0.0550538606127  0.144786601833  0.920598092292
-0.0515443113503  0.173419773081  0.918535705079
-0.0471617617053  0.202052944354  0.905130188193
-0.0423273575941  0.230686115601  0.888115493684
-0.0375061142906  0.260399783879  0.875225573601
-0.0331191777114  0.289573203654  0.862335653519
-0.0287322411322  0.317666126399  0.84996133024
-0.024345304553  0.346839546174  0.835524619747
-0.019962754908  0.37601296595  0.823150296468
0.114720585043  0.44138303618  -0.947924722867
0.119984908939  0.471636952985  -0.970095385409
0.121739683573  0.501350621287  -0.944315545244
0.125249232835  0.531064289564  -0.94225315803
0.129636169414  0.560777957842  -0.952049497293
0.112965810409  0.584008643966  -0.678783191544
0.113843197726  0.612641815214  -0.642691415313
0.121300989914  0.644516477576  -0.694251095643
0.114720585043  0.669908157735  -0.557617942769
0.118668827964  0.699621826037  -0.559164733179
0.116918440269  0.727714748783  -0.48749677752
0.120862296256  0.75742841706  -0.494199535963
0.129197475756  0.788762830894  -0.556586749162
0.126126620152  0.81577525661  -0.465326114978
0.139726123548  0.849270664504  -0.604021655066
0.141042204523  0.877363587249  -0.570507862851
0.145867834761  0.908157752556  -0.584944573344
0.147183915736  0.936790923804  -0.555555555556
0.154641707924  0.967585089136  -0.605052848672
0.157712563528  0.997298757413  -0.601959267853
0.193246749831  0.988114532674  -0.737045630317
0.179208552771  0.953538627751  -0.598350090229
0.1726281479  0.922204213916  -0.560195926785
0.167363824004  0.891950297137  -0.538540861047
0.163854274741  0.862236628834  -0.53750966744
0.162099500108  0.833603457587  -0.565351894818
0.157712563528  0.803349540782  -0.552461974736
0.154203014266  0.773095623977  -0.553493168342
0.144117447067  0.741761210143  -0.464810518175
0.144117447067  0.713128038895  -0.512761020882
0.142358285499  0.684494867622  -0.538025264243
0.141480898182  0.655321447847  -0.576179427688
0.154641707924  0.631010264718  -0.802010827533
0.149820464621  0.601296596415  -0.782418149007
0.159906031821  0.575904916257  -0.966486207786
0.156396482553  0.545650999452  -0.969579788605
0.151570852315  0.515397082647  -0.955658674916
0.148061303053  0.485143165842  -0.95462748131
0.144117447067  0.454889249038  -0.950502706883
0.141042204523  0.425715829263  -0.961845836556
0.00767494554781  0.36088600756  0.79840164991
0.00197192799328  0.331712587785  0.827790667698
-0.00153323433485  0.303079416512  0.828821861304
-0.00723625188937  0.273365748234  0.858210879093
-0.0111844948102  0.244732576987  0.864913637535
-0.0146896571383  0.216099405714  0.866976024749
-0.0186422869984  0.187466234466  0.873163186388
-0.0234679172361  0.158292814691  0.889662284094
-0.0274161601569  0.129119394916  0.89997422016
-0.0313600161434  0.101026472171  0.905645784996
-0.0366243400395  0.0718530523955  0.932972415571
-0.0410156635581  0.0432198811227  0.941221964424
-0.0449639064789  0.0140464613727  0.94689352926
-0.0497895367166  -0.0145867099001  0.969064191802
-0.0532946990447  -0.0426796326456  0.970095385409
-0.056369941588  -0.0718530524207  0.963392626966
-0.0590021035335  -0.100486223668  0.950502706883
-0.0625116528009  -0.128579146414  0.952565094096
-0.0660212020633  -0.157752566189  0.953596287703
-0.067775976697  -0.186385737462  0.932456818768
-0.0699694449841  -0.214478660182  0.910286156226
-0.0730403005931  -0.243111831455  0.903583397783
-0.0752293819459  -0.27228525123  0.8906934777
-0.0778659308308  -0.300378173975  0.878834751225
-0.0800637860572  -0.328471096721  0.858726475896
-0.0826915610684  -0.357644516496  0.850476927043
-0.0857668036117  -0.386277687744  0.844289765403
-0.0879558849645  -0.414910859017  0.826759474091
-0.0905880469151  -0.443544030264  0.813869554009
-0.0940975961775  -0.472717450039  0.812322763599
0.0274205470962  -0.501350621287  -0.938643980407
0.0239066108945  -0.530524041062  -0.934003609178
0.0212788358833  -0.560777957867  -0.950502706883
0.0177692866209  -0.590491626169  -0.948955916473
0.013821043695  -0.620205294447  -0.946377932457
0.0103114944326  -0.649918962724  -0.951018303687
0.00636325151185  -0.680172879529  -0.94379994844
0.00241500858595  -0.709886547831  -0.940190770817
-0.000217153359546  -0.739600216109  -0.951018303687
-0.00416539628034  -0.769313884386  -0.944831142047
-0.0094253332422  -0.799027552688  -0.926785253931
-0.0138166567608  -0.829281469493  -0.916473317865
-0.0155714313894  -0.85899513777  -0.937612786801
-0.0195196743153  -0.889249054575  -0.933488012374
-0.0230292235777  -0.91950297138  -0.935034802784
-0.0274161601569  -0.948676391155  -0.924207269915
-0.0309300963586  -0.97893030796  -0.927816447538
-0.00372231568767  -0.999459751498  -0.932972415571
0.000660233957321  -0.96974608322  -0.937612786801
0.00416978321968  -0.938951917888  -0.936065996391
0.00767494554781  -0.909238249611  -0.936065996391
0.0111888817495  -0.880064829836  -0.933488012374
0.0151371246703  -0.849810913031  -0.939159577211
0.0186422869984  -0.819556996226  -0.935034802784
0.023033610517  -0.789843327949  -0.942768754834
0.0265431597794  -0.760669908174  -0.94225315803
0.0309300963586  -0.730956239871  -0.951018303687
0.0340009519676  -0.700162074565  -0.944831142047
0.0370718075716  -0.670988654789  -0.939159577211
0.0405769698997  -0.641274986512  -0.933488012374
0.0449682934182  -0.611021069707  -0.943284351637
0.048916536339  -0.580767152903  -0.947924722867
0.0524260856014  -0.551053484625  -0.944315545244
0.0563787154615  -0.52188006485  -0.94998711008
0.0598838777897  -0.491626148045  -0.94998711008
-0.0625116528009  -0.462992976773  0.813869554009
-0.0590021035335  -0.434359805525  0.814900747615
-0.056369941588  -0.406266882779  0.823665893271
-0.0537377796374  -0.377093463004  0.837071410157
-0.0515443113503  -0.348460291757  0.854601701469
-0.0489121493997  -0.320367369011  0.869038411962
-0.0471617617053  -0.291734197738  0.890177880897
-0.044086519162  -0.262560777963  0.899458623357
-0.0410156635581  -0.234467855218  0.90306780098
-0.0379448079491  -0.206374932472  0.907708172209
-0.0344352586867  -0.177201512697  0.910286156226
-0.0318030967361  -0.148028092922  0.923176076308
-0.0287322411322  -0.119935170177  0.931941221964
-0.0261000791816  -0.091301998929  0.940706367621
-0.0221518362608  -0.0626688276813  0.937097189997
-0.0190809806569  -0.0340356564085  0.939675174014
-0.0146896571383  -0.00540248516077  0.927816447538
-0.0107458011517  0.0232306861121  0.922660479505
-0.00723625188937  0.0518638573598  0.922660479505
-0.00284931531015  0.0810372771349  0.911317349832
0.00197192799328  0.10913019988  0.896365042537
0.00592455785342  0.138303619655  0.888115493684
0.00943410711578  0.166936790903  0.887084300077
0.0146984310119  0.196110210678  0.866976024749
0.0186422869984  0.224203133424  0.856148491879
0.0234766911097  0.253376553199  0.838102603764
0.0282979344131  0.283090221501  0.822634699665
0.0322461773339  0.311723392749  0.816963134829
0.0370718075716  0.339816315494  0.795823665893
0.17131206693  0.404105888695  -0.969064191802
0.17526030985  0.434900054002  -0.970095385409
0.178769859113  0.464073473777  -0.969064191802
0.18227940838  0.494327390582  -0.968032998195
0.185788957643  0.524581307387  -0.965970610982
0.188859813247  0.553214478659  -0.95617427172
0.181402021063  0.579686655848  -0.807682392369
0.176137697167  0.606699081564  -0.688579530807
0.170434679613  0.633711507279  -0.565867491622
0.174382922534  0.662884927055  -0.568961072441
0.174382922534  0.691518098302  -0.521526166538
0.177019471418  0.720691518077  -0.506573859242
0.179208552771  0.74932468935  -0.48904356793
0.189737200563  0.781739600214  -0.579273008507
0.193689830424  0.811453268492  -0.58288218613
0.195440218118  0.840626688267  -0.556071152359
0.200704542014  0.870340356544  -0.577726218097
0.234045260024  0.912479740675  -0.975766950245
0.205087091659  0.928687196094  -0.540087651457
0.211671883465  0.960021609929  -0.581850992524
0.270891140363  0.987034035644  -0.975251353442
0.267385978035  0.957320367367  -0.976798143852
0.263876428772  0.926526202035  -0.976798143852
0.234922647341  0.886547811989  -0.640113431297
0.255979942926  0.866558616953  -0.970610982212
0.229658323445  0.827120475409  -0.667955658675
0.213865351757  0.793084819013  -0.502449084816
0.220888837221  0.767693138829  -0.643207012117
0.222639224915  0.740140464611  -0.717452951792
0.22000706297  0.710426796308  -0.731374065481
