# .PCD v.7 - Point Cloud Data file format
VERSION .7
FIELDS x y z
SIZE 4 4 4
TYPE F F F
COUNT 1 1 1
WIDTH 987
HEIGHT 1
VIEWPOINT 0 0 0 1 0 0 0
POINTS 987
DATA ascii	
0.343589056608  -0.430560159097  -0.44612286002
0.342540389891  -0.418848745998  -0.464249748238
0.341914538896  -0.4060324826  -0.456193353474
0.340867965325  -0.394100099437  -0.473313192346
0.340449335896  -0.381062865985  -0.44612286002
0.339402762327  -0.369351452876  -0.469284994965
0.338774818185  -0.356314219424  -0.458207452165
0.337937559327  -0.343497956026  -0.448136958711
0.337307522039  -0.330460722575  -0.436052366566
0.336263041616  -0.318749309465  -0.461228600201
0.335635097473  -0.305933046078  -0.448136958711
0.33500715333  -0.292895812616  -0.434038267875
0.333960579761  -0.280521489335  -0.44612286002
0.333123320904  -0.267926196001  -0.447129909366
0.332286062047  -0.255993812838  -0.455186304129
0.331658117906  -0.242514639269  -0.43303121853
0.330820859049  -0.23080322616  -0.458207452165
0.329983600192  -0.217765992708  -0.444108761329
0.329564970763  -0.204065849075  -0.40886203424
0.328937026623  -0.191249585677  -0.395770392749
0.327681138337  -0.180422052813  -0.452165156093
0.326841786334  -0.167826759479  -0.451158106747
0.326006620625  -0.155673406252  -0.459214501511
0.325169361768  -0.142857142854  -0.455186304129
0.324332102911  -0.130482819574  -0.463242698892
0.323704158771  -0.117666556186  -0.453172205438
0.322866899913  -0.105292232906  -0.453172205438
0.322029641056  -0.0929179096251  -0.456193353474
0.321403790062  -0.0796597061096  -0.440080563948
0.320773752773  -0.0664015025941  -0.413897280967
0.319727179202  -0.0551320296126  -0.448136958711
0.318887827198  -0.0423157662146  -0.441087613293
0.31805266149  -0.0297204728805  -0.444108761329
0.317424717347  -0.0169042094825  -0.434038267875
0.31658745849  -0.00452988620208  -0.434038267875
0.315750199635  0.00784443707838  -0.442094662638
0.314912940778  0.0204397304125  -0.438066465257
0.314075681921  0.0325930836393  -0.458207452165
0.313238423066  0.0454093470373  -0.449144008056
0.312610478923  0.058225610425  -0.43303121853
0.311773220066  0.0708209037694  -0.438066465257
0.311354590637  0.0845210474024  -0.403826787513
0.310308017068  0.096453430555  -0.423967774421
0.309470758211  0.108606783782  -0.434038267875
0.308842814068  0.121864987297  -0.418932527694
0.307796240499  0.134018340514  -0.430010070493
0.307168296357  0.146613633848  -0.426988922457
0.306331037499  0.159429897246  -0.413897280967
0.305910314925  0.172688100762  -0.388721047331
0.304656519788  0.184399513871  -0.420946626385
0.304237890359  0.19787868744  -0.390735146022
0.303189223641  0.210032040657  -0.406847935549
0.302772687361  0.223290244172  -0.379657603223
0.302144743219  0.236769417741  -0.351460221551
0.303400631502  0.256656723009  -0.10775427996
0.302772687361  0.269693956471  -0.0866062437059
0.301935428504  0.281626339634  -0.106747230614
0.301098169647  0.294442603032  -0.0956696878147
0.300677447072  0.307700806537  -0.0755287009063
0.299423651935  0.318970279529  -0.110775427996
0.298795707792  0.332228483045  -0.0926485397784
0.298167763649  0.345044746432  -0.0855991943605
0.297539819509  0.358523920012  -0.0523665659617
0.296911875366  0.371119213346  -0.0513595166163
0.296074616509  0.383493536626  -0.0493454179255
0.29502804294  0.395425919789  -0.0664652567976
0.294609413511  0.408684123305  -0.0412890231621
0.29356283994  0.420837476521  -0.0533736153072
0.292934895797  0.433653739919  -0.0463242698892
0.292097636942  0.4460280632  -0.0493454179255
0.291679007514  0.459949176886  -0.00201409869084
0.290841748657  0.471881560049  -0.0181268882175
0.290211711368  0.484918793501  0.00201409869084
0.289167230945  0.496409236546  -0.0292044310171
0.288329972088  0.509004529891  -0.0251762336355
0.287490620085  0.521378853171  -0.0342396777442
0.286655454376  0.533753176441  -0.0392749244713
0.28539956609  0.545022649433  -0.0866062437059
0.284562307235  0.557396972714  -0.0845921450151
0.281003957095  0.561595403825  -0.39778449144
0.280166698238  0.573748757042  -0.412890231621
0.279540847243  0.586785990503  -0.390735146022
0.27870149524  0.599160313774  -0.393756294058
0.277864236383  0.611313667  -0.40886203424
0.27681975596  0.623467020217  -0.420946626385
0.275980403957  0.636062313561  -0.425981873112
0.275352459814  0.648878576949  -0.412890231621
0.274513107811  0.66125290023  -0.418932527694
0.273677942102  0.674069163628  -0.40886203424
0.273259312674  0.687327367143  -0.380664652568
0.272631368531  0.700364600595  -0.355488418933
0.271792016528  0.712959893939  -0.359516616314
0.270956850819  0.725113247156  -0.371601208459
0.270328906676  0.738150480607  -0.352467270896
0.269910277248  0.752071594304  -0.297079556898
0.269280239959  0.764887857692  -0.294058408862
0.26844507425  0.777483151036  -0.282980866062
0.268026444821  0.790962324605  -0.247734138973
0.26697987125  0.802894707768  -0.269889224572
0.266354020256  0.815710971166  -0.251762336354
0.265933297681  0.828969174682  -0.223564954683
0.26488672411  0.840459617727  -0.256797583082
0.264047372106  0.853275881115  -0.242698892246
0.263212206398  0.865650204395  -0.255790533736
0.262374947541  0.878024527676  -0.256797583082
0.261747003398  0.89061982102  -0.253776435045
0.260909744543  0.90299414429  -0.253776435045
0.2602818004  0.915810407688  -0.2416918429
0.259444541543  0.928405701033  -0.232628398792
0.258609375834  0.940780024313  -0.243705941591
0.257770023831  0.953596287701  -0.238670694864
0.256932764974  0.965749640928  -0.249748237664
0.256093412971  0.977902994144  -0.257804632427
0.255467561976  0.990940227606  -0.238670694864
0.236419922993  0.997569329359  -0.231621349446
0.237257181851  0.984974036025  -0.231621349446
0.237883032845  0.972157772627  -0.240684793555
0.238931699562  0.960225389464  -0.206445115811
0.23976895842  0.947409126066  -0.214501510574
0.239978273134  0.933929952497  -0.264853977845
0.241024846703  0.92177659927  -0.247734138973
0.24186210556  0.909623246053  -0.229607250755
0.242490049703  0.897027952719  -0.235649546828
0.243327308558  0.884211689321  -0.240684793555
0.244164567415  0.871837366041  -0.234642497482
0.245001826272  0.859904982878  -0.222557905337
0.245422548846  0.846646779362  -0.255790533736
0.246467029269  0.834272456082  -0.240684793555
0.247304288127  0.821677162748  -0.232628398792
0.247932232269  0.809081869403  -0.242698892246
0.24834876855  0.796044635952  -0.2638469285
0.249188120553  0.783670312671  -0.260825780463
0.249606749981  0.770191139102  -0.299093655589
0.250655416699  0.758037785886  -0.283987915408
0.251071952979  0.744558612306  -0.310171198389
0.251490582407  0.73063749862  -0.363544813696
0.252327841265  0.718484145403  -0.341389728097
0.252746470693  0.70478400177  -0.38469284995
0.253581636402  0.692409678489  -0.383685800604
0.254420988405  0.680035355209  -0.374622356495
0.255048932548  0.666998121757  -0.394763343404
0.255467561976  0.653739918242  -0.423967774421
0.256304820831  0.641586565025  -0.412890231621
0.256932764974  0.628991271681  -0.423967774421
0.257770023831  0.616175008283  -0.423967774421
0.258397967974  0.603358744895  -0.434038267875
0.259444541543  0.59186830185  -0.403826787513
0.2602818004  0.579273008505  -0.394763343404
0.261121152403  0.566456745107  -0.403826787513
0.264258779967  0.561374433761  -0.122860020141
0.265305353538  0.549663020662  -0.0886203423968
0.266142612395  0.537288697382  -0.0906344410876
0.267398500679  0.5260192244  -0.0322255790534
0.268235759536  0.51364490112  -0.0281973816717
0.269280239959  0.501712517957  -0.00503524672709
0.269910277248  0.488896254559  -0.00906344410876
0.270747536105  0.476521931278  -0.00402819738167
0.272003424388  0.465252458297  0.0412890231621
0.272422053817  0.451994254781  0.0130916414904
0.273259312674  0.439398961437  0.0110775427996
0.273887256817  0.427024638167  0.00302114803625
0.274513107811  0.414208374769  -0.00302114803625
0.275352459814  0.401392111371  -0.0100704934542
0.275980403957  0.388133907855  -0.0271903323263
0.27681975596  0.375980554639  -0.0191339375629
0.27723629224  0.362501381059  -0.0453172205438
0.278073551097  0.349685117672  -0.0473313192346
0.27870149524  0.337089824327  -0.055387713998
0.279540847243  0.324715501047  -0.0563947633434
0.280585327666  0.313225058001  -0.0130916414904
0.281213271809  0.299745884432  -0.043303121853
0.281841215952  0.286929621034  -0.0493454179255
0.282678474807  0.2743343277  -0.043303121853
0.28330641895  0.261076124185  -0.0654582074522
0.283934363093  0.248259860787  -0.0855991943605
0.284352992521  0.2343387471  -0.114803625378
0.285608880804  0.223290244172  -0.0624370594159
0.286027510233  0.210032040657  -0.091641490433
0.286655454376  0.196773837141  -0.111782477341
0.287490620085  0.184620483924  -0.109768378651
0.285818195519  0.162744448122  -0.39778449144
0.286446139662  0.149486244617  -0.417925478348
0.287285491665  0.13733289139  -0.406847935549
0.288329972088  0.125400508227  -0.368580060423
0.288957916231  0.111921334658  -0.392749244713
0.289585860373  0.0988841012066  -0.411883182276
0.290211711368  0.0862888078622  -0.411883182276
0.291051063371  0.073030604357  -0.423967774421
0.291888322228  0.0606562810765  -0.420946626385
0.292518359517  0.0478400176785  -0.424974823766
0.293353525226  0.0350237542806  -0.419939577039
0.294190784083  0.0224284609465  -0.415911379658
0.29502804294  0.010054137666  -0.416918429003
0.29565598708  -0.00254115567835  -0.42195367573
0.296493245938  -0.015357419066  -0.423967774421
0.29712119008  -0.0283946525279  -0.430010070493
0.297956355789  -0.0412109159259  -0.437059415911
0.298795707792  -0.05380620926  -0.426988922457
0.299423651935  -0.0670644127755  -0.441087613293
0.300051596078  -0.0796597061096  -0.445115810675
0.300888854933  -0.0924759695076  -0.442094662638
0.301935428504  -0.104408352671  -0.424974823766
0.302563372647  -0.117224616069  -0.430010070493
0.303189223641  -0.130703789638  -0.451158106747
0.304028575645  -0.143520053036  -0.451158106747
0.304656519788  -0.156336316434  -0.454179254783
0.305910314925  -0.166942879244  -0.394763343404
0.306331037499  -0.181747873166  -0.456193353474
0.307168296357  -0.1943431665  -0.450151057402
0.308005555214  -0.20671748978  -0.436052366566
0.308633499354  -0.219533753178  -0.447129909366
0.309470758211  -0.232350016576  -0.447129909366
0.310308017068  -0.244503369793  -0.435045317221
0.311143182777  -0.257319633191  -0.438066465257
0.31198253478  -0.269914926525  -0.432024169184
0.312610478923  -0.282731189923  -0.435045317221
0.313449830926  -0.295768423385  -0.443101711984
0.314284996635  -0.308142746655  -0.426988922457
0.315122255492  -0.321179980117  -0.429003021148
0.315750199635  -0.33488012374  -0.450151057402
0.316376050629  -0.348138327255  -0.452165156093
0.317215402633  -0.361175560717  -0.459214501511
0.31805266149  -0.374212794169  -0.458207452165
0.318887827198  -0.386587117449  -0.447129909366
0.319517864487  -0.399624350901  -0.451158106747
0.320355123344  -0.412440614299  -0.450151057402
0.321192382202  -0.424593967515  -0.448136958711
0.321820326342  -0.437852171031  -0.465256797583
0.322657585199  -0.450447464375  -0.464249748238
0.323285529342  -0.463042757709  -0.471299093656
0.323915566631  -0.474754170808  -0.479355488419
0.324541417625  -0.486907524035  -0.491440080564
0.325378676482  -0.499944757487  -0.484390735146
0.32621593534  -0.513423931056  -0.478348439074
0.327053194194  -0.527345044753  -0.488418932528
0.328099767766  -0.539277427905  -0.450151057402
0.328937026623  -0.552535631421  -0.44612286002
0.329774285478  -0.566014805  -0.461228600201
0.33040222962  -0.579273008505  -0.474320241692
0.331030173763  -0.592752182085  -0.489425981873
0.331658117906  -0.606452325708  -0.507552870091
0.332495376761  -0.618826648988  -0.4944612286
0.333332635618  -0.63186388245  -0.504531722054
0.333960579761  -0.645122085955  -0.515609264854
0.334586430755  -0.657496409236  -0.51863041289
0.335635097473  -0.669207822345  -0.4944612286
0.336263041616  -0.683128936032  -0.516616314199
0.337102393619  -0.69594519943  -0.51863041289
0.337728244613  -0.708761462828  -0.522658610272
0.33856550347  -0.722019666333  -0.52970795569
0.339193447613  -0.735498839912  -0.546827794562
0.340030706468  -0.748094133246  -0.545820745217
0.340658650611  -0.760468456527  -0.546827794562
0.341495909468  -0.773505689978  -0.54279959718
0.342335261471  -0.785880013259  -0.528700906344
0.342961112465  -0.799580156892  -0.548841893253
0.344007686037  -0.811954480172  -0.538771399799
0.34463563018  -0.825212683688  -0.546827794562
0.345472889034  -0.837807977022  -0.532729103726
0.346100833177  -0.851508120655  -0.554884189325
0.346938092034  -0.864766324171  -0.56696878147
0.347773257743  -0.876919677387  -0.544813695871
0.348612609746  -0.89061982102  -0.556898288016
0.349449868603  -0.903215114354  -0.551863041289
0.350079905892  -0.916252347806  -0.558912386707
0.350705756887  -0.930173461503  -0.579053373615
0.351752330458  -0.941663904548  -0.549848942598
0.352170959887  -0.956247928406  -0.583081570997
0.353006125595  -0.969064191804  -0.580060422961
0.353845477599  -0.982543365373  -0.590130916415
0.354682736456  -0.995138658717  -0.576032225579
0.347984665603  -0.99823223953  -0.585095669688
0.347147406749  -0.986078886313  -0.589123867069
0.346519462606  -0.972599712744  -0.565961732125
0.345682203749  -0.960667329581  -0.574018126888
0.34484703804  -0.948955916472  -0.593152064451
0.344217000751  -0.93591868302  -0.579053373615
0.343589056608  -0.922439509451  -0.554884189325
0.342751797751  -0.910286156224  -0.554884189325
0.341705224182  -0.899016683243  -0.582074521652
0.341077280039  -0.885537509674  -0.560926485398
0.340449335896  -0.872721246276  -0.555891238671
0.339614170188  -0.860346922995  -0.556898288016
0.338774818185  -0.848193569779  -0.561933534743
0.338146874042  -0.835156336317  -0.546827794562
0.337307522039  -0.822782013036  -0.54279959718
0.336681671044  -0.810186719702  -0.544813695871
0.335844412187  -0.797370456304  -0.536757301108
0.33500715333  -0.785217103088  -0.541792547835
0.334169894475  -0.773063749861  -0.551863041289
0.333332635618  -0.760247486463  -0.545820745217
0.332914006189  -0.746105402723  -0.503524672709
0.332286062047  -0.733289139325  -0.496475327291
0.331239488478  -0.722240636397  -0.524672708963
0.330611544335  -0.708761462828  -0.499496475327
0.329774285478  -0.696829079665  -0.514602215509
0.328937026623  -0.684454756384  -0.520644511581
0.328518397194  -0.670312672634  -0.480362537764
0.327471823623  -0.658822229588  -0.501510574018
0.326636657914  -0.646447906308  -0.506545820745
0.325797305911  -0.634736493209  -0.523665659617
0.325169361768  -0.621036349576  -0.498489425982
0.324332102911  -0.608882996359  -0.5055387714
0.323494844056  -0.596066732961  -0.501510574018
0.323076214628  -0.582145619275  -0.458207452165
0.322448270485  -0.569108385813  -0.445115810675
0.321608918482  -0.556513092479  -0.445115810675
0.320355123344  -0.545906529668  -0.496475327291
0.319517864487  -0.533974146505  -0.509566968781
0.318682698779  -0.521378853171  -0.506545820745
0.31805266149  -0.508120649656  -0.490433031219
0.317424717347  -0.495525356311  -0.484390735146
0.31658745849  -0.48248812286  -0.471299093656
0.315959514349  -0.470113799579  -0.47029204431
0.315122255492  -0.457297536181  -0.458207452165
0.314284996635  -0.445144182965  -0.47029204431
0.313449830926  -0.432548889631  -0.471299093656
0.312819793637  -0.419953596286  -0.467270896274
0.312191849495  -0.406695392771  -0.450151057402
0.311354590637  -0.394321069501  -0.448136958711
0.310517331783  -0.382167716274  -0.460221550856
0.30988938764  -0.369130482822  -0.444108761329
0.309052128783  -0.356093249371  -0.432024169184
0.308216963074  -0.343497956026  -0.436052366566
0.307586925785  -0.330460722575  -0.419939577039
0.306749666928  -0.31786542924  -0.418932527694
0.305910314925  -0.306374986195  -0.444108761329
0.305075149216  -0.294221632968  -0.452165156093
0.304237890359  -0.281626339634  -0.455186304129
0.303400631502  -0.268589106172  -0.441087613293
0.302563372647  -0.256214782902  -0.452165156093
0.30172611379  -0.243840459622  -0.454179254783
0.301098169647  -0.230582256106  -0.434038267875
0.300260910792  -0.218649872943  -0.45720040282
0.299423651935  -0.206054579609  -0.453172205438
0.298795707792  -0.19257540603  -0.423967774421
0.297751227369  -0.180863992931  -0.455186304129
0.296911875366  -0.168710639714  -0.459214501511
0.296283931223  -0.155452436199  -0.442094662638
0.29565598708  -0.142415202737  -0.429003021148
0.294818728226  -0.13026184952  -0.437059415911
0.293981469369  -0.117666556186  -0.435045317221
0.293144210511  -0.105292232906  -0.440080563948
0.292306951657  -0.0929179096251  -0.449144008056
0.2914696928  -0.080322616291  -0.453172205438
0.291051063371  -0.0668434427116  -0.418932527694
0.290211711368  -0.0542481493775  -0.416918429003
0.289376545659  -0.0420947961507  -0.432024169184
0.288539286802  -0.0290575626991  -0.417925478348
0.287911342659  -0.0162412993011  -0.413897280967
0.28686476909  -0.00452988620208  -0.439073514602
0.286027510233  0.008065407132  -0.437059415911
0.28539956609  0.02088167053  -0.429003021148
0.284562307235  0.033697933928  -0.418932527694
0.283725048378  0.0460722572084  -0.429003021148
0.283097104235  0.0586675505425  -0.424974823766
0.282257752232  0.071041873823  -0.424974823766
0.281631901238  0.0840791072849  -0.40886203424
0.280794642381  0.096674400619  -0.409869083585
0.279957383524  0.109711634071  -0.400805639476
0.279120124669  0.121864987297  -0.415911379658
0.278910809955  0.136228041102  -0.357502517623
0.279957383524  0.156336316434  -0.123867069486
0.279540847243  0.169815490003  -0.0936555891239
0.27870149524  0.181747873166  -0.105740181269
0.278073551097  0.194785106617  -0.0886203423968
0.277445606955  0.207822340069  -0.0715005035247
0.2766083481  0.220417633413  -0.0594159113797
0.275561774528  0.232350016576  -0.0835850956697
0.274724515671  0.244282399739  -0.102719033233
0.274096571531  0.257540603244  -0.0815709969789
0.273468627388  0.270356866642  -0.0644511581067
0.272840683245  0.28317313004  -0.055387713998
0.272212739102  0.296652303609  -0.0322255790534
0.271375480248  0.308805656836  -0.0372608257805
0.27053822139  0.321621920234  -0.0271903323263
0.269491647819  0.33311236328  -0.0594159113797
0.269280239959  0.34725444702  -0.00604229607251
0.268235759536  0.359186830183  -0.0302114803625
0.267817130107  0.372886973816  0.0110775427996
0.26697987125  0.385261297096  0.00704934541793
0.265933297681  0.396972710195  -0.0211480362538
0.265514668252  0.410893823892  0.0281973816717
0.264677409395  0.423047177109  0.0110775427996
0.263842243687  0.435642470443  0.0181268882175
0.263212206398  0.448679703905  0.0372608257805
0.262374947541  0.461054027175  0.0322255790534
0.261747003398  0.473649320519  0.0412890231621
0.260909744543  0.4860236438  0.0402819738167
0.259863170972  0.497293116781  -0.00302114803625
0.258814504254  0.509446470008  -0.02416918429
0.25818865326  0.522262733396  -0.0151057401813
0.256932764974  0.533311236324  -0.055387713998
0.255888284551  0.544801679369  -0.091641490433
0.254839617834  0.556734062532  -0.115810674723
0.251909211836  0.563142194231  -0.348439073515
0.251071952979  0.575295547458  -0.358509566969
0.25002537941  0.586785990503  -0.400805639476
0.248978805838  0.599160313774  -0.411883182276
0.24814364013  0.611313667  -0.426988922457
0.247304288127  0.623687990281  -0.430010070493
0.246676343984  0.636504253679  -0.420946626385
0.245839085127  0.648878576949  -0.424974823766
0.245211140986  0.661915810411  -0.405840886203
0.244583196843  0.674953043863  -0.38469284995
0.2439552527  0.688211247378  -0.354481369587
0.243115900697  0.700364600595  -0.377643504532
0.242280734989  0.712738923875  -0.378650553877
0.241652790846  0.725776157337  -0.353474320242
0.241443476131  0.739918241077  -0.297079556898
0.240394809414  0.752071594304  -0.317220543807
0.239559643705  0.764445917585  -0.322255790534
0.239141014277  0.777925091154  -0.280966767372
0.238513070134  0.790962324605  -0.26586102719
0.237677904425  0.803778588003  -0.257804632427
0.236838552422  0.81593194122  -0.262839879154
0.236419922993  0.828969174682  -0.237663645519
0.235791978851  0.842006408133  -0.207452165156
0.235161941562  0.854822671531  -0.192346424975
0.234326775853  0.867196994812  -0.208459214502
0.233489516996  0.879792288146  -0.208459214502
0.232445036573  0.891282731191  -0.244712990937
0.231814999284  0.904319964643  -0.220543806647
0.230768425713  0.916252347806  -0.245720040282
0.229929073709  0.92884764115  -0.247734138973
0.229303222715  0.941663904538  -0.227593152064
0.228256649144  0.953817257765  -0.250755287009
0.227628705001  0.966191581045  -0.247734138973
0.22700076086  0.979228814497  -0.229607250755
0.226163502003  0.992045077895  -0.222557905337
0.207743807163  0.988067616837  -0.234642497482
0.208371751306  0.975251353439  -0.249748237664
0.2089976023  0.962656060105  -0.256797583082
0.209836954303  0.950723676942  -0.2416918429
0.21067421316  0.938128383608  -0.244712990937
0.211513565164  0.925533090264  -0.240684793555
0.212348730872  0.913379737047  -0.219536757301
0.212976675015  0.900342503595  -0.242698892246
0.213813933872  0.887968180315  -0.238670694864
0.214860507441  0.876256767206  -0.198388721047
0.215488451584  0.863440503818  -0.208459214502
0.215907081013  0.850403270356  -0.242698892246
0.216746433016  0.837587006958  -0.244712990937
0.21737228401  0.82477074357  -0.258811681772
0.218209542867  0.81239642029  -0.2527693857
0.219046801725  0.800243067063  -0.239677744209
0.219674745865  0.787205833611  -0.262839879154
0.219884060579  0.773505689978  -0.307150050352
0.220721319436  0.761131366698  -0.298086606244
0.221139948865  0.747873163193  -0.335347432024
0.221979300868  0.735056899795  -0.345417925478
0.222605151863  0.722240636397  -0.343403826788
0.223233096005  0.708982432881  -0.372608257805
0.223651725434  0.695282289248  -0.416918429003
0.224279669577  0.683128936032  -0.409869083585
0.225116928432  0.670533642698  -0.412890231621
0.225744872574  0.657496409236  -0.427995971803
0.226582131432  0.645122085955  -0.42195367573
0.22741729714  0.632526792621  -0.414904330312
0.228256649144  0.620152469341  -0.406847935549
0.228884593286  0.607115235889  -0.418932527694
0.22972394529  0.594740912609  -0.407854984894
0.230768425713  0.583250469563  -0.376636455186
0.231396369855  0.570213236112  -0.391742195368
0.234745405282  0.565351894819  -0.105740181269
0.235582664136  0.553419511656  -0.0886203423968
0.236419922993  0.540382278204  -0.0966767371601
0.237677904425  0.529996685448  -0.0251762336355
0.23830375542  0.516959451996  -0.0473313192346
0.239141014277  0.504585128715  -0.0292044310171
0.239978273134  0.492431775499  -0.0292044310171
0.241234161417  0.481383272571  0.0281973816717
0.242280734989  0.469892829526  0.0664652567976
0.243115900697  0.457518506245  0.0624370594159
0.243745937986  0.44426030273  0.0443101711984
0.244373882129  0.431223069278  0.0322255790534
0.245422548846  0.419511656169  0.0634441087613
0.246257714555  0.407579273006  0.0866062437059
0.246885658698  0.394100099437  0.0493454179255
0.247304288127  0.380620925868  0.0221550855992
0.247932232269  0.367583692406  0.0100704934542
0.249188120553  0.356314219424  0.0503524672709
0.249606749981  0.342835045855  0.0292044310171
0.250234694124  0.330018782457  0.00906344410876
0.250655416699  0.316539608888  -0.02416918429
0.251909211836  0.305270135896  0.02416918429
0.252537155979  0.292011932381  -2.88657986403e-15
0.252955785407  0.278753728865  -0.0221550855992
0.253793044262  0.266158435531  -0.0201409869084
0.254420988405  0.253342172133  -0.0352467270896
0.255048932548  0.240304938681  -0.0533736153072
0.256093412971  0.228372555518  -0.0261832829809
0.25672345026  0.215777262184  -0.0281973816717
0.257351394403  0.202519058669  -0.0493454179255
0.257979338545  0.189260855153  -0.0715005035247
0.258814504254  0.177107501937  -0.0624370594159
0.259444541543  0.163628328357  -0.0815709969789
0.2602818004  0.151474975141  -0.0654582074522
0.260909744543  0.137995801572  -0.0936555891239
0.261537688683  0.125179538174  -0.0946626384693
0.262584262255  0.113689095128  -0.0584088620342
0.263212206398  0.0999889514953  -0.0956696878147
0.263842243687  0.0871726880973  -0.100704934542
0.264468094681  0.0741354546457  -0.118831822759
0.262793576969  0.0522594188435  -0.401812688822
0.263421521112  0.0387802452744  -0.422960725076
0.264047372106  0.0261849519403  -0.422960725076
0.26488672411  0.0133686885423  -0.429003021148
0.265723982967  0.00121533532577  -0.416918429003
0.266559148675  -0.0116009280722  -0.420946626385
0.267189185964  -0.0246381615341  -0.427995971803
0.268026444821  -0.0374544249218  -0.425981873112
0.268654388964  -0.0502706883198  -0.438066465257
0.269700962533  -0.0622030714827  -0.407854984894
0.270328906676  -0.0754612749982  -0.418932527694
0.271166165533  -0.0882775383962  -0.424974823766
0.271792016528  -0.101314771848  -0.432024169184
0.272631368531  -0.113910065182  -0.429003021148
0.273259312674  -0.126947298644  -0.440080563948
0.274096571531  -0.139542591978  -0.440080563948
0.274933830386  -0.151916915258  -0.427995971803
0.275561774528  -0.165617058891  -0.451158106747
0.276189718671  -0.177991382172  -0.450151057402
0.27723629224  -0.189481825217  -0.419939577039
0.278073551097  -0.202519058669  -0.426988922457
0.27870149524  -0.215998232238  -0.447129909366
0.279540847243  -0.228372555518  -0.435045317221
0.280376012952  -0.240967848853  -0.429003021148
0.281213271809  -0.253342172133  -0.420946626385
0.281841215952  -0.266158435531  -0.423967774421
0.282887789521  -0.278532758811  -0.409869083585
0.283515733664  -0.291128052146  -0.410876132931
0.284352992521  -0.303944315544  -0.409869083585
0.284978843516  -0.317202519059  -0.424974823766
0.285818195519  -0.329797812393  -0.419939577039
0.286446139662  -0.342835045855  -0.429003021148
0.287074083804  -0.356314219424  -0.447129909366
0.288120657373  -0.368246602587  -0.430010070493
0.288748601516  -0.381725776156  -0.444108761329
0.289376545659  -0.394763009618  -0.447129909366
0.290211711368  -0.408021213123  -0.45720040282
0.291051063371  -0.420616506468  -0.450151057402
0.291679007514  -0.433874709983  -0.466263846929
0.292518359517  -0.4460280632  -0.453172205438
0.293144210511  -0.459065296651  -0.460221550856
0.293772154654  -0.472986410338  -0.487411883182
0.294818728226  -0.48425588333  -0.453172205438
0.29565598708  -0.496851176664  -0.449144008056
0.296283931223  -0.510330350243  -0.47029204431
0.296702560652  -0.524693404048  -0.507552870091
0.297539819509  -0.536846757264  -0.490433031219
0.298586393078  -0.548558170373  -0.469284994965
0.299214337221  -0.562258313996  -0.48136958711
0.300051596078  -0.575074577394  -0.48136958711
0.300677447072  -0.588111810856  -0.491440080564
0.301516799076  -0.60070710419  -0.482376636455
0.302354057933  -0.613965307706  -0.490433031219
0.303189223641  -0.625897690869  -0.474320241692
0.30381926093  -0.639818804555  -0.500503524673
0.304656519788  -0.652414097889  -0.496475327291
0.305493778645  -0.66478842117  -0.490433031219
0.306121722785  -0.678046624685  -0.502517623364
0.306958981642  -0.690641918019  -0.496475327291
0.307586925785  -0.704342061652  -0.510574018127
0.308216963074  -0.717600265168  -0.519637462236
0.308842814068  -0.731300408801  -0.54279959718
0.310098702354  -0.742127941665  -0.489425981873
0.310726646497  -0.75538614518  -0.499496475327
0.311563905352  -0.768202408578  -0.501510574018
0.31198253478  -0.782344492319  -0.534743202417
0.313029108352  -0.794718815599  -0.523665659617
0.313654959346  -0.807535078997  -0.520644511581
0.314284996635  -0.821456192684  -0.543806646526
0.315122255492  -0.834493426146  -0.549848942598
0.315750199635  -0.848193569779  -0.56696878147
0.31658745849  -0.860567893049  -0.548841893253
0.317215402633  -0.874047066628  -0.572004028197
0.31805266149  -0.88708430008  -0.574018126888
0.318887827198  -0.900121533532  -0.570996978852
0.319517864487  -0.913379737047  -0.580060422961
0.320564438059  -0.924870180092  -0.550855991944
0.320983067487  -0.939454203961  -0.59113796576
0.321820326342  -0.952270467359  -0.592145015106
0.322657585199  -0.965528670864  -0.594159113797
0.323285529342  -0.978565904326  -0.598187311178
0.324332102911  -0.990498287489  -0.573011077543
0.317006087918  -0.990940227606  -0.601208459215
0.31617092221  -0.978565904326  -0.603222557905
0.315331570206  -0.965970610981  -0.601208459215
0.314703626064  -0.953375317647  -0.597180261833
0.313866367206  -0.940559054249  -0.589123867069
0.313238423066  -0.927742790851  -0.582074521652
0.312401164209  -0.914926527453  -0.577039274924
0.311773220066  -0.901889294002  -0.564954682779
0.310938054357  -0.889956910839  -0.572004028197
0.310098702354  -0.877582587558  -0.574018126888
0.309680072926  -0.863440503818  -0.533736153071
0.308842814068  -0.851508120655  -0.547834843907
0.308005555214  -0.839575737492  -0.555891238671
0.307377611071  -0.82653850403  -0.543806646526
0.306540352214  -0.813280300525  -0.528700906344
0.305493778645  -0.80178985748  -0.557905337362
0.305075149216  -0.7883106839  -0.533736153071
0.304028575645  -0.776599270801  -0.552870090634
0.303400631502  -0.76356203735  -0.539778449144
0.302563372647  -0.750524803888  -0.530715005035
0.30172611379  -0.738150480607  -0.537764350453
0.301307484361  -0.724450336984  -0.508559919436
0.300260910792  -0.713180863993  -0.533736153071
0.299632966649  -0.69948072036  -0.510574018127
0.299005022507  -0.68600154679  -0.483383685801
0.298377078364  -0.673406253456  -0.488418932528
0.297330504795  -0.662357750528  -0.520644511581
0.296702560652  -0.649099547013  -0.502517623364
0.295865301795  -0.636504253679  -0.498489425982
0.29502804294  -0.623908960335  -0.498489425982
0.294400098797  -0.611092696937  -0.487411883182
0.293353525226  -0.599602253901  -0.513595166163
0.292723487937  -0.586123080322  -0.491440080564
0.292097636942  -0.573306816924  -0.488418932528
0.291260378085  -0.560048613419  -0.473313192346
0.290423119228  -0.548558170373  -0.498489425982
0.289795175088  -0.535078996794  -0.480362537764
0.288957916231  -0.522262733406  -0.476334340383
0.288329972088  -0.509004529891  -0.460221550856
0.287285491665  -0.49663020661  -0.471299093656
0.286446139662  -0.485139763565  -0.491440080564
0.285818195519  -0.471218649878  -0.459214501511
0.284978843516  -0.459065296651  -0.473313192346
0.284352992521  -0.446470003317  -0.468277945619
0.283515733664  -0.433432769866  -0.460221550856
0.282887789521  -0.42017456635  -0.438066465257
0.282052623812  -0.40780024307  -0.445115810675
0.281422586524  -0.394983979672  -0.441087613293
0.280376012952  -0.383051596509  -0.458207452165
0.279745975663  -0.370235333111  -0.452165156093
0.27870149524  -0.35786100983  -0.460221550856
0.278073551097  -0.344602806325  -0.444108761329
0.277445606955  -0.332228483045  -0.442094662638
0.2766083481  -0.319191249583  -0.437059415911
0.275771089243  -0.306374986195  -0.437059415911
0.2751431451  -0.293337752733  -0.424974823766
0.274096571531  -0.281847309688  -0.453172205438
0.273677942102  -0.268147166065  -0.419939577039
0.272840683245  -0.255772842785  -0.426988922457
0.271792016528  -0.243619489558  -0.440080563948
0.271166165533  -0.23080322616  -0.430010070493
0.270328906676  -0.218649872943  -0.442094662638
0.269280239959  -0.206275549663  -0.451158106747
0.268654388964  -0.193017346147  -0.43303121853
0.267817130107  -0.181084962984  -0.453172205438
0.26697987125  -0.167826759479  -0.441087613293
0.266354020256  -0.155231466135  -0.44612286002
0.265723982967  -0.141973262619  -0.42195367573
0.26488672411  -0.129156999231  -0.416918429003
0.264047372106  -0.117224616069  -0.434038267875
0.263212206398  -0.104187382607  -0.429003021148
0.262584262255  -0.0909291791014  -0.412890231621
0.261747003398  -0.078333885757  -0.412890231621
0.261121152403  -0.065517622359  -0.400805639476
0.260072485686  -0.0535852391961  -0.420946626385
0.259235226829  -0.0407689758084  -0.420946626385
0.258609375834  -0.0275107722929  -0.409869083585
0.257979338545  -0.014473538831  -0.393756294058
0.256932764974  -0.00298309579588  -0.427995971803
0.256304820831  0.0104960777835  -0.399798590131
0.255467561976  0.0224284609465  -0.416918429003
0.257560709117  0.0462932272723  -0.0805639476334
0.256932764974  0.0595514307776  -0.0563947633434
0.256093412971  0.0721467241219  -0.0584088620342
0.255048932548  0.0834161971034  -0.0976837865055
0.254002358976  0.0955695503303  -0.109768378651
0.253376507982  0.108827753836  -0.0936555891239
0.252537155979  0.121644017233  -0.0946626384693
0.251909211836  0.134018340514  -0.0886203423968
0.251071952979  0.146834603912  -0.0835850956697
0.250444008838  0.160313777481  -0.0604229607251
0.249606749981  0.17202519059  -0.0815709969789
0.249188120553  0.185946304277  -0.0392749244713
0.24856017641  0.199204507793  -0.0161127895267
0.247722917555  0.211357861009  -0.0292044310171
0.247094973412  0.224616064525  -0.00302114803625
0.246257714555  0.237211357859  -0.0110775427996
0.245627677266  0.250027621257  0.00302114803625
0.244583196843  0.261297094248  -0.0332326283988
0.2439552527  0.274555297754  -0.0130916414904
0.243327308558  0.288034471333  0.0151057401813
0.242490049703  0.30018782455  -0.00201409869084
0.241652790846  0.313446028065  0.0060422960725
0.241234161417  0.327146171698  0.0483383685801
0.240606217274  0.34018340515  0.067472306143
0.239978273134  0.353220638601  0.0835850956697
0.238931699562  0.365153021764  0.055387713998
0.237883032845  0.37664346481  0.0281973816717
0.237257181851  0.389680698261  0.0463242698892
0.236629237708  0.402717931723  0.0604229607251
0.235791978851  0.414429344822  0.0412890231621
0.234745405282  0.426582698049  0.0271903323263
0.233908146424  0.438957021319  0.0231621349446
0.233070887567  0.4513313446  0.0211480362538
0.232233628713  0.463484697827  0.00402819738167
0.231396369855  0.476300961225  0.0100704934542
0.230768425713  0.489117224612  0.0151057401813
0.22972394529  0.501049607775  -0.00302114803625
0.229093908001  0.51364490112  -0.00302114803625
0.227628705001  0.524693404048  -0.0574018126888
0.22700076086  0.537288697382  -0.055387713998
0.225954187289  0.549221080545  -0.0866062437059
0.225116928432  0.561816373879  -0.0936555891239
0.223861040148  0.57308584687  -0.136958710977
0.220721319436  0.578831068388  -0.389728096677
0.219884060579  0.590763451551  -0.412890231621
0.219046801725  0.603358744895  -0.417925478348
0.218209542867  0.616175008283  -0.411883182276
0.217581598725  0.628991271681  -0.402819738167
0.216746433016  0.641586565025  -0.396777442095
0.215907081013  0.654181858359  -0.406847935549
0.215069822156  0.666114241522  -0.42195367573
0.214441878013  0.679593415091  -0.392749244713
0.213813933872  0.692630648553  -0.382678751259
0.213185989729  0.705888852059  -0.357502517623
0.212139416158  0.717600265168  -0.387713997986
0.211513565164  0.731079438737  -0.364551863041
0.211092842589  0.744558612306  -0.324269889225
0.210464898446  0.757595845768  -0.316213494461
0.209418324875  0.769749198985  -0.331319234642
0.20920901016  0.783449342618  -0.278952668681
0.20858106602  0.796265606016  -0.266868076536
0.207743807163  0.808639929296  -0.271903323263
0.20711586302  0.821677162748  -0.248741188318
0.206485825731  0.834493426146  -0.238670694864
0.205441345308  0.846646779362  -0.256797583082
0.204813401165  0.85946304276  -0.246727089627
0.203976142308  0.872058336094  -0.248741188318
0.203138883453  0.884653629439  -0.245720040282
0.202720254025  0.898132803008  -0.207452165156
0.202092309882  0.910949066406  -0.191339375629
0.201252957879  0.92354435974  -0.196374622356
0.199999162742  0.934371892614  -0.251762336354
0.199580533313  0.947851066183  -0.215508559919
0.198531866596  0.9600044194  -0.232628398792
0.197696700887  0.97237874268  -0.247734138973
0.197068756744  0.985195006078  -0.230614300101
0.196020090027  0.997348359295  -0.253776435045
0.178021117761  0.990056347371  -0.2527693857
0.179277006047  0.978565904326  -0.197381671702
0.18011635805  0.965970610981  -0.194360523666
0.18053289433  0.952712407466  -0.234642497482
0.180951523759  0.939896144078  -0.250755287009
0.181788782616  0.927742790851  -0.2416918429
0.182628134619  0.914926527453  -0.243705941591
0.183463300328  0.902552204183  -0.234642497482
0.184300559185  0.890177880903  -0.233635448137
0.184928503328  0.877582587558  -0.236656596173
0.185554354322  0.864987294224  -0.246727089627
0.186603021039  0.853054911061  -0.219536757301
0.187230965182  0.840238647663  -0.227593152064
0.187861002471  0.827201414212  -0.245720040282
0.18869616818  0.814827090931  -0.235649546828
0.189324112323  0.801568887416  -0.26586102719
0.189742741751  0.7883106839  -0.295065458207
0.190370685894  0.775494420512  -0.30110775428
0.191207944749  0.762899127168  -0.309164149043
0.191626574177  0.749861893716  -0.33635448137
0.192045203606  0.736382720147  -0.368580060423
0.192673147749  0.723566456749  -0.378650553877
0.193298998743  0.710750193351  -0.393756294058
0.194138350746  0.698154900017  -0.393756294058
0.194766294889  0.685117666555  -0.416918429003
0.195394239032  0.672301403157  -0.418932527694
0.196440812601  0.660589990058  -0.38670694864
0.197278071458  0.648215666778  -0.382678751259
0.197696700887  0.634515523145  -0.417925478348
0.198531866596  0.622141199864  -0.40886203424
0.199161903884  0.609324936477  -0.418932527694
0.199999162742  0.596729643132  -0.422960725076
0.200836421599  0.584797259969  -0.407854984894
0.201673680453  0.572422936689  -0.391742195368
0.205232030594  0.56778256546  -0.0926485397784
0.206069289451  0.555850182297  -0.0715005035247
0.206697233591  0.542812948846  -0.0926485397784
0.207953121877  0.531543475864  -0.0453172205438
0.20858106602  0.519169152584  -0.0422960725076
0.209627639589  0.507457739474  -0.012084592145
0.210046269018  0.493536625788  -0.0493454179255
0.211092842589  0.481383272571  -0.031218529708
0.212139416158  0.470113799579  0.0100704934542
0.213185989729  0.45840238648  0.0382678751259
0.214025341733  0.445807093136  0.0352467270896
0.214651192727  0.433432769855  0.036253776435
0.215488451584  0.421279416639  0.0372608257805
0.216116395727  0.408242183187  0.0322255790534
0.216746433016  0.395425919789  0.0221550855992
0.21737228401  0.382167716274  -2.88657986403e-15
0.218209542867  0.370014363057  0.012084592145
0.219046801725  0.357640039777  0.0171198388721
0.220093375294  0.345707656614  0.0473313192346
0.220930634151  0.33311236328  0.0503524672709
0.221558578294  0.320296099882  0.036253776435
0.222184429288  0.30725886642  0.0221550855992
0.223023781291  0.29488454315  0.0281973816717
0.223861040148  0.282510219869  0.0372608257805
0.224696205857  0.270577836706  0.0574018126888
0.225116928432  0.256435752956  0.00906344410876
0.225954187289  0.244282399739  0.0130916414904
0.226582131432  0.231687106395  0.0130916414904
0.22741729714  0.219091813061  0.0130916414904
0.228047334429  0.206275549663  0.00100704934542
0.228675278572  0.193238316211  -0.012084592145
0.229512537429  0.181084962984  0.00402819738167
0.23014048157  0.168047729533  -0.012084592145
0.230977740427  0.155894376316  -2.88657986403e-15
0.231396369855  0.142194232683  -0.0412890231621
0.232233628713  0.129156999231  -0.0463242698892
0.232861572853  0.115898795716  -0.0634441087613
0.23369883171  0.103745442489  -0.0574018126888
0.234326775853  0.091150149155  -0.0574018126888
0.235161941562  0.0787758258746  -0.0453172205438
0.235791978851  0.0650756822415  -0.079556898288
0.236838552422  0.0531432990786  -0.0503524672709
0.237047867136  0.0390012153383  -0.0946626384693
0.237883032845  0.0261849519403  -0.102719033233
0.238722384848  0.0140315987135  -0.0855991943605
0.23976895842  0.00209921556082  -0.0664652567976
0.240394809414  -0.0104960777835  -0.0684793554884
0.241024846703  -0.0239752513527  -0.0896273917422
0.238931699562  -0.0476190476146  -0.412890231621
0.23976895842  -0.0606562810765  -0.42195367573
0.240394809414  -0.0732515744106  -0.422960725076
0.241234161417  -0.0860678378086  -0.427995971803
0.242071420274  -0.0982211910252  -0.404833836858
0.242910772277  -0.11081648437  -0.405840886203
0.243536623272  -0.124074687885  -0.425981873112
0.244373882129  -0.136890951273  -0.425981873112
0.245001826272  -0.149707214671  -0.427995971803
0.246048399841  -0.16141862778  -0.404833836858
0.246467029269  -0.175339741467  -0.431017119839
0.247304288127  -0.187714064747  -0.424974823766
0.247932232269  -0.200972268263  -0.435045317221
0.248769491124  -0.213346591533  -0.430010070493
0.249816064696  -0.225058004642  -0.40886203424
0.250234694124  -0.238979118329  -0.440080563948
0.251071952979  -0.251353441609  -0.430010070493
0.25211852655  -0.263506794826  -0.413897280967
0.252537155979  -0.277206938459  -0.439073514602
0.253581636402  -0.288918351568  -0.409869083585
0.254211673691  -0.302176555073  -0.420946626385
0.255048932548  -0.314992818471  -0.418932527694
0.255676876691  -0.328471992051  -0.435045317221
0.25672345026  -0.340625345267  -0.420946626385
0.257351394403  -0.353220638601  -0.417925478348
0.257979338545  -0.366699812181  -0.434038267875
0.258814504254  -0.379958015686  -0.44612286002
0.259653856257  -0.39255330903  -0.441087613293
0.260072485686  -0.405811512546  -0.465256797583
0.261121152403  -0.417743895699  -0.438066465257
0.261747003398  -0.431002099214  -0.449144008056
0.262793576969  -0.443155452441  -0.43303121853
0.263212206398  -0.456855596064  -0.455186304129
0.264047372106  -0.470113799579  -0.466263846929
0.26488672411  -0.482267152806  -0.453172205438
0.265514668252  -0.495967296429  -0.472306143001
0.266354020256  -0.508562589773  -0.465256797583
0.26697987125  -0.521378853171  -0.47029204431
0.267817130107  -0.534195116559  -0.469284994965
0.268654388964  -0.546790409903  -0.464249748238
0.269280239959  -0.56071152359  -0.489425981873
0.270328906676  -0.571980996582  -0.450151057402
0.270956850819  -0.585460170151  -0.469284994965
0.271586888108  -0.598497403602  -0.474320241692
0.272422053817  -0.611092696937  -0.47029204431
0.273049997959  -0.623908960335  -0.479355488419
0.273677942102  -0.637830074031  -0.502517623364
0.274724515671  -0.650204397302  -0.487411883182
0.275561774528  -0.661694840347  -0.456193353474
0.275980403957  -0.676499834279  -0.502517623364
0.27681975596  -0.689316097667  -0.502517623364
0.277445606955  -0.7030162413  -0.527693856999
0.278282865812  -0.715832504698  -0.522658610272
0.279120124669  -0.728206827978  -0.516616314199
0.280585327666  -0.737487570436  -0.424974823766
0.280794642381  -0.753176444593  -0.490433031219
0.281841215952  -0.764887857702  -0.468277945619
0.282052623812  -0.780134791741  -0.523665659617
0.282887789521  -0.792730085075  -0.519637462236
0.283934363093  -0.804662468238  -0.500503524673
0.284352992521  -0.818583581925  -0.525679758308
0.284978843516  -0.832725665676  -0.556898288016
0.285818195519  -0.844437078775  -0.530715005035
0.286446139662  -0.858800132589  -0.561933534743
0.287285491665  -0.870953485806  -0.544813695871
0.287911342659  -0.884432659375  -0.562940584089
0.288748601516  -0.898353773061  -0.580060422961
0.289376545659  -0.911611976577  -0.587109768379
0.290423119228  -0.923323389686  -0.564954682779
0.291051063371  -0.936802563255  -0.574018126888
0.291679007514  -0.950060766771  -0.582074521652
0.292518359517  -0.962656060105  -0.574018126888
0.293353525226  -0.976356203738  -0.59113796576
0.293981469369  -0.989835377307  -0.604229607251
0.287285491665  -0.995138658717  -0.601208459215
0.286446139662  -0.982764335437  -0.604229607251
0.286027510233  -0.969064191804  -0.572004028197
0.285190251376  -0.957352778705  -0.586102719033
0.284352992521  -0.945199425478  -0.593152064451
0.283725048378  -0.931720251909  -0.567975830816
0.282887789521  -0.92000883881  -0.581067472306
0.282257752232  -0.906529665231  -0.555891238671
0.281422586524  -0.894376312014  -0.561933534743
0.280585327666  -0.882222958787  -0.570996978852
0.279745975663  -0.869848635517  -0.570996978852
0.279120124669  -0.857032372119  -0.562940584089
0.278282865812  -0.844216108721  -0.555891238671
0.277654921669  -0.831841785441  -0.556898288016
0.27681975596  -0.818804551989  -0.544813695871
0.276399033386  -0.805546348473  -0.523665659617
0.275561774528  -0.793392995247  -0.526686807654
0.274724515671  -0.78123964203  -0.532729103726
0.282052623812  -0.726660037572  0.476334340383
0.273259312674  -0.755607115234  -0.517623363545
0.272631368531  -0.741906971611  -0.492447129909
0.271792016528  -0.729753618384  -0.495468277946
0.270956850819  -0.717821235222  -0.506545820745
0.270119591962  -0.705667882005  -0.515609264854
0.269491647819  -0.692851618607  -0.503524672709
0.268863703679  -0.680256325273  -0.496475327291
0.268026444821  -0.667882001992  -0.500503524673
0.267189185964  -0.655507678712  -0.5055387714
0.266354020256  -0.642912385378  -0.502517623364
0.265514668252  -0.630538062097  -0.504531722054
0.265096038824  -0.616395978347  -0.465256797583
0.264258779967  -0.604021655066  -0.467270896274
0.263421521112  -0.59186830185  -0.472306143001
0.262793576969  -0.579273008505  -0.473313192346
0.261956318112  -0.567119655289  -0.477341389728
0.261121152403  -0.553861451773  -0.468277945619
0.2602818004  -0.541708098557  -0.480362537764
0.259653856257  -0.528891835159  -0.47029204431
0.259025912114  -0.516075571761  -0.451158106747
0.25818865326  -0.503922218544  -0.459214501511
0.257351394403  -0.4913269252  -0.456193353474
0.256932764974  -0.477626781577  -0.430010070493
0.255888284551  -0.465694398414  -0.447129909366
0.255048932548  -0.453541045187  -0.455186304129
0.254420988405  -0.440724781789  -0.44612286002
0.253581636402  -0.428571428573  -0.455186304129
0.252955785407  -0.415313225057  -0.438066465257
0.25211852655  -0.402938901777  -0.443101711984
0.251071952979  -0.39078554856  -0.454179254783
0.250655416699  -0.377085404927  -0.425981873112
0.249816064696  -0.364490111593  -0.426988922457
0.248978805838  -0.352336758366  -0.432024169184
0.24814364013  -0.34018340515  -0.438066465257
0.247304288127  -0.327588111816  -0.437059415911
0.246676343984  -0.315213788535  -0.437059415911
0.245839085127  -0.302839465255  -0.444108761329
0.245211140986  -0.289139321622  -0.417925478348
0.244373882129  -0.276764998341  -0.420946626385
0.243536623272  -0.264832615178  -0.436052366566
0.242699364417  -0.252679261962  -0.44612286002
0.24186210556  -0.240083968628  -0.447129909366
0.241234161417  -0.22726770523  -0.438066465257
0.240606217274  -0.21378853165  -0.407854984894
0.239559643705  -0.202298088605  -0.437059415911
0.238722384848  -0.189702795271  -0.437059415911
0.238094440705  -0.176665561819  -0.422960725076
0.237677904425  -0.16318638825  -0.396777442095
0.236629237708  -0.151033035023  -0.409869083585
0.235791978851  -0.138658711743  -0.416918429003
0.234956813142  -0.126284388462  -0.417925478348
0.234117461139  -0.114131035246  -0.425981873112
0.23369883171  -0.100430891613  -0.393756294058
0.232650164993  -0.0887194785138  -0.415911379658
0.232233628713  -0.0754612749982  -0.390735146022
0.233908146424  -0.052922329025  -0.098690835851
0.232861572853  -0.0405480057445  -0.111782477341
0.232233628713  -0.0277317423465  -0.101711983887
0.231396369855  -0.0151364490124  -0.0996978851964
0.230977740427  -0.0016572754433  -0.0704934541793
0.23014048157  0.0107170478372  -0.0755287009063
0.229303222715  0.0226494310001  -0.0896273917422
0.228675278572  0.0359076345156  -0.0654582074522
0.227838019715  0.0487238979136  -0.0664652567976
0.227212168721  0.0608772511302  -0.0664652567976
0.226372816717  0.0732515744106  -0.0654582074522
0.22553555786  0.0858468677447  -0.0634441087613
0.225326243146  0.0997679814416  -0.0140986908359
