# .PCD v.7 - Point Cloud Data file format
VERSION .7
FIELDS x y z
SIZE 4 4 4
TYPE F F F
COUNT 1 1 1
WIDTH 321
HEIGHT 1
VIEWPOINT 0 0 0 1 0 0 0
POINTS 321
DATA ascii
0.8806523 0.6422514 -0.9495496
0.8376127 0.7625289 -0.9351351
0.722415 0.4834233 -0.9243243
0.7612769 -0.03161141 -0.9027027
0.8043026 0.4094063 -0.9099099
0.8195559 0.5867386 -0.9027027
0.5600278 0.8550501 -0.9063063
0.8029146 -0.1595991 -0.8954955
0.870923 0.5543562 -0.8990991
0.7293546 0.5744025 -0.8918919
0.8278973 0.6761758 -0.8918919
0.7460236 0.7501928 -0.8954955
0.908397 -0.5451041 -0.8810811
0.7696044 -0.5050116 -0.8810811
0.7945871 0.3230532 -0.8810811
0.6655101 0.4849653 -0.8882883
0.8112561 0.4988435 -0.8810811
0.5503123 0.767155 -0.8810811
0.4101318 0.7764071 -0.8882883
0.7515475 -0.6869699 -0.8738739
0.9000694 -0.6329992 -0.8774775
0.4268008 -0.5620663 -0.8702703
0.8181679 0.02544333 -0.8702703
0.8431783 0.2906708 -0.8702703
0.944483 0.4016962 -0.8774775
0.8612075 0.4664611 -0.8702703
0.5336711 0.5898226 -0.8702703
0.5419708 0.6792598 -0.8774775
0.5572519 -0.6638396 -0.8666667
0.6779875 0.04394757 -0.8666667
0.8514782 0.3785659 -0.8666667
0.7362943 0.6638396 -0.863063
-0.314365 0.7486507 -0.8666667
0.4628869 0.7856592 -0.863063
0.7529355 0.8411719 -0.8666667
0.1339348 -0.6283731 -0.8522522
0.7918112 -0.2490362 -0.8558559
0.8848161 -0.2197379 -0.8594595
0.8931159 -0.1303007 -0.8558559
0.8098682 -0.06399383 -0.8522522
0.6863151 0.1318427 -0.8558559
0.9264261 0.2228219 -0.8558559
0.6571825 0.3986122 -0.8594595
0.5253296 0.5019276 -0.8558559
-0.5530881 0.7162683 -0.8594595
-0.1089521 0.8041635 -0.8522522
-0.5975156 0.8365459 -0.8594595
-0.3074254 0.8365459 -0.8558559
0.3921027 -0.9151889 -0.8414415
0.89034 -0.7208944 -0.845045
0.7015961 -0.6515034 -0.845045
0.7585011 -0.5944487 -0.8486487
0.7099376 -0.5605243 -0.845045
0.8598057 -0.4865073 -0.8414415
0.6432894 -0.310717 -0.8486487
0.5891742 -0.307633 -0.8414415
0.8764886 -0.307633 -0.845045
0.7682165 0.05936777 -0.8486487
0.9347675 0.312259 -0.845045
0.5628036 0.3461835 -0.845045
-0.5863984 0.3616037 -0.8414415
0.5156142 0.4140324 -0.8486487
-0.5780569 0.4494988 -0.8414415
-0.3393477 0.4818813 -0.8486487
0.240805 0.5235158 -0.8486487
0.09784871 0.5343099 -0.8486487
-0.2755031 0.5744025 -0.8414415
-0.2657738 0.6638396 -0.8486487
0.257474 0.7008481 -0.8486487
0.8848161 0.7378566 -0.8414415
0.1228175 0.7995374 -0.8486487
0.03955586 0.8581342 -0.8486487
-0.5378071 0.8936006 -0.8414415
0.4087301 -0.7378566 -0.8378378
0.6932685 -0.7393986 -0.8342342
0.1922137 -0.54202 -0.8378378
0.2838307 -0.5497301 -0.8342342
0.77517 -0.4140324 -0.8306307
0.7834698 -0.3323053 -0.8342342
0.7501596 -0.1179645 -0.8342342
0.9014573 -0.04240555 -0.8378378
0.6224844 0.04703161 -0.8342342
0.8265094 0.1148805 -0.8378378
0.9167384 0.1349268 -0.8342342
0.8348369 0.2043177 -0.8378378
0.6932685 0.2212799 -0.8342342
0.5072727 0.3261372 -0.8306307
0.2491325 0.6129529 -0.8378378
-0.3240944 0.6607556 -0.8306307
0.4531575 0.6977641 -0.8342342
-0.4628869 0.7409406 -0.8342342
-0.4031783 0.768697 -0.8306307
0.6044552 0.7902853 -0.8342342
0.1783484 0.8211257 -0.8306307
0.6974323 0.842714 -0.8306307
0.6127551 0.8797224 -0.8306307
-0.1006246 0.8936006 -0.8378378
0.1075642 -0.8920586 -0.827027
0.7404719 -0.7733231 -0.8234234
0.2671617 -0.7270625 -0.827027
0.1755725 -0.7193524 -0.8234234
0.04233171 -0.611411 -0.827027
0.4864677 -0.4494988 -0.8234234
-0.5447467 -0.1457209 -0.8234234
-0.7376961 0.310717 -0.827027
-0.7293546 0.4001542 -0.8234234
0.2310756 0.4371627 -0.827027
0.2852186 0.4340786 -0.8234234
-0.1353227 0.538936 -0.827027
-0.6238723 0.5728604 -0.827027
0.3907148 0.6021588 -0.8234234
0.6877168 0.7548188 -0.8234234
-0.2505344 0.8411719 -0.8234234
0.6835392 -0.8288358 -0.8162162
0.5475225 -0.7501928 -0.8162162
0.2755031 -0.6376253 -0.8162162
-0.01042332 -0.614495 -0.8198198
-0.3837613 -0.5774865 -0.8198198
0.5642054 -0.5744025 -0.8162162
0.33517 -0.535852 -0.8198198
-0.5780569 -0.4988435 -0.8162162
0.2005413 -0.4525829 -0.8162162
-0.7126856 -0.3986122 -0.8162162
0.6308119 0.1349268 -0.8198198
-0.6044552 0.1811874 -0.8198198
0.6391534 0.2259059 -0.8198198
0.4268008 0.4325366 -0.8198198
-0.4878556 0.4757132 -0.8198198
-0.722415 0.4895914 -0.8162162
0.3823734 0.5142637 -0.8126126
0.4351006 0.5204318 -0.8198198
0.5780569 0.5250579 -0.8126126
-0.5711451 0.5404781 -0.8126126
0.6710756 0.5774865 -0.8198198
-0.1866898 0.5882806 -0.8198198
-0.4212353 0.5913647 -0.8162162
-0.5628175 0.6299152 -0.8126126
-0.4725746 0.6515034 -0.8126126
0.6793754 0.6669236 -0.8126126
-0.4129077 0.6808019 -0.8162162
-0.6974323 0.7563608 -0.8198198
-0.1616794 0.8550501 -0.8126126
0.4156836 0.8689283 -0.8126126
0.1575156 -0.8966846 -0.809009
-0.03539209 -0.8828065 -0.8054054
0.7321305 -0.8612182 -0.8054054
-0.3102013 -0.7455667 -0.809009
0.460111 -0.7162683 -0.8018018
0.3254823 -0.6252891 -0.8054054
-0.4406523 -0.5774865 -0.8018018
-0.003469813 -0.5265998 -0.8054054
-0.5211658 -0.4741712 -0.809009
0.2907842 -0.460293 -0.8018018
-0.5711451 -0.4109483 -0.8054054
0.8667592 -0.3955281 -0.809009
-0.5128383 -0.386276 -0.809009
-0.6224844 0.00539707 -0.8018018
-0.614143 0.09329221 -0.8018018
-0.5975156 0.2721666 -0.8054054
0.1519917 0.5558982 -0.8018018
-0.7140735 0.5790285 -0.8054054
-0.3337821 0.5728604 -0.8018018
0.1047883 0.6252891 -0.809009
-0.7057738 0.6684657 -0.8018018
0.5947259 0.7039322 -0.8018018
-0.1186815 0.7178103 -0.8018018
-0.02984039 0.7131843 -0.8054054
-0.8417904 0.768697 -0.8018018
-0.7515475 0.770239 -0.809009
0.02984039 0.771781 -0.8054054
0.3254823 0.8766384 -0.809009
-0.02845246 -0.7933693 -0.790991
0.182526 -0.6283731 -0.7945946
0.6155309 -0.5759445 -0.7981982
-0.5308952 -0.5620663 -0.7981982
0.1394865 -0.537394 -0.7981982
-0.7973629 -0.307633 -0.7945946
0.7404719 -0.2043177 -0.7945946
-0.6391534 -0.1719352 -0.7981982
-0.8098682 0.1503469 -0.7945946
0.6460652 0.3153431 -0.7981982
0.5683692 0.4371627 -0.7981982
-0.7765579 0.5034695 -0.790991
-0.4295767 0.5034695 -0.7981982
-0.1949896 0.5003855 -0.7981982
0.3004719 0.611411 -0.7981982
-0.7612769 0.6808019 -0.790991
-0.5475364 0.8072475 -0.7981982
-0.01458709 0.8920586 -0.790991
0.5905621 -0.842714 -0.7873874
0.1658432 -0.8072475 -0.7873874
0.8320611 -0.7486507 -0.7837838
-0.02011103 -0.7039322 -0.7801802
0.6072311 -0.6638396 -0.7837838
0.4142956 -0.6453354 -0.7801802
-0.4323525 -0.4880494 -0.7801802
0.6321999 -0.3970702 -0.7801802
-0.6557946 -0.3461835 -0.7801802
-0.6904927 -0.1318427 -0.7837838
-0.7723942 -0.04240555 -0.7873874
-0.6821513 -0.04394757 -0.7837838
-0.9167384 -0.03006939 -0.7873874
0.7820819 0.2382421 -0.7837838
0.7085496 0.4016962 -0.7873874
-0.05619708 0.4464148 -0.7801802
-0.1450382 0.4510409 -0.7873874
0.003469813 0.5065536 -0.7801802
0.2907842 0.5235158 -0.7801802
0.4420403 0.611411 -0.7873874
0.3074254 0.6993061 -0.7837838
-0.02288688 0.8041635 -0.7837838
-0.4573213 0.8303778 -0.7801802
-0.6904927 0.845798 -0.7873874
0.2491325 -0.9013107 -0.7765766
0.1145177 -0.8026214 -0.7765766
0.4503817 -0.8026214 -0.772973
0.5975018 -0.7532768 -0.772973
0.3171409 -0.7131843 -0.7765766
0.4753504 -0.535852 -0.7765766
-0.6474531 -0.2582884 -0.7765766
-0.6322137 -0.08249807 -0.7765766
-0.5142263 0.2104857 -0.7765766
-0.8500902 0.6823439 -0.7765766
0.5364469 -0.8380879 -0.7657658
0.2560861 -0.8118736 -0.7693694
0.8403886 -0.6592135 -0.7657658
-0.1478279 -0.535852 -0.7693694
0.6224844 -0.4865073 -0.7693694
0.7154615 -0.4680031 -0.7657658
-0.5058848 -0.2952968 -0.7693694
-0.555864 -0.232074 -0.7621621
-0.539195 -0.05628373 -0.7693694
-0.5308952 0.03469545 -0.7657658
-0.6752394 0.04703161 -0.7621621
-0.908397 0.06090979 -0.7621621
0.7723942 0.151889 -0.7657658
0.6988203 0.3138011 -0.7693694
-0.7945871 0.3261372 -0.7693694
0.4170715 0.3461835 -0.7693694
-0.4989729 0.3893601 -0.7657658
0.5850104 0.617579 -0.7621621
0.01872311 0.6838859 -0.7657658
0.3962665 0.69468 -0.7621621
-0.26161 0.7548188 -0.7693694
0.299084 -0.8889745 -0.7549549
-0.1727967 -0.8010794 -0.7513514
-0.1644552 -0.7147263 -0.7585586
0.1214573 -0.7116423 -0.7585586
-0.7404719 -0.6638396 -0.7585586
-0.3948786 -0.6622976 -0.7513514
-0.1561277 -0.6237471 -0.7549549
0.8473421 -0.5697764 -0.7513514
0.04789729 -0.5173478 -0.7549549
-0.7238029 -0.4849653 -0.7549549
0.3407356 -0.4479568 -0.7585586
0.722415 -0.3801079 -0.7585586
0.7307425 -0.2906708 -0.7513514
-0.7904233 -0.2166538 -0.7513514
-0.4989729 -0.2058597 -0.7549549
-0.5239417 0.1241326 -0.7513514
-0.6585704 0.2243639 -0.7513514
-0.8029146 0.2397841 -0.7549549
-0.6419014 0.4001542 -0.7549549
0.3712561 0.4279106 -0.7549549
-0.6183206 0.6653817 -0.7549549
0.11034 0.7147263 -0.7549549
-0.3990146 0.8596762 -0.7549549
0.4406523 -0.8920586 -0.7441441
-0.1242054 -0.8242097 -0.7477477
0.3962665 -0.8226677 -0.7441441
0.02288688 -0.7748651 -0.7405406
-0.5975156 -0.6730918 -0.7441441
-0.6752394 -0.5235158 -0.7405406
-0.6655101 -0.4356207 -0.7477477
0.576669 -0.3924441 -0.7405406
-0.8528661 -0.2937548 -0.7441441
-0.8445663 -0.2058597 -0.7477477
-0.7668286 0.04857363 -0.7405406
-0.6669118 0.1364688 -0.7441441
-0.351839 0.3986122 -0.7441441
-0.7876336 0.4155744 -0.7477477
-0.6349896 0.4895914 -0.7477477
-0.2866204 0.4911334 -0.7441441
-0.4836919 0.5666924 -0.7441441
0.01042332 0.5975327 -0.7441441
0.5683692 -0.4818813 -0.7369369
-0.8362249 -0.1164225 -0.7369369
-0.7710062 0.5929067 -0.7369369
0.4656627 -0.6237471 -0.7297297
-0.8084802 -0.3924441 -0.7225225
-0.7834698 -0.1287587 -0.7261261
-0.9264261 -0.1164225 -0.7297297
-0.7501596 0.2259059 -0.7225225
-0.6516308 0.312259 -0.7261261
-0.04928522 0.535852 -0.7261261
-0.04094379 0.6252891 -0.7297297
-0.1311589 0.6314572 -0.7225225
0.01458709 -0.8627602 -0.7189189
0.3060375 -0.7979954 -0.7153153
-0.1089521 -0.6437933 -0.7153153
-0.7335184 -0.5713184 -0.7117117
-0.2976961 -0.5651503 -0.7153153
-0.81678 -0.4834233 -0.7189189
-0.4268008 -0.3955281 -0.7153153
-0.7099376 -0.306091 -0.7153153
-0.70161 -0.2181958 -0.7189189
-0.8209438 0.06399383 -0.7153153
-0.3809854 -0.4849653 -0.7045045
-0.8292852 -0.02390131 -0.7081081
-0.8265094 -0.5697764 -0.6900901
-0.5100486 0.3030069 -0.6972973
0.02845246 -0.688512 -0.6828829
-0.8639833 -0.3785659 -0.6792793
-0.5683692 -0.3168851 -0.6792793
-0.7612769 0.1395528 -0.6720721
-0.4545455 -0.6592135 -0.6612613
-0.593338 -0.5821126 -0.6684685
-0.6960444 -0.7054742 -0.6504505
-0.8723109 -0.464919 -0.6576577
-0.5447467 -0.6437933 -0.6432433
-0.6877168 -0.611411 -0.6396396
