# .PCD v.7 - Point Cloud Data file format
VERSION .7
FIELDS x y z
SIZE 4 4 4
TYPE F F F
COUNT 1 1 1
WIDTH 1521
HEIGHT 1
VIEWPOINT 0 0 0 1 0 0 0
POINTS 1521
DATA ascii
0.8972244 -0.7505248 -0.6757301
0.928833 -0.7533974 -0.6797583
0.9277864 -0.7405812 -0.6787512
0.9196231 -0.7377086 -0.6797583
0.9462061 -0.6711966 -0.6757301
0.9780241 -0.6767208 -0.673716
0.9453689 -0.6586013 -0.672709
0.9445316 -0.646006 -0.6747231
0.943485 -0.6336316 -0.6747231
0.9516483 -0.6373881 -0.6717019
0.973417 -0.6139653 -0.6787512
0.9723704 -0.601591 -0.6747231
0.9448456 -0.5976135 -0.6742195
0.97436 -0.5737488 -0.672709
0.9696494 -0.5640261 -0.6767372
0.9989555 -0.5439178 -0.6747231
0.9970696 -0.5189482 -0.672709
0.9943485 -0.4813833 -0.672709
0.8451071 -0.999779 -0.6666667
0.8758764 -0.9991161 -0.6666667
0.8513865 -0.9882886 -0.6686808
0.8806906 -0.9655287 -0.6616314
0.5997903 -0.9416639 -0.6636455
0.8486655 -0.9493979 -0.6636455
0.8698062 -0.9127168 -0.6636455
0.8771322 -0.9138217 -0.6616314
0.8451071 -0.8981328 -0.6606244
0.8744112 -0.8755938 -0.6646526
0.8980637 -0.8751519 -0.6666667
0.8727366 -0.8495194 -0.6626385
0.8718994 -0.8362612 -0.6616314
0.8708549 -0.8236659 -0.6626385
0.8928308 -0.800685 -0.6666667
0.9307168 -0.778588 -0.6636455
0.8882259 -0.7379295 -0.6606244
0.9187859 -0.7248923 -0.6676737
0.9269491 -0.727102 -0.6636455
0.9179507 -0.712076 -0.6626385
0.9160648 -0.6873274 -0.6606244
0.9242281 -0.6888742 -0.6696878
0.9233887 -0.6760579 -0.6676737
0.9418105 -0.6077781 -0.6606244
0.94809 -0.5859021 -0.6606244
0.9688121 -0.5509889 -0.6646526
0.9372056 -0.5459065 -0.6686808
0.9669283 -0.5260192 -0.6676737
0.9962323 -0.5061319 -0.6606244
0.9935113 -0.468567 -0.6686808
1 -0.4449232 -0.6646526
0.9886949 -0.4053696 -0.6616314
0.5956039 -0.9840901 -0.6565962
0.8442699 -0.9869628 -0.6586103
0.5947667 -0.9717158 -0.6545821
0.5939295 -0.9595625 -0.6565962
0.6006275 -0.9542592 -0.653575
0.8415487 -0.9498398 -0.6596173
0.5924643 -0.9345928 -0.6515609
0.8706435 -0.9246492 -0.6545821
0.8442699 -0.8846536 -0.653575
0.8670852 -0.8749309 -0.6586103
0.8354787 -0.8627776 -0.6565962
0.8662479 -0.8625566 -0.6555891
0.8407115 -0.8331676 -0.6555891
0.8398743 -0.8201303 -0.6576032
0.8637361 -0.8252127 -0.6515609
0.8700156 -0.8106287 -0.6545821
0.8901098 -0.7628991 -0.6565962
0.9298795 -0.7653298 -0.6565962
0.8892704 -0.7503038 -0.6545821
0.8965985 -0.7368246 -0.6545821
0.8947147 -0.7107502 -0.6515609
0.8936681 -0.6981549 -0.6555891
0.9171114 -0.6997017 -0.6596173
0.9152296 -0.6745111 -0.6515609
0.9855573 -0.6731853 -0.653575
0.9217163 -0.6497625 -0.6545821
0.9208791 -0.6369462 -0.652568
0.9198325 -0.62413 -0.653575
0.9426478 -0.6203734 -0.6576032
0.9763474 -0.5443597 -0.653575
0.9679748 -0.5379516 -0.6545821
0.9753008 -0.5315435 -0.652568
0.966091 -0.512982 -0.6555891
0.9744636 -0.5191692 -0.6555891
0.9725798 -0.4935366 -0.6505539
0.9953951 -0.4930947 -0.6505539
0.9706959 -0.468346 -0.6586103
0.9907901 -0.4303392 -0.6555891
0.9897436 -0.4177439 -0.652568
0.9878597 -0.3925533 -0.6555891
0.5654626 -0.9980113 -0.6475327
0.8434326 -0.9741465 -0.6485398
0.8505493 -0.9745885 -0.6445116
0.8407115 -0.9368026 -0.6435046
0.839037 -0.9120539 -0.6495468
0.8373625 -0.8868634 -0.6404834
0.8654106 -0.8497404 -0.6465257
0.8645734 -0.8371451 -0.6424975
0.861015 -0.7874268 -0.6435046
0.8919915 -0.7874268 -0.6435046
0.8601778 -0.7748315 -0.6404834
0.8911564 -0.7750525 -0.6475327
0.8982731 -0.7622362 -0.6465257
0.8574567 -0.7374876 -0.6414905
0.8639454 -0.720031 -0.6404834
0.8873887 -0.7248923 -0.6475327
0.8857142 -0.6999227 -0.6424975
0.8848769 -0.6875483 -0.6465257
0.8930402 -0.6846758 -0.6424975
0.8838325 -0.674953 -0.6435046
0.8603892 -0.6685449 -0.6414905
0.9227629 -0.6619158 -0.6424975
0.9116692 -0.6243509 -0.6485398
0.9189952 -0.6108717 -0.6435046
0.9390873 -0.5695503 -0.6414905
0.9382522 -0.557176 -0.6414905
0.9736264 -0.50569 -0.6404834
0.9717425 -0.4802784 -0.6414905
0.992674 -0.4550878 -0.6414905
0.9918367 -0.4427135 -0.6424975
0.9964437 -0.3929952 -0.6424975
0.985978 -0.3669208 -0.6485398
0.5711141 -0.9770191 -0.6364552
0.8425953 -0.9613302 -0.6384693
0.5933015 -0.9465252 -0.6374623
0.8480375 -0.9354767 -0.6364552
0.5953947 -0.9245387 -0.6344411
0.8461537 -0.9098442 -0.6394764
0.8381997 -0.8990167 -0.6384693
0.8365252 -0.874047 -0.6354482
0.8346414 -0.8492984 -0.6344411
0.8417581 -0.8453209 -0.6384693
0.8329669 -0.8245498 -0.6364552
0.8392463 -0.8057673 -0.6304129
0.8693876 -0.7969285 -0.6384693
0.8957613 -0.7229035 -0.6334341
0.8867586 -0.7118551 -0.6354482
0.8622709 -0.6939565 -0.632427
0.8832024 -0.6621368 -0.632427
0.8903191 -0.645785 -0.63142
0.913553 -0.6488786 -0.6374623
0.8894818 -0.6327478 -0.6334341
0.9127179 -0.6365042 -0.6354482
0.8804813 -0.6245719 -0.63142
0.9108319 -0.6113136 -0.6334341
0.8785996 -0.5996023 -0.6304129
0.9181558 -0.5978345 -0.6384693
0.940136 -0.5819247 -0.63142
0.9081109 -0.5735278 -0.6304129
0.9472527 -0.572202 -0.6384693
0.9072736 -0.5611535 -0.6374623
0.9464154 -0.5591648 -0.632427
0.9145996 -0.5463485 -0.6364552
0.9363663 -0.5322064 -0.6394764
0.9983255 -0.5297757 -0.6334341
0.9355311 -0.5196111 -0.6334341
0.9428571 -0.5076787 -0.6304129
0.9338545 -0.4944205 -0.6304129
0.9418105 -0.4946415 -0.63142
0.9328099 -0.4822671 -0.6374623
0.9635792 -0.4747542 -0.6334341
0.970068 -0.454204 -0.6304129
0.9653584 -0.4454756 -0.6349446
0.9606488 -0.4369683 -0.632427
0.9993721 -0.4312231 -0.6344411
0.9673469 -0.4157552 -0.6304129
0.9579278 -0.3991824 -0.6334341
0.9956044 -0.380179 -0.6394764
0.9870225 -0.3790741 -0.632427
0.9945578 -0.3671418 -0.6354482
0.985348 -0.3543255 -0.6354482
0.9937227 -0.3541045 -0.6364552
0.9843014 -0.3415092 -0.6334341
0.5721607 -0.9893934 -0.6283988
0.5704862 -0.96354 -0.6263847
0.8499234 -0.9608883 -0.6283988
0.5688117 -0.9383494 -0.6294059
0.843643 -0.9228815 -0.6278952
0.862901 -0.8112916 -0.6203424
0.8620616 -0.7991382 -0.6243706
0.8677131 -0.7706331 -0.6233636
0.8666666 -0.7580378 -0.6273918
0.8585033 -0.7494199 -0.6294059
0.8566194 -0.7242294 -0.6243706
0.8557822 -0.7114131 -0.6213495
0.8631061 -0.7065518 -0.6253777
0.8614337 -0.6809192 -0.6253777
0.8922029 -0.6711966 -0.6283988
0.9145996 -0.6610319 -0.6273918
0.879644 -0.6115347 -0.6213495
0.8886446 -0.6199315 -0.6294059
0.8859235 -0.5808198 -0.6203424
0.9164834 -0.5713181 -0.6203424
0.9156462 -0.5585018 -0.6223565
0.9455782 -0.5461275 -0.6263847
0.9447409 -0.5330903 -0.6223565
0.9436944 -0.520495 -0.6294059
0.9037153 -0.5112143 -0.6273918
0.9346938 -0.5067948 -0.6294059
0.9654631 -0.4992819 -0.6223565
0.9625306 -0.4619379 -0.6273918
0.9598137 -0.4239311 -0.6213495
0.9681842 -0.4283504 -0.6213495
0.9589743 -0.4115567 -0.6233636
0.9663003 -0.402497 -0.6233636
0.9974882 -0.4051486 -0.6223565
0.9570926 -0.3865871 -0.6283988
0.983462 -0.328693 -0.6223565
0.5405542 -0.9874047 -0.6132931
0.565044 -0.9840901 -0.611279
0.5665092 -0.9550326 -0.6163142
0.5625322 -0.9474092 -0.6193354
0.561695 -0.9348139 -0.6132931
0.5648326 -0.8733842 -0.6163142
0.8438512 -0.8700696 -0.6132931
0.8428047 -0.8570324 -0.6102719
0.8685504 -0.7832284 -0.6193354
0.8595498 -0.7611313 -0.611279
0.8660386 -0.7447796 -0.6163142
0.864992 -0.7317423 -0.6143001
0.8549449 -0.6988178 -0.6183283
0.8312923 -0.6897581 -0.6102719
0.8532704 -0.6738482 -0.612286
0.8524352 -0.6612529 -0.6102719
0.8597592 -0.6541818 -0.6163142
0.8913656 -0.6581593 -0.6183283
0.8587126 -0.6415865 -0.6143001
0.857038 -0.6157331 -0.6132931
0.91753 -0.5834714 -0.6102719
0.8543169 -0.5772843 -0.612286
0.876923 -0.5737488 -0.6132931
0.8760878 -0.5615954 -0.6183283
0.884249 -0.5549663 -0.6102719
0.9064363 -0.5478953 -0.6163142
0.9055991 -0.5355209 -0.6183283
0.9137623 -0.5326483 -0.611279
0.902878 -0.498177 -0.612286
0.9411826 -0.4813833 -0.6132931
0.9646258 -0.4864656 -0.6183283
0.9093667 -0.468567 -0.6102719
0.9292516 -0.431444 -0.6173213
0.9985348 -0.4175229 -0.6153072
0.9338545 -0.379737 -0.611279
0.9562532 -0.3733289 -0.6102719
0.9646258 -0.3766435 -0.612286
0.9882784 -0.276765 -0.612286
0.5413893 -0.999779 -0.6032225
0.5365772 -0.9222186 -0.6022155
0.561067 -0.9219975 -0.6052366
0.565672 -0.8857585 -0.6092649
0.8541076 -0.6857806 -0.6052366
0.8515959 -0.6488786 -0.6072508
0.8580846 -0.6281074 -0.6012084
0.8488747 -0.6113136 -0.6012084
0.8878073 -0.6060104 -0.6002014
0.88697 -0.5929732 -0.6072508
0.9102019 -0.5978345 -0.6062437
0.8779695 -0.5859021 -0.6072508
0.9091574 -0.5852392 -0.6072508
0.8850862 -0.5677826 -0.6082578
0.8834117 -0.54215 -0.6072508
0.8742018 -0.5359629 -0.6062437
0.9047639 -0.5224837 -0.6012084
0.912923 -0.5196111 -0.6042296
0.9120878 -0.5065739 -0.6022155
0.6324434 -0.4950834 -0.6082578
0.8706435 -0.4860236 -0.6012084
0.9020407 -0.4851398 -0.6002014
0.9102019 -0.4809413 -0.6022155
0.9343798 -0.4433764 -0.6047331
0.9656724 -0.3890178 -0.6012084
0.955416 -0.3605126 -0.6012084
0.9629513 -0.35079 -0.6032225
0.9901622 -0.3021766 -0.6062437
0.9893249 -0.2891393 -0.6002014
0.9799058 -0.2780908 -0.6032225
0.5644161 -0.9710529 -0.5951661
0.5338562 -0.9356977 -0.5966767
0.5681837 -0.9237653 -0.5981873
0.5673486 -0.9111701 -0.5971802
0.5568829 -0.8592421 -0.5911379
0.7366821 -0.7757154 -0.5941591
0.7437988 -0.771517 -0.5941591
0.8752484 -0.5481162 -0.5961732
0.6253266 -0.5032593 -0.5941591
0.8790161 -0.4776268 -0.593152
0.9003662 -0.4601701 -0.5971802
0.9076901 -0.4420506 -0.5951661
0.9376242 -0.4303392 -0.5971802
0.9367869 -0.4177439 -0.5981873
0.6776553 -0.3773064 -0.5951661
0.9619047 -0.3375318 -0.593152
0.9610674 -0.3247155 -0.5961732
0.9828362 -0.3152138 -0.5911379
0.7021452 -0.2758811 -0.5971802
0.5294605 -0.9235443 -0.5891238
0.531763 -0.8437741 -0.5871097
0.7404497 -0.719589 -0.5820745
0.8825744 -0.6475527 -0.5850956
0.8817372 -0.5154127 -0.5840886
0.8808999 -0.5030383 -0.5871097
0.6244894 -0.4904431 -0.5861027
0.9114599 -0.4928737 -0.5810674
0.9012035 -0.4721025 -0.5830815
0.6517003 -0.4431554 -0.5850956
0.6549436 -0.4306706 -0.5830815
0.6541075 -0.4179649 -0.5820745
0.6573518 -0.4053696 -0.5840886
0.9359497 -0.4044857 -0.5850956
0.9351124 -0.3914485 -0.5840886
0.6787019 -0.3896807 -0.5891238
0.9259005 -0.379958 -0.5800604
0.9637886 -0.3629433 -0.5871097
0.7057035 -0.3253784 -0.5830815
0.9526949 -0.3222848 -0.5871097
0.7048662 -0.3130041 -0.5861027
0.9212977 -0.3174235 -0.5850956
0.9602302 -0.3118992 -0.5871097
0.7038197 -0.3006298 -0.5881168
0.9518597 -0.3092476 -0.5800604
0.7029824 -0.2880345 -0.5850956
0.7113529 -0.2851619 -0.5840886
0.9790685 -0.2650536 -0.5891238
0.9876505 -0.2628439 -0.5871097
0.5336468 -0.9847531 -0.5740181
0.5326002 -0.8565904 -0.5790534
0.8817372 -0.6347365 -0.5770393
0.7609647 -0.5545244 -0.5730111
0.8827838 -0.528008 -0.5740181
0.6037673 -0.5171804 -0.5740181
0.5951853 -0.5078997 -0.5740181
0.8800626 -0.4897801 -0.5760322
0.6228149 -0.4645895 -0.5740181
0.6219776 -0.4522152 -0.5760322
0.6491885 -0.4051486 -0.5790534
0.9277864 -0.4049276 -0.572004
0.6877046 -0.3918904 -0.5790534
0.9041339 -0.3903436 -0.5780463
0.6770274 -0.3640482 -0.5780463
0.6761901 -0.3514529 -0.5740181
0.9014128 -0.3521158 -0.5780463
0.9545808 -0.3468125 -0.5740181
0.6753529 -0.3390785 -0.5780463
0.9537414 -0.3342172 -0.572004
0.9933019 -0.3392995 -0.5750252
0.991416 -0.313888 -0.5730111
0.9819989 -0.3021766 -0.5780463
0.9552066 -0.2976467 -0.5760323
0.9499738 -0.283836 -0.5770393
0.9585557 -0.2860457 -0.5750252
0.9809503 -0.2898022 -0.5790534
0.977394 -0.2394211 -0.5770393
0.985978 -0.2372114 -0.5730111
0.9763474 -0.2266048 -0.570997
0.9840921 -0.2115788 -0.572004
0.7262164 -0.173572 -0.5740181
0.5342748 -0.882002 -0.5689829
0.7617999 -0.5671197 -0.5619335
0.5979064 -0.5448017 -0.5629406
0.5962299 -0.520053 -0.5679758
0.6046045 -0.5297757 -0.5679758
0.6031393 -0.5041432 -0.5629406
0.5928829 -0.4698928 -0.5609265
0.9323913 -0.4670202 -0.5649547
0.9405546 -0.4670202 -0.5699899
0.9356357 -0.4544249 -0.5679759
0.6293036 -0.4413877 -0.5659617
0.6213497 -0.439178 -0.5629406
0.6284664 -0.4283504 -0.5679758
0.928833 -0.417081 -0.5679758
0.9269491 -0.3921114 -0.5629406
0.9334379 -0.365153 -0.5659617
0.9323913 -0.3516738 -0.5689829
0.714704 -0.3348801 -0.5679758
0.9315541 -0.3384157 -0.5649547
0.9924647 -0.3262623 -0.5639476
0.6728411 -0.3010717 -0.5649547
0.9204625 -0.3041653 -0.5669688
0.7105178 -0.2716827 -0.5659617
0.9187859 -0.2787537 -0.5609265
0.9491365 -0.2710198 -0.5699899
0.9577184 -0.2727875 -0.5629406
0.7015172 -0.2624019 -0.5699899
0.9782292 -0.2520164 -0.5679758
0.7047616 -0.2479284 -0.5669688
0.9868132 -0.2495857 -0.5679758
0.708006 -0.2332339 -0.5619335
0.9539508 -0.2215225 -0.5619335
0.9849293 -0.2239532 -0.5649547
0.7063314 -0.2078223 -0.5609265
0.9746729 -0.2014142 -0.5609265
0.9830455 -0.1987626 -0.5699899
0.7507041 -0.08518396 -0.5609265
0.7498689 -0.07258867 -0.5619335
0.7151227 -0.7991382 -0.550856
0.5773936 -0.5770633 -0.5568983
0.5765563 -0.5642471 -0.5579053
0.5970692 -0.5322064 -0.5579053
0.8737832 -0.5215998 -0.5599194
0.5945574 -0.4948624 -0.5599194
0.602302 -0.4911059 -0.5558912
0.6006275 -0.4661363 -0.5599194
0.627627 -0.4139874 -0.551863
0.6267919 -0.4007292 -0.5568983
0.6485585 -0.3914485 -0.5528701
0.647514 -0.3792951 -0.5589124
0.6558866 -0.3784112 -0.550856
0.6870745 -0.3779693 -0.550856
0.6533749 -0.3397415 -0.5528701
0.644165 -0.328693 -0.5528701
0.6525376 -0.3271462 -0.5538771
0.9305075 -0.3244945 -0.5589124
0.6517003 -0.3145509 -0.551863
0.9286216 -0.2984201 -0.5548842
0.672006 -0.2882555 -0.5599194
0.9277864 -0.2862667 -0.5558912
0.9269491 -0.2747763 -0.5548842
0.66949 -0.2502486 -0.5528701
0.9482993 -0.2579826 -0.5558912
0.9566718 -0.2599713 -0.5599194
0.9558346 -0.247155 -0.5528701
0.9549974 -0.2345597 -0.5589124
0.7071687 -0.2201967 -0.5558912
0.9455782 -0.2201967 -0.5548842
0.9757174 -0.2133466 -0.550856
0.9445316 -0.2080433 -0.5589124
0.7358449 -0.1837366 -0.5599194
0.9727912 -0.1760027 -0.5558912
0.7038197 -0.1695945 -0.5589124
0.7253791 -0.1603138 -0.5579053
0.9719518 -0.1634074 -0.550856
0.7237046 -0.1353442 -0.5589124
0.7324958 -0.1322506 -0.5538771
0.7316585 -0.1196553 -0.5538771
0.7490317 -0.0597724 -0.550856
0.5757191 -0.5505469 -0.5438067
0.6064904 -0.5547453 -0.5427996
0.6056511 -0.5419291 -0.5478349
0.5658813 -0.5189482 -0.5458208
0.5939295 -0.4816042 -0.5417926
0.5997903 -0.4526572 -0.5488419
0.5912083 -0.4442603 -0.5448137
0.5989509 -0.4396199 -0.5468278
0.6259546 -0.387692 -0.5468278
0.6468861 -0.3662579 -0.5427996
0.6542121 -0.3523368 -0.5498489
0.6854 -0.3525577 -0.5448137
0.6747229 -0.3253784 -0.5498489
0.6738877 -0.3130041 -0.5498489
0.9296703 -0.3103524 -0.5458208
0.6508631 -0.3015136 -0.5417926
0.6820509 -0.3017346 -0.5448137
0.9198325 -0.2909071 -0.5458208
0.6711666 -0.2749972 -0.5478349
0.947462 -0.2451663 -0.5488419
0.6778647 -0.2378743 -0.5458208
0.6998427 -0.2363275 -0.5448137
0.6770274 -0.224837 -0.5427996
0.9531135 -0.2084852 -0.5448137
0.7054942 -0.1943432 -0.5458208
0.7048662 -0.1815269 -0.5407855
0.7272629 -0.1850624 -0.5438067
0.9738356 -0.188156 -0.5407855
0.9503924 -0.1700365 -0.5468278
0.7247512 -0.1472766 -0.5417926
0.7291468 -0.08142747 -0.5407855
0.7481944 -0.04695614 -0.5478349
0.7473571 -0.03413988 -0.5468278
0.5667185 -0.5313225 -0.5387714
0.5748818 -0.5375097 -0.5347432
0.565044 -0.5059109 -0.5317221
0.5725815 -0.4986189 -0.5327291
0.6016741 -0.4780687 -0.5397785
0.5905804 -0.431444 -0.5387714
0.6207218 -0.4254779 -0.530715
0.5974878 -0.4137664 -0.5397785
0.6180006 -0.3879129 -0.5387714
0.6244894 -0.3636062 -0.5377644
0.6552587 -0.3649321 -0.5377644
0.6864465 -0.3647111 -0.5337362
0.6236522 -0.3510109 -0.530715
0.6460467 -0.3532206 -0.5357503
0.6228149 -0.3381947 -0.530715
0.6839348 -0.3267042 -0.5317221
0.643537 -0.3156557 -0.5397785
0.6418625 -0.2902442 -0.5317221
0.6502351 -0.2886974 -0.5357503
0.6812137 -0.2886974 -0.5397785
0.6750389 -0.2624019 -0.5367573
0.9263212 -0.261739 -0.5367573
0.9466268 -0.2319081 -0.530715
0.6678175 -0.2246161 -0.5347432
0.6990054 -0.2235112 -0.5357503
0.6661431 -0.1996464 -0.5367573
0.9522762 -0.195227 -0.5357503
0.9824176 -0.1848415 -0.5377644
0.7343796 -0.1569992 -0.5337362
0.7013079 -0.1304828 -0.5367573
0.700682 -0.1176666 -0.530715
0.7308213 -0.1061761 -0.5367573
0.7754053 0.005192796 -0.5327291
0.5642068 -0.4933157 -0.5256798
0.5635788 -0.4804994 -0.5216516
0.5399262 -0.4705558 -0.5266868
0.5709049 -0.4729864 -0.5236657
0.5627416 -0.4681251 -0.5216516
0.5922549 -0.4559717 -0.5276939
0.5983251 -0.4263617 -0.5287009
0.6198824 -0.4124406 -0.5216516
0.5966505 -0.4005082 -0.5266868
0.6173727 -0.3748757 -0.5287009
0.684772 -0.3386366 -0.5236657
0.6830975 -0.313888 -0.5246727
0.6803764 -0.2754392 -0.5256798
0.640188 -0.2648326 -0.5226586
0.6787019 -0.2500276 -0.529708
0.6468861 -0.2372114 -0.5226586
0.6671896 -0.2115788 -0.5236657
0.6761901 -0.2120208 -0.5287009
0.6983754 -0.2109159 -0.5276939
0.6728411 -0.1609767 -0.5266868
0.9807451 -0.158988 -0.5256798
0.7023545 -0.1426362 -0.5236657
0.7335424 -0.143741 -0.5236657
0.6912608 -0.1101536 -0.5287009
0.6998427 -0.1048503 -0.5226586
0.7276816 -0.055353 -0.5206445
0.7586601 -0.05712076 -0.5236657
0.7569856 -0.03193017 -0.5287009
0.7465199 -0.02110264 -0.529708
0.7456826 -0.008065407 -0.5256798
0.7542645 0.006297647 -0.529708
0.7837779 0.01557839 -0.5226586
0.7829406 0.02839465 -0.5226586
0.7821013 0.040548 -0.5276939
0.801151 0.06816927 -0.5256798
0.809105 0.08894045 -0.5226586
0.4534793 -0.6994807 -0.5176234
0.5717421 -0.4853607 -0.5176234
0.561067 -0.4429345 -0.5146022
0.5683931 -0.4343167 -0.5156093
0.5593946 -0.4179649 -0.5166163
0.5897431 -0.4181858 -0.5176234
0.5880687 -0.3929952 -0.5186304
0.6190472 -0.3996243 -0.5166163
0.5960247 -0.387471 -0.5166163
0.6253266 -0.3744338 -0.5166163
0.6165354 -0.3620594 -0.5186304
0.622189 -0.3251574 -0.5156093
0.6426998 -0.3023975 -0.5196375
0.6410252 -0.2772069 -0.5196375
0.6688641 -0.2363275 -0.5146022
0.6460467 -0.2243951 -0.5166163
0.6443743 -0.1989835 -0.5196375
0.6753529 -0.1989835 -0.5196375
0.6975402 -0.1976577 -0.5135952
0.696703 -0.1850624 -0.5146022
0.9815803 -0.1715833 -0.5196375
0.6636313 -0.1609767 -0.5146022
0.7031918 -0.1550105 -0.5166163
0.6939819 -0.1474975 -0.5176234
0.6931425 -0.1346813 -0.5156093
0.7230766 -0.1214231 -0.5176234
0.6906329 -0.09711634 -0.5115811
0.7301933 -0.09335985 -0.5196375
0.7285188 -0.06772732 -0.5186304
0.7268464 -0.04231577 -0.5115811
0.7561483 -0.01889294 -0.5176234
0.7553111 -0.005855707 -0.5166163
0.7448454 0.004750856 -0.5125881
0.7440081 0.01734615 -0.5176234
0.7534273 0.01933488 -0.5186304
0.7745681 0.01823003 -0.5156093
0.7737308 0.03082532 -0.5135952
0.7812662 0.05402718 -0.5125881
0.7994765 0.09380179 -0.5135952
0.7986392 0.1066181 -0.510574
0.8074304 0.114131 -0.5196375
0.8235477 0.1824108 -0.5115811
0.5619043 -0.4550878 -0.509567
0.5702769 -0.4595072 -0.5075529
0.5376238 -0.431886 -0.5085599
0.5367866 -0.4188488 -0.5025176
0.5891152 -0.4049276 -0.5005035
0.5951853 -0.3742128 -0.5075529
0.5866035 -0.3673627 -0.5075529
0.5943481 -0.3613965 -0.5025176
0.6159075 -0.3488012 -0.5015106
0.6454208 -0.3395205 -0.5035247
0.5840917 -0.3295768 -0.5025176
0.6496072 -0.2745553 -0.5015106
0.6393508 -0.2520164 -0.5085599
0.6385135 -0.2394211 -0.5065458
0.6376762 -0.2268258 -0.5075529
0.636839 -0.2144514 -0.5085599
0.6437464 -0.1859463 -0.5055388
0.6747229 -0.1857253 -0.5065458
0.6429091 -0.1729091 -0.5035247
0.6646778 -0.17313 -0.5035247
0.6630033 -0.1481604 -0.5035247
0.6713759 -0.1351232 -0.5055388
0.6923074 -0.122086 -0.5045317
0.7224487 -0.1083858 -0.5075529
0.6990054 -0.09181306 -0.5065458
0.7519621 -0.09579052 -0.5025176
0.7720563 0.05645785 -0.5025176
0.7804289 0.06684344 -0.5075529
0.7795916 0.07965971 -0.5005035
0.8005231 0.08142747 -0.5045317
0.7977999 0.1192134 -0.5035247
0.8262709 0.1448459 -0.5075529
0.8254315 0.1574412 -0.5035247
0.8342248 0.1744559 -0.509567
0.8333855 0.1874931 -0.5025176
0.539089 -0.9436526 -0.4984894
0.3322861 -0.7332891 -0.4964753
0.4545259 -0.7109712 -0.4934542
0.5694396 -0.446249 -0.4974824
0.5677651 -0.4206165 -0.4934542
0.5669279 -0.4082422 -0.4974824
0.5874407 -0.3795161 -0.4924471
0.5646275 -0.3697934 -0.4974824
0.5935129 -0.3481383 -0.4964753
0.6150702 -0.335764 -0.4934542
0.5903711 -0.2970943 -0.4954683
0.6125585 -0.2981991 -0.4974824
0.6090001 -0.2480389 -0.4954683
0.6454208 -0.2111369 -0.4994965
0.6360017 -0.2014142 -0.4994965
0.6353759 -0.1888189 -0.4954683
0.6655151 -0.1855044 -0.4954683
0.6738877 -0.1729091 -0.4964753
0.6958657 -0.1718042 -0.4974824
0.6722111 -0.1472766 -0.4964753
0.6705387 -0.121865 -0.4924471
0.7216135 -0.09556955 -0.4954683
0.6897956 -0.08407911 -0.4984894
0.7172158 -0.03325599 -0.4974824
0.7728935 0.04408353 -0.4974824
0.7511248 0.05822561 -0.4924471
0.771219 0.06927411 -0.4944612
0.808477 0.1026406 -0.4944612
0.8281526 0.1203182 -0.4914401
0.8273154 0.1326925 -0.4954683
0.805756 0.1402055 -0.4934542
0.8049187 0.1528008 -0.490433
0.8245943 0.1700365 -0.4984894
0.8501286 0.2462711 -0.4934542
0.5587646 -0.4042647 -0.4843907
0.5273674 -0.3934372 -0.4813696
0.5579273 -0.3916694 -0.4823766
0.5849289 -0.3417302 -0.4884189
0.5928829 -0.3348801 -0.4884189
0.614233 -0.3229477 -0.4874119
0.5834637 -0.3163186 -0.4813696
0.6133958 -0.3103524 -0.4853978
0.621559 -0.3114573 -0.4803625
0.5826265 -0.3037233 -0.4813696
0.6117233 -0.2853828 -0.4864048
0.6100467 -0.2604132 -0.4864048
0.6479326 -0.2487018 -0.4853978
0.6083722 -0.2352226 -0.4874119
0.6345365 -0.1760027 -0.4843907
0.6420718 -0.1594299 -0.4843907
0.6952378 -0.158988 -0.4853978
0.6613288 -0.1223069 -0.4864048
0.6889583 -0.07082091 -0.4853978
0.6983754 -0.07811292 -0.4813696
0.7262164 -0.02883659 -0.4864048
0.7253791 -0.01579936 -0.4823766
0.714704 0.004529886 -0.4864048
0.7237046 0.009612198 -0.4803625
0.7431709 0.03104629 -0.4884189
0.7527993 0.03303503 -0.4874119
0.7519621 0.04563032 -0.4874119
0.7502875 0.07148381 -0.4803625
0.4314992 0.1156778 -0.4884189
0.797174 0.1324715 -0.4803625
0.7961275 0.1448459 -0.489426
0.8325482 0.2009723 -0.4874119
0.8520145 0.2215225 -0.4833837
0.8492934 0.2590874 -0.4874119
0.8591312 0.2606342 -0.4853978
0.1338557 -0.7337311 -0.4733132
0.5662999 -0.394763 -0.4773414
0.5654626 -0.3817258 -0.4743202
0.5859755 -0.3534416 -0.4763343
0.5631602 -0.343277 -0.470292
0.5920456 -0.3220639 -0.4753273
0.610884 -0.2725666 -0.4793555
0.5872314 -0.2453873 -0.4753273
0.614861 -0.2087062 -0.4773414
0.6336992 -0.1629654 -0.4743202
0.6623754 -0.1344603 -0.4773414
0.6699107 -0.1083858 -0.4733132
0.7207742 -0.08231135 -0.4753273
0.7199369 -0.070158 -0.4783484
0.6975402 -0.06529665 -0.4743202
0.6883304 -0.05800464 -0.4733132
0.7191017 -0.05778367 -0.4793555
0.7165858 -0.01999779 -0.4783484
0.7157506 -0.007402497 -0.4733132
0.3561479 0.005192796 -0.470292
0.742545 0.04386256 -0.4743202
0.7408684 0.06883217 -0.470292
0.7494503 0.08430008 -0.4723061
0.7705911 0.08253232 -0.4743202
0.7695445 0.09490664 -0.4793555
0.7789637 0.09335985 -0.4753273
0.7781264 0.1059551 -0.4753273
0.7770798 0.1185504 -0.4753273
0.8068025 0.1280521 -0.4733132
0.8229197 0.1963319 -0.4753273
0.8218732 0.2087062 -0.4793555
0.821038 0.2215225 -0.4712991
0.8300365 0.2389791 -0.470292
0.8511772 0.2341178 -0.4793555
0.8601778 0.2484808 -0.4733132
0.8574567 0.2862667 -0.470292
0.8771322 0.3015136 -0.4763343
0.5606484 -0.4285714 -0.4682779
0.5572994 -0.3784112 -0.4662639
0.5914177 -0.3088056 -0.4602216
0.5817892 -0.2906861 -0.4662639
0.6200938 -0.2856038 -0.4672709
0.5589739 -0.2787537 -0.4632427
0.5809519 -0.2783118 -0.4672709
0.6489792 -0.2608552 -0.4672709
0.5863941 -0.2321291 -0.4602216
0.6607009 -0.1088278 -0.4602216
0.6969123 -0.05203845 -0.469285
0.6874931 -0.04518838 -0.4602216
0.7182624 -0.04474644 -0.469285
0.696075 -0.03944315 -0.4662639
0.6950285 -0.02684786 -0.469285
0.3576131 -0.01999779 -0.4632427
0.7228673 0.0228704 -0.4632427
0.7130295 0.03082532 -0.4612286
0.72203 0.03568666 -0.4662639
0.7417057 0.05645785 -0.4642498
0.412035 0.09733731 -0.469285
0.7389845 0.09402276 -0.4672709
0.7687094 0.1081648 -0.4632427
0.4111977 0.1105955 -0.4672709
0.4103625 0.1234118 -0.4632427
0.4097325 0.1360071 -0.4632427
0.7764519 0.1318086 -0.4662639
0.4291988 0.1539056 -0.4662639
0.8042908 0.166059 -0.4672709
0.4275243 0.1793172 -0.4632427
0.4055462 0.1989835 -0.4662639
0.801779 0.2038449 -0.4662639
0.8317088 0.2137885 -0.4672709
0.8308737 0.2263838 -0.4622357
0.8275247 0.276986 -0.4602216
0.8484561 0.2723456 -0.4662639
0.8585033 0.2738924 -0.4632427
0.8476189 0.2849409 -0.4642498
0.8457351 0.3103524 -0.4632427
0.8844583 0.3370898 -0.4662639
0.8817372 0.3750967 -0.4642498
0.3578224 -0.5269031 -0.4531722
0.5363679 -0.4040438 -0.4531722
0.5639974 -0.3554303 -0.4531722
0.5522758 -0.3030604 -0.4592145
0.5606484 -0.3043863 -0.4592145
0.5514386 -0.2904651 -0.4561934
0.5600204 -0.291128 -0.4501511
0.620931 -0.2979781 -0.4592145
0.5897431 -0.2831731 -0.4572004
0.6192566 -0.2721246 -0.4521652
0.5803261 -0.2650536 -0.4501511
0.5778143 -0.2277097 -0.4511581
0.576975 -0.2151144 -0.4531722
0.6133958 -0.1821898 -0.4521652
0.6125585 -0.1695945 -0.4592145
0.6406087 -0.1324715 -0.4572004
0.6313968 -0.1242957 -0.4521652
0.6692848 -0.09490664 -0.4561934
0.6684455 -0.08186941 -0.4501511
0.3291484 -0.0575627 -0.4501511
0.3283091 -0.04518838 -0.4541793
0.3274718 -0.03237211 -0.4531722
0.6866559 -0.03259308 -0.4551863
0.714074 0.018451 -0.4501511
0.7400332 0.08164844 -0.4582075
0.7680793 0.1209811 -0.4521652
0.4088953 0.1488233 -0.4582075
0.7661976 0.1459507 -0.4592145
0.7756146 0.1446249 -0.4572004
0.4390387 0.1574412 -0.4592145
0.7954995 0.158325 -0.4521652
0.408058 0.1614186 -0.4582075
0.8034535 0.1790962 -0.4551863
0.8026162 0.1916915 -0.4582075
0.7919412 0.2087062 -0.4521652
0.3948691 0.2168821 -0.4521652
0.404081 0.224837 -0.4572004
0.820408 0.2343387 -0.4541793
0.8195707 0.247155 -0.4501511
0.8291971 0.2520164 -0.4582075
0.8176869 0.2723456 -0.4521652
0.4204076 0.2926748 -0.4521652
0.8467816 0.2979781 -0.4551863
0.8568287 0.2995249 -0.4551863
0.4195703 0.3052701 -0.4501511
0.8532704 0.3499061 -0.4561934
0.883621 0.3496851 -0.4572004
0.8727366 0.3647111 -0.4561934
0.8825744 0.3627223 -0.4551863
0.8800626 0.4007292 -0.4511581
0.8991103 0.4239311 -0.4511581
0.5891152 -0.2701359 -0.449144
0.6186286 -0.2590874 -0.4431017
0.5786495 -0.240084 -0.448137
0.6177914 -0.2460502 -0.4410876
0.5482988 -0.239642 -0.4441088
0.5857641 -0.2190918 -0.4441088
0.5761377 -0.2025191 -0.448137
0.6043952 -0.1706994 -0.4441088
0.6330713 -0.1497072 -0.448137
0.6416532 -0.1452878 -0.448137
0.6352691 -0.1157883 -0.448137
0.6598636 -0.09601149 -0.448137
0.6581891 -0.07059994 -0.4420947
0.6676083 -0.06927411 -0.4471299
0.6667731 -0.05623688 -0.4420947
0.3268418 -0.01977682 -0.448137
0.7247512 -0.001878246 -0.4461229
0.7214021 0.04894487 -0.4400806
0.4021972 0.1039664 -0.4431017
0.7653582 0.158767 -0.4471299
0.7747774 0.1574412 -0.4471299
0.9893249 0.151475 -0.4420947
0.4285729 0.1671638 -0.4471299
0.7946622 0.1711413 -0.448137
0.7731029 0.1832947 -0.4400806
0.4051297 0.2124627 -0.4441088
0.8009417 0.217324 -0.4420947
0.3942432 0.2296984 -0.4420947
0.4229193 0.2555519 -0.4400806
0.8187314 0.2599713 -0.4410876
0.4017785 0.2632858 -0.4471299
0.8285713 0.2650536 -0.4410876
0.3900569 0.2926748 -0.4420947
0.8266874 0.2900232 -0.4461229
0.418733 0.3180864 -0.4431017
0.8765043 0.3147719 -0.4461229
0.4287781 0.3220639 -0.448137
0.8448957 0.3236107 -0.4410876
0.8718994 0.3773064 -0.449144
0.8808999 0.3881339 -0.449144
0.87106 0.3901227 -0.4461229
0.8999476 0.4115567 -0.4410876
0.9066457 0.453762 -0.4431017
0.9891157 0.5567341 -0.4451158
0.5558342 -0.3525577 -0.4360524
0.5549969 -0.3397415 -0.4330312
0.5625322 -0.3293559 -0.4390735
0.5794867 -0.2522373 -0.4390735
0.6169562 -0.232792 -0.4330312
0.6161168 -0.2199757 -0.4320242
0.5849289 -0.2060546 -0.4390735
0.2100463 -0.1921335 -0.4340383
0.5840917 -0.1930173 -0.4350453
0.6144444 -0.1945641 -0.4390735
0.6035579 -0.1576621 -0.4340383
0.6119284 -0.1558944 -0.4320242
0.6027207 -0.1452878 -0.4370594
0.6110933 -0.1435201 -0.4380665
0.632234 -0.13667 -0.4380665
0.6297223 -0.0988841 -0.4350453
0.6592357 -0.08319522 -0.4380665
0.6575611 -0.05778367 -0.4300101
0.6659337 -0.04297868 -0.4320242
0.3174247 -0.01690421 -0.4340383
0.7195183 0.07501934 -0.4390735
0.7383566 0.1075019 -0.4370594
0.7375172 0.1198763 -0.4380665
0.7473571 0.1234118 -0.4300101
0.4302453 0.1424152 -0.4330312
0.9884898 0.1645122 -0.4370594
0.4074301 0.1746768 -0.4370594
0.3754049 0.1978787 -0.4380665
0.3959177 0.2049497 -0.4310171
0.7911039 0.2219644 -0.4370594
0.8001065 0.2301403 -0.4360524
0.3934059 0.2425146 -0.4370594
0.7992672 0.2431775 -0.4360524
0.4028251 0.2511325 -0.4300101
0.3917314 0.2672633 -0.4380665
0.4220821 0.2681472 -0.4360524
0.7975948 0.2685891 -0.4310171
0.8559915 0.3127831 -0.4380665
0.4181072 0.3309027 -0.4350453
0.8524352 0.3633853 -0.4340383
0.4258497 0.3731079 -0.4320242
0.4241752 0.3987405 -0.4310171
0.9076901 0.4416087 -0.4300101
0.8963892 0.4621589 -0.4300101
0.9909995 0.5324274 -0.4300101
0.9803244 0.5507679 -0.4360524
0.1451587 -0.5527566 -0.4229607
0.5619043 -0.3158767 -0.4229607
0.5568829 -0.2392001 -0.4249748
0.6079535 -0.2201967 -0.4209466
0.2177909 -0.1859463 -0.4209466
0.6054417 -0.1826318 -0.429003
0.2380944 -0.1766656 -0.4229607
0.5746725 -0.1766656 -0.4239678
0.5834637 -0.1799801 -0.4229607
0.2450018 -0.1497072 -0.427996
0.6020927 -0.1322506 -0.4239678
0.610256 -0.1302619 -0.429003
0.6012576 -0.1194343 -0.4209466
0.6383042 -0.09335985 -0.4249748
0.239769 -0.06065628 -0.4219537
0.6366296 -0.0686112 -0.4269889
0.6567239 -0.04518838 -0.4269889
0.7188903 0.0878356 -0.4239678
0.4310826 0.1300409 -0.429003
0.7368914 0.1326925 -0.4219537
0.7647303 0.1720252 -0.4269889
0.7741473 0.1709203 -0.427996
0.763893 0.1848415 -0.4209466
0.7929878 0.1972158 -0.4219537
0.392778 0.2551099 -0.4269889
0.7967554 0.2816263 -0.4209466
0.8168496 0.2858248 -0.427996
0.8160103 0.2984201 -0.4259819
0.8258501 0.3032814 -0.427996
0.4298267 0.3101315 -0.4259819
0.8551563 0.3255994 -0.4249748
0.8442699 0.3368689 -0.4259819
0.4172678 0.343498 -0.427996
0.4164306 0.3560933 -0.4239678
0.842386 0.3613965 -0.427996
0.8515959 0.3762015 -0.4269889
0.4149654 0.3812838 -0.4239678
0.4132909 0.4064744 -0.427996
0.8702249 0.4031599 -0.4259819
0.8693876 0.4157552 -0.4229607
0.8792254 0.4139874 -0.4269889
0.8974358 0.4495636 -0.4249748
0.9244374 0.4935366 -0.4239678
0.9338545 0.5019335 -0.4239678
0.9537414 0.5070158 -0.4259819
0.9526949 0.5196111 -0.427996
0.9832569 0.5134239 -0.4209466
0.9918367 0.520053 -0.4259819
0.981371 0.5386145 -0.4239678
0.9794872 0.5633631 -0.4259819
0.9776033 0.5883328 -0.4229607
0.2108835 -0.2040658 -0.4169184
0.606279 -0.1945641 -0.4108761
0.5755098 -0.1890399 -0.4159114
0.2094183 -0.1790962 -0.4179255
0.235792 -0.1386587 -0.4169184
0.2349568 -0.1262844 -0.4179255
0.6096281 -0.1167827 -0.4108761
0.6087908 -0.1044084 -0.4118832
0.6393508 -0.1061761 -0.4199396
0.6290943 -0.08584687 -0.4169184
0.6376762 -0.08076455 -0.4199396
0.6282571 -0.07303061 -0.4108761
0.6274219 -0.06065628 -0.4138973
0.2389317 -0.04761905 -0.4128902
0.7126109 0.04496741 -0.4159114
0.7090526 0.09534858 -0.4108761
0.749241 0.09866313 -0.4118832
0.2791201 0.121865 -0.4159114
0.7674513 0.1349022 -0.4149043
0.2864462 0.1494862 -0.4179255
0.306331 0.1594299 -0.4138973
0.7940343 0.1848415 -0.4189325
0.374777 0.2111369 -0.4118832
0.3115639 0.2341178 -0.4138973
0.790476 0.2350017 -0.4159114
0.3107266 0.2467131 -0.4159114
0.3098894 0.2595293 -0.4149043
0.7986392 0.2564358 -0.4189325
0.7885922 0.2604132 -0.4118832
0.8151751 0.3114573 -0.4128902
0.8241757 0.3289139 -0.4189325
0.4283615 0.335764 -0.4179255
0.4158005 0.3689095 -0.4159114
0.8507586 0.3894597 -0.4149043
0.8982731 0.4371893 -0.4189325
0.9060177 0.4672412 -0.4159114
0.9619047 0.5313225 -0.4118832
0.9510204 0.5450227 -0.4179255
0.9901622 0.5452436 -0.4179255
0.9591836 0.5688874 -0.4128902
0.9863945 0.5958458 -0.4118832
0.9757174 0.6135234 -0.4169184
0.1868123 -0.2783118 -0.4058409
0.2117187 -0.2159982 -0.4018127
0.6073256 -0.2069385 -0.4038268
0.2186282 -0.1983206 -0.4098691
0.2460484 -0.1614186 -0.4048338
0.2366292 -0.151033 -0.4098691
0.5811613 -0.1413103 -0.407855
0.2429108 -0.1108165 -0.4058409
0.6004182 -0.1063971 -0.408862
0.2420714 -0.09822119 -0.4048338
0.606279 -0.06618053 -0.4038268
0.7100991 0.08297426 -0.4048338
0.2799574 0.1097116 -0.4008057
0.7084246 0.1083858 -0.4008057
0.7182624 0.1008728 -0.4048338
0.7174251 0.1134681 -0.4048338
0.2872855 0.1373329 -0.4068479
0.7465199 0.13667 -0.4098691
0.3163761 0.158767 -0.4018127
0.3978016 0.180643 -0.4058409
0.7724749 0.1969948 -0.4028198
0.3031892 0.210032 -0.4068479
0.3124012 0.2217434 -0.4038268
0.7708004 0.2217434 -0.407855
0.3425404 0.2343387 -0.4058409
0.7879642 0.2732295 -0.4008057
0.4005226 0.2900232 -0.4008057
0.7961275 0.2948845 -0.4018127
0.426687 0.3611756 -0.4098691
0.4252218 0.3865871 -0.4058409
0.8501286 0.402055 -0.4038268
0.4235452 0.4117777 -0.4098691
0.8785996 0.4272456 -0.4068479
0.3806378 0.4442603 -0.4028198
0.3599156 0.4515523 -0.4028198
0.9032966 0.505248 -0.4008057
0.9824176 0.5262402 -0.407855
0.9520648 0.5326483 -0.408862
0.9610674 0.5439178 -0.408862
0.9501831 0.557618 -0.407855
0.9493479 0.5704342 -0.4018127
0.9583464 0.5817037 -0.4068479
0.9572977 0.594078 -0.4048338
0.9855573 0.6082201 -0.4098691
0.9972789 0.7158325 -0.4068479
0.9953951 0.7410231 -0.4018127
0.04992051 -0.3943211 -0.3957704
0.04761805 -0.3565352 -0.3927492
0.1884869 -0.3028395 -0.3987916
0.2376779 -0.1631864 -0.3967775
0.5740446 -0.1631864 -0.3977845
0.2336988 -0.1004309 -0.3937563
0.6079535 -0.09137112 -0.3987916
0.2322336 -0.07546128 -0.3907351
0.6073256 -0.07855485 -0.3907351
0.6360017 -0.05491106 -0.3987916
0.6353759 -0.04253674 -0.3997986
0.2889579 0.1119213 -0.3927492
0.7484037 0.1119213 -0.3997986
0.7165858 0.1265054 -0.3937563
0.7360541 0.1461717 -0.3997986
0.2858182 0.1627444 -0.3977845
0.7450547 0.1623025 -0.3967775
0.3042379 0.1978787 -0.3907351
0.3969643 0.1934593 -0.3947634
0.3132384 0.2093691 -0.3957704
0.7716355 0.2095901 -0.3987916
0.7613812 0.2232902 -0.3907351
0.7699631 0.2345597 -0.3977845
0.3316581 0.2480389 -0.3987916
0.7896408 0.2484808 -0.3927492
0.3308209 0.2606342 -0.3937563
0.4015692 0.2776489 -0.3907351
0.787129 0.2862667 -0.3917422
0.7860804 0.2984201 -0.3947634
0.8252222 0.3167606 -0.3997986
0.8145472 0.3242736 -0.3967775
0.8134985 0.3366479 -0.3997986
0.8235477 0.3423931 -0.3957704
0.8227105 0.3547674 -0.3987916
0.3513337 0.4263617 -0.3957704
0.3615901 0.4265827 -0.3967775
0.8777602 0.4405038 -0.3947634
0.8957613 0.4756381 -0.3997986
0.9051805 0.4802784 -0.3977845
0.9043432 0.4928737 -0.3987916
0.9236001 0.5070158 -0.3987916
0.9332286 0.5151917 -0.3997986
0.9208791 0.5445807 -0.3907351
0.9602302 0.556955 -0.3967775
0.947462 0.5956248 -0.3937563
0.974045 0.6393769 -0.3977845
0.9838828 0.6336316 -0.3997986
0.9828362 0.6462269 -0.3997986
0.9721611 0.6647884 -0.3907351
0.04699011 -0.3437189 -0.3867069
0.2159071 -0.2780908 -0.3856999
0.5997903 -0.09313888 -0.387714
0.5981157 -0.06772732 -0.3856999
0.6267919 -0.04717711 -0.3846928
0.3203551 0.09623246 -0.388721
0.7458919 0.1499282 -0.3867069
0.3059103 0.1726881 -0.388721
0.7343796 0.1715833 -0.3856999
0.7632651 0.1983206 -0.387714
0.7624278 0.2111369 -0.3826787
0.7597067 0.2489228 -0.3846928
0.3301929 0.2734504 -0.3806646
0.8126633 0.3494641 -0.3897281
0.8118261 0.3622804 -0.3826787
0.8218732 0.3678047 -0.3856999
0.8109888 0.3748757 -0.3806646
0.821038 0.3806209 -0.3846928
0.8409208 0.3881339 -0.3816717
0.8398743 0.4002873 -0.388721
0.3919429 0.4290134 -0.3867069
0.8687597 0.4296763 -0.3806646
0.3816822 0.4321069 -0.3856999
0.9026687 0.5182853 -0.3856999
0.9227629 0.5196111 -0.3897281
0.9323913 0.5282289 -0.3836858
0.9016221 0.5308806 -0.3826787
0.9219256 0.5322064 -0.3816717
0.9313447 0.5408242 -0.3897281
0.9200418 0.5573969 -0.3816717
0.9305075 0.5536405 -0.3806646
0.9296703 0.5660148 -0.3826787
0.9286216 0.5786101 -0.3826787
0.9788592 0.5768424 -0.3856999
0.9884898 0.5708761 -0.3897281
0.9876505 0.5836924 -0.3846928
0.9269491 0.6038007 -0.3816717
0.9466268 0.6084411 -0.3846928
0.9564626 0.6073362 -0.3897281
0.9769754 0.6020329 -0.3836858
0.9847201 0.6214783 -0.3897281
0.9732077 0.6524141 -0.3867069
0.9811617 0.6716385 -0.3867069
0.9803244 0.6842338 -0.3806646
0.9964437 0.7286488 -0.3867069
0.9945578 0.7536184 -0.3897281
0.992674 0.778809 -0.3856999
0.9907901 0.8037786 -0.3836858
0.2173723 -0.1720252 -0.3756294
0.5989509 -0.07988068 -0.3766364
0.6856093 0.1280521 -0.3746223
0.7157506 0.1395426 -0.3786505
0.7050756 0.1592089 -0.3776435
0.7442174 0.1755607 -0.3786505
0.742545 0.2011932 -0.3766364
0.3027727 0.2232902 -0.3796576
0.7607533 0.2365485 -0.3726082
0.7580322 0.2743343 -0.3716012
0.7952902 0.3085847 -0.3726082
0.7854524 0.3114573 -0.3766364
0.794453 0.32118 -0.3766364
0.8419695 0.3753176 -0.3796576
0.3791705 0.4698928 -0.3796576
0.3586597 0.4771848 -0.3766364
0.8991103 0.5688874 -0.3736153
0.9485086 0.5836924 -0.3705942
0.9277864 0.5916473 -0.3705942
0.9457875 0.6212573 -0.3716012
0.9558346 0.6203734 -0.3705942
0.9447409 0.6338526 -0.3705942
0.9547859 0.6327478 -0.3716012
0.9539508 0.6451221 -0.3786505
0.9713239 0.6773837 -0.3786505
0.9794872 0.69705 -0.3736153
0.9784406 0.7096453 -0.3716012
0.9757174 0.7472103 -0.3766364
0.9746729 0.7598056 -0.3776435
0.9916274 0.7916253 -0.3786505
0.2167464 -0.158988 -0.366566
0.6050231 -0.03944315 -0.367573
0.28833 0.1254005 -0.3685801
0.7077966 0.121865 -0.367573
0.6753529 0.1463927 -0.3625378
0.6849834 0.1408684 -0.3685801
0.6841441 0.1536847 -0.3615307
0.7142854 0.1651751 -0.3695871
0.7435895 0.1888189 -0.3625378
0.7329144 0.1974367 -0.3695871
0.7117736 0.2036239 -0.3615307
0.7417057 0.2140095 -0.3695871
0.333542 0.2235112 -0.3685801
0.7310306 0.2228483 -0.3605237
0.7693352 0.2480389 -0.366566
0.7588695 0.26196 -0.3615307
0.7571949 0.2869296 -0.3625378
0.7563577 0.2995249 -0.3615307
0.7837779 0.3368689 -0.3635448
0.7936157 0.3337753 -0.3645519
0.3802191 0.4579605 -0.3625378
0.8913656 0.5392774 -0.3645519
0.9009941 0.5439178 -0.367573
0.9192045 0.5702133 -0.3695871
0.9183673 0.5828086 -0.3635448
0.9173207 0.5954039 -0.3645519
0.9164834 0.6079991 -0.3655589
0.9261119 0.6168379 -0.3635448
0.9753008 0.6276655 -0.3625378
0.9822083 0.6597061 -0.3625378
0.9512297 0.6833499 -0.3635448
0.940136 0.69705 -0.3655589
0.9704846 0.6904209 -0.367573
0.9686028 0.7153906 -0.367573
0.9675583 0.7282068 -0.3615307
0.9776033 0.7224616 -0.3615307
0.976766 0.7350569 -0.3615307
0.9656724 0.7527345 -0.3685801
0.9937227 0.7668766 -0.366566
0.9729963 0.7852171 -0.3645519
0.9721611 0.7980334 -0.3625378
0.9899529 0.8170368 -0.3655589
0.1585549 -0.2880345 -0.3595166
0.2789108 0.136228 -0.3575025
0.6833068 0.1667219 -0.3564955
0.7356355 0.1600928 -0.3595166
0.7042383 0.1724671 -0.3554884
0.7134482 0.1786543 -0.3564955
0.7337517 0.1852834 -0.3575025
0.7320793 0.210474 -0.3595166
0.3021447 0.2367694 -0.3514602
0.7301933 0.2356646 -0.3575025
0.7391939 0.2522373 -0.3575025
0.7555204 0.3121202 -0.3595166
0.7651489 0.3123412 -0.3534743
0.7846131 0.3244945 -0.3595166
0.3525896 0.4150923 -0.3564955
0.9001569 0.5565131 -0.3585096
0.8974358 0.5945199 -0.3534743
0.9156462 0.6205944 -0.3544814
0.9252747 0.6296542 -0.3544814
0.9439037 0.6466689 -0.3595166
0.9503924 0.6963871 -0.3514602
0.9995814 0.6921887 -0.3534743
0.9696494 0.7030162 -0.3595166
0.9985348 0.704784 -0.3504532
0.9476713 0.733952 -0.3554884
0.966719 0.7405812 -0.3595166
0.9346938 0.7721798 -0.3514602
0.9639978 0.778367 -0.3514602
0.974045 0.7728428 -0.3554884
0.9430664 0.7964866 -0.3534743
0.7211928 0.06507568 -0.3454179
0.7069594 0.1353442 -0.3413897
0.6824717 0.1793172 -0.3484391
0.7036083 0.1852834 -0.3423968
0.6816323 0.1919125 -0.347432
0.7027731 0.1978787 -0.3423968
0.7402384 0.240084 -0.3454179
0.7276816 0.2738924 -0.3403827
0.7659861 0.2997459 -0.3413897
0.7358449 0.3030604 -0.3494461
0.7350055 0.3158767 -0.3444109
0.7643116 0.3251574 -0.3413897
0.7538459 0.3377527 -0.3413897
0.7634765 0.3377527 -0.3423968
0.7929878 0.3468125 -0.3484391
0.7921505 0.3596288 -0.3444109
0.3611715 0.4407248 -0.3403827
0.8924122 0.5273451 -0.3434038
0.8984824 0.5821456 -0.3494461
0.88697 0.6026958 -0.3403827
0.8965985 0.6073362 -0.3434038
0.9236001 0.6552867 -0.346425
0.9430664 0.6594852 -0.3484391
0.9533228 0.6588222 -0.3413897
0.9422292 0.6723014 -0.3403827
0.9522762 0.6711966 -0.3494461
0.9411826 0.6846758 -0.3444109
0.9487179 0.7215777 -0.347432
0.9457875 0.7591426 -0.346425
0.9650465 0.7659927 -0.3454179
0.9336493 0.7847751 -0.346425
0.944115 0.7841123 -0.3444109
0.9713239 0.8106287 -0.3494461
0.9704846 0.8232239 -0.3423968
0.880272 0.8338305 -0.3413897
0.7063314 0.1479395 -0.3303122
0.715332 0.1534637 -0.3383686
0.7128202 0.1919125 -0.3313192
0.7111478 0.2168821 -0.3363545
0.7410777 0.2274887 -0.3383686
0.700052 0.2356646 -0.3353474
0.6992148 0.2480389 -0.3333333
0.7295675 0.2489228 -0.3393756
0.7285188 0.2612971 -0.3393756
0.7385659 0.2654955 -0.3313192
0.7687094 0.26196 -0.3303122
0.7377287 0.2780908 -0.3373615
0.7268464 0.2864877 -0.3383686
0.7341703 0.328472 -0.3373615
0.7626371 0.350569 -0.3373615
0.78315 0.3501271 -0.3313192
0.7617999 0.3631643 -0.3333333
0.7913132 0.3722241 -0.3393756
0.3511244 0.4407248 -0.3343404
0.350285 0.4528781 -0.3383686
0.8878073 0.5903215 -0.3353474
0.894924 0.6327478 -0.3373615
0.9148089 0.6336316 -0.3343404
0.9244374 0.6429124 -0.3393756
0.912923 0.6588222 -0.3363545
0.9495531 0.7092034 -0.3393756
0.939508 0.7100873 -0.3393756
0.9365776 0.7478732 -0.3313192
0.9468319 0.7467683 -0.3373615
0.9162741 0.7562701 -0.3323263
0.9357404 0.7598056 -0.3373615
0.9451596 0.7717379 -0.3313192
0.9145996 0.7810187 -0.3333333
0.7010986 0.2235112 -0.327291
0.7103084 0.2296984 -0.326284
0.708636 0.2551099 -0.3232628
0.6983754 0.2608552 -0.3282981
0.7680793 0.2747763 -0.3232628
0.7061201 0.2928958 -0.3222558
0.7368914 0.291128 -0.3282981
0.7251698 0.3118992 -0.3222558
0.7243346 0.3242736 -0.326284
0.7548925 0.3258204 -0.3222558
0.7316585 0.3669208 -0.3242699
0.7823127 0.3629433 -0.3212487
0.7812662 0.3755386 -0.3242699
0.3599156 0.4661363 -0.3293051
0.8702249 0.5551873 -0.327291
0.8907377 0.5529776 -0.3232628
0.8957613 0.6203734 -0.3282981
0.9139717 0.6462269 -0.3282981
0.9376242 0.7354988 -0.3212487
0.9045525 0.7719589 -0.3252769
0.9026687 0.7967076 -0.3293051
0.9137623 0.793614 -0.327291
0.9330193 0.7978124 -0.3222558
0.767242 0.2875925 -0.3162135
0.7262164 0.2997459 -0.3162135
0.7234952 0.3373108 -0.3101712
0.7335424 0.3419512 -0.3111782
0.7327051 0.3543255 -0.3162135
0.7532158 0.3510109 -0.3101712
0.7611698 0.3762015 -0.3121853
0.8693876 0.5682245 -0.3162135
0.9229722 0.6683239 -0.3152064
0.9219256 0.6806983 -0.3162135
0.9386708 0.7231245 -0.3192346
0.9633699 0.7918462 -0.3141994
0.7052849 0.3059331 -0.3041289
0.8287806 0.5660148 -0.3021148
0.9122971 0.6720805 -0.30715
0.9114599 0.6848967 -0.3001007
0.9104133 0.697271 -0.3001007
0.9194139 0.7187051 -0.30715
0.9085295 0.7224616 -0.3011078
0.907485 0.734615 -0.3081571
0.9183673 0.7317423 -0.3021148
0.9066457 0.7472103 -0.306143
0.9614861 0.8168158 -0.306143
0.7523807 0.3640482 -0.2940584
0.7515435 0.3766435 -0.2940584
0.8901098 0.5662358 -0.2960725
0.8890653 0.5786101 -0.2990937
0.9212977 0.6939565 -0.2980866
0.9095761 0.7100873 -0.2920443
0.8888539 0.7215777 -0.2940584
0.8880166 0.734394 -0.2970796
0.8871794 0.7467683 -0.2970796
0.91753 0.7445586 -0.2930514
0.8861328 0.7593636 -0.2940584
0.9426478 0.8104077 -0.2990937
0.7228673 0.35079 -0.284995
0.9204625 0.7067727 -0.2880161
0.8852955 0.7719589 -0.2890232
0.9039245 0.7852171 -0.2880161
0.9158555 0.7701911 -0.2719033
0.7452661 0.8903989 -0.2749245
0.9060177 0.7609104 -0.2668681
0.3396142 0.8068722 -0.2356495
0.1941383 -0.2224064 -0.1359517
0.1861844 -0.217987 -0.1299094
0.2799574 0.1563363 -0.1238671
0.3117732 0.2809634 -0.1248741
0.3356351 0.3934372 -0.1238671
0.1935104 -0.2093691 -0.1198389
0.2096276 -0.1311457 -0.1148036
0.2328616 -0.040548 -0.1117825
0.2644681 0.07413545 -0.1188318
0.2994237 0.3189703 -0.1107754
0.3262159 0.3812838 -0.1107754
0.333542 0.4312231 -0.1137966
0.351543 0.4716606 -0.1168177
0.2089976 -0.1181085 -0.1007049
0.2322336 -0.02773174 -0.101712
0.237883 0.02618495 -0.102719
0.2638423 0.08717269 -0.1007049
0.2540024 0.09556955 -0.1097684
0.2787015 0.1817479 -0.1057402
0.2874906 0.1846205 -0.1097684
0.2747245 0.2442824 -0.102719
0.3034006 0.2566567 -0.1077543
0.3019354 0.2816263 -0.1067472
0.3276811 0.3565352 -0.1077543
0.3245414 0.4064744 -0.1047331
0.3350072 0.4066954 -0.1007049
0.3343813 0.4190697 -0.102719
0.3507057 0.4844769 -0.1097684
0.1855544 -0.2045078 -0.09667674
0.2081624 -0.1055132 -0.09969789
0.2339081 -0.05292233 -0.09869084
0.2129767 -0.04828196 -0.09869084
0.2313964 -0.01513645 -0.09969789
0.2370479 0.03900122 -0.09466264
0.2550489 0.08341619 -0.09768379
0.2632122 0.09998895 -0.09566969
0.2533765 0.1088278 -0.09365559
0.2525372 0.121644 -0.09466264
0.2615377 0.1251795 -0.09466264
0.2609097 0.1379958 -0.09365559
0.2795408 0.1698155 -0.09365559
0.2860275 0.210032 -0.09164149
0.3010982 0.2944426 -0.09566969
0.3096801 0.3196332 -0.09768379
0.2987957 0.3322285 -0.09264854
0.3088428 0.3320075 -0.09969789
0.3270532 0.3695724 -0.09164149
0.325588 0.3943211 -0.09365559
0.332914 0.4444813 -0.09164149
0.1914173 -0.1698155 -0.08056395
0.2113022 -0.1547895 -0.0835851
0.2184189 -0.136449 -0.08761329
0.2075345 -0.09247597 -0.08660624
0.2410249 -0.02397525 -0.08962739
0.2387224 0.0140316 -0.08559919
0.2293032 0.02264943 -0.08962739
0.2575607 0.04629323 -0.08056395
0.2519092 0.1340183 -0.08862034
0.251072 0.1468346 -0.0835851
0.2594445 0.1636283 -0.081571
0.2496067 0.1720252 -0.081571
0.2780735 0.1947851 -0.08862034
0.2755618 0.23235 -0.0835851
0.2839344 0.2482599 -0.08559919
0.2740966 0.2575406 -0.081571
0.3027727 0.269694 -0.08660624
0.3105173 0.3072589 -0.08459215
0.2981678 0.3450447 -0.08559919
0.308217 0.3450447 -0.08761329
0.3050751 0.395205 -0.08559919
0.1851378 -0.1914705 -0.07653575
0.1922545 -0.1819688 -0.07049345
0.1843006 -0.1788753 -0.07854985
0.1901614 -0.143962 -0.07049345
0.2106742 -0.1421942 -0.07854985
0.1893241 -0.1315877 -0.0755287
0.205232 -0.05469009 -0.0795569
0.2037647 -0.0294995 -0.07653575
0.2309777 -0.001657275 -0.07049345
0.2301405 0.01071705 -0.0755287
0.235792 0.06507568 -0.0795569
0.2579793 0.1892609 -0.0715005
0.2774456 0.2078223 -0.0715005
0.3006774 0.3077008 -0.0755287
0.3067497 0.3704563 -0.07452165
0.3239156 0.4197326 -0.0795569
0.3224483 0.4451442 -0.07250755
0.3322861 0.4575185 -0.0775428
0.3314488 0.4698928 -0.0795569
0.3306116 0.4829301 -0.07653575
0.350285 0.498177 -0.07049345
0.1392979 -0.2606342 -0.06344411
0.1836726 -0.165838 -0.06445116
0.1907872 -0.1565573 -0.06545821
0.1819981 -0.1408684 -0.06646526
0.2177909 -0.1231908 -0.06747231
0.1805329 -0.1156778 -0.06243706
0.2069065 -0.07921777 -0.06847936
0.2060693 -0.06662247 -0.06747231
0.2403948 -0.01049608 -0.06847936
0.2110928 -0.008949287 -0.06042296
0.239769 0.002099216 -0.06646526
0.2286753 0.03590763 -0.06545821
0.227838 0.0487239 -0.06646526
0.2272122 0.06087725 -0.06646526
0.2263728 0.07325158 -0.06545821
0.2255356 0.08584687 -0.06344411
0.2328616 0.1158988 -0.06344411
0.2602818 0.151475 -0.06545821
0.250444 0.1603138 -0.06042296
0.2588145 0.1771075 -0.06243706
0.2856089 0.2232902 -0.06243706
0.2833064 0.2610761 -0.06545821
0.2734686 0.2703569 -0.06445116
0.3115639 0.2955475 -0.06143001
0.3075869 0.358303 -0.06545821
0.3059103 0.3830516 -0.06847936
0.295028 0.3954259 -0.06646526
0.3044472 0.4082422 -0.0694864
0.3232855 0.4329908 -0.06545821
0.1118777 -0.2831731 -0.05538771
0.193299 -0.1941222 -0.05135952
0.1886962 -0.1181085 -0.05236657
0.212558 -0.0339189 -0.05236657
0.2031389 -0.01602033 -0.05538771
0.2368385 0.0531433 -0.05035247
0.2569328 0.05955143 -0.05639476
0.2560934 0.07214672 -0.05840886
0.2343268 0.09115015 -0.05740181
0.2336988 0.1037454 -0.05740181
0.2625843 0.1136891 -0.05840886
0.2766083 0.2204176 -0.05941591
0.2550489 0.2403049 -0.05337362
0.2728407 0.2831731 -0.05538771
0.2795408 0.3247155 -0.05639476
0.2694916 0.3331124 -0.05941591
0.2787015 0.3370898 -0.05538771
0.2975398 0.3585239 -0.05236657
0.2969119 0.3711192 -0.05135952
0.2935628 0.4208375 -0.05337362
0.3195179 0.4957463 -0.05035247
0.1627411 -0.1638493 -0.04531722
0.1830447 -0.1528008 -0.04733132
0.1604387 -0.1256215 -0.04128902
0.1813702 -0.1273892 -0.04229607
0.179905 -0.1026406 -0.04733132
0.1880661 -0.1050713 -0.04128902
