# .PCD v.7 - Point Cloud Data file format
VERSION .7
FIELDS x y z
SIZE 4 4 4
TYPE F F F
COUNT 1 1 1
WIDTH 1463
HEIGHT 1
VIEWPOINT 0 0 0 1 0 0 0
POINTS 1463
DATA ascii
-0.9960251 -0.3392995 -0.7311178
-0.9972789 -0.313888 -0.7371601
-0.9985369 -0.2880345 -0.7301108
-0.9725819 -0.2761021 -0.7381672
-0.9753029 -0.225058 -0.7381672
-0.9853501 -0.1779914 -0.7331319
-0.986608 -0.1528008 -0.7331319
-0.9918409 -0.4155342 -0.7240685
-0.994562 -0.3642691 -0.7220544
-0.9979089 -0.3008507 -0.7270896
-0.9531156 -0.2807425 -0.7200403
-0.9539528 -0.2683681 -0.7200403
-0.9738356 -0.2500276 -0.7200403
-0.9552109 -0.2431775 -0.7240685
-0.9476713 -0.2447243 -0.7210473
-0.9744657 -0.2376533 -0.7280967
-0.9566739 -0.2182079 -0.7230614
-0.9489293 -0.2195338 -0.7280967
-0.9838849 -0.202961 -0.7260826
-0.9497666 -0.2064965 -0.7260826
-0.9579319 -0.1930173 -0.7250755
-0.9510224 -0.1813059 -0.7291037
-0.9784427 -0.1609767 -0.7230614
-0.9555227 -0.1679372 -0.7275932
-0.93344 -0.1550105 -0.7200403
-0.934068 -0.1424152 -0.7220544
-0.9799079 -0.1357861 -0.7280967
-0.9884898 -0.1147939 -0.7200403
-0.9893292 -0.1024196 -0.7220544
-0.9985369 -0.4197326 -0.7190332
-0.9958158 -0.4045961 -0.7170191
-0.9755123 -0.3532206 -0.7190332
-0.9740471 -0.3145509 -0.715005
-0.9711146 -0.3006298 -0.7160121
-0.9462082 -0.269694 -0.713998
-0.9545808 -0.2555519 -0.7170191
-0.9558367 -0.2303613 -0.7190332
-0.9483014 -0.2316871 -0.7160121
-0.9824197 -0.2274887 -0.7109768
-0.9223464 -0.2206386 -0.713998
-0.9307189 -0.2051707 -0.7190332
-0.9501831 -0.1932383 -0.713998
-0.9313469 -0.1925754 -0.7170191
-0.9845128 -0.1899238 -0.7160121
-0.9244395 -0.1824108 -0.7190332
-0.9585578 -0.1799801 -0.7160121
-0.9070663 -0.1534637 -0.7119839
-0.9529042 -0.1424152 -0.7160121
-0.9872339 -0.1397636 -0.7190332
-0.9805358 -0.1225279 -0.715005
-0.9091595 -0.1156778 -0.7180262
-0.9817917 -0.09711634 -0.7180262
-0.9905829 -0.07678709 -0.715005
-0.9912109 -0.0641918 -0.7129909
-0.9648372 -0.06706441 -0.715005
-0.9876525 -0.4917689 -0.7049345
-0.9882805 -0.4787316 -0.7029204
-0.9889084 -0.4659154 -0.7059416
-0.9897457 -0.4530991 -0.7049345
-0.9910015 -0.4274666 -0.7079557
-0.9930947 -0.3892387 -0.7079557
-0.9761423 -0.3401834 -0.7099698
-0.9522783 -0.2926748 -0.7039275
-0.9468362 -0.2568777 -0.7049345
-0.9292516 -0.2299193 -0.7029204
-0.9298817 -0.217545 -0.7099698
-0.9570926 -0.2049497 -0.7039275
-0.9229743 -0.2076014 -0.7089627
-0.9049732 -0.1903657 -0.7009063
-0.960023 -0.1545686 -0.7089627
-0.9522783 -0.1545686 -0.7059416
-0.9263233 -0.143741 -0.7099698
-0.899531 -0.1490443 -0.7009063
-0.9878618 -0.1269473 -0.7079557
-0.9083201 -0.1278312 -0.7029204
-0.9824197 -0.08407911 -0.7059416
-0.9830476 -0.07126284 -0.7079557
-0.9836755 -0.05844658 -0.7069486
-0.993304 -0.02640592 -0.7069486
-0.9939319 -0.01381063 -0.7019134
-0.9903736 -0.4400619 -0.6968781
-0.9976996 -0.431444 -0.6978852
-0.9935133 -0.3762015 -0.693857
-0.9688142 -0.3386366 -0.6988922
-0.9696515 -0.3258204 -0.6978852
-0.944115 -0.3072589 -0.6958711
-0.9269512 -0.2672633 -0.693857
-0.9807451 -0.2515744 -0.6908358
-0.9202532 -0.2584245 -0.693857
-0.9208812 -0.2453873 -0.6908358
-0.921507 -0.232571 -0.6918429
-0.903508 -0.2151144 -0.6918429
-0.9041359 -0.20274 -0.6908358
-0.9236022 -0.1945641 -0.6958711
-0.8980658 -0.1742349 -0.6968781
-0.9323934 -0.1665009 -0.6908358
-0.9788634 -0.1474975 -0.6988922
-0.900159 -0.1360071 -0.6968781
-0.8733667 -0.1377748 -0.6978852
-0.9007869 -0.1231908 -0.6928499
-0.9014149 -0.1105955 -0.6988922
-0.9897457 -0.08849851 -0.6908358
-0.958137 -0.03966413 -0.6958711
-0.9855594 -0.02021876 -0.6988922
-0.994562 -0.0007733952 -0.6928499
-0.9863966 -0.007623467 -0.6958711
-0.9692329 -0.4645895 -0.6837865
-0.9968624 -0.4433764 -0.6868076
-0.9704887 -0.4396199 -0.6827794
-0.9732098 -0.3896807 -0.6837865
-0.9740471 -0.3773064 -0.6898288
-0.9767681 -0.3269252 -0.6888217
-0.9514411 -0.3046072 -0.6827794
-0.9445337 -0.2942216 -0.6837865
-0.978652 -0.2893603 -0.6898288
-0.9187859 -0.2833941 -0.6807653
-0.9792799 -0.2763231 -0.6827794
-0.9263233 -0.2796376 -0.6898288
-0.9813752 -0.2389791 -0.6868076
-0.8968099 -0.1994255 -0.6878147
-0.8974379 -0.1866092 -0.6837865
-0.9317676 -0.1788753 -0.6888217
-0.9053919 -0.1773285 -0.6807653
-0.8792275 -0.1784333 -0.6807653
-0.9248581 -0.1687106 -0.6898288
-0.9062291 -0.1651751 -0.6878147
-0.8798555 -0.165838 -0.6827794
-0.8813207 -0.1406474 -0.6847935
-0.907485 -0.1399845 -0.6878147
-0.8819507 -0.1280521 -0.6827794
-0.8825765 -0.1156778 -0.6868076
-0.8832045 -0.1030825 -0.6837865
-0.9916295 -0.0509336 -0.6868076
-0.8513886 -0.05115457 -0.6807653
-0.9843014 -0.04518838 -0.6898288
-0.9924667 -0.0383383 -0.6888217
-0.967349 -0.01557839 -0.6858006
-0.9868132 0.005634736 -0.6807653
-0.9692329 0.02220749 -0.6888217
-0.9606488 -0.490885 -0.6706949
-0.9947671 -0.4804994 -0.6767372
-0.9683977 -0.4767429 -0.6777442
-0.9953972 -0.4679041 -0.6706949
-0.9960251 -0.4553088 -0.6747231
-0.9696515 -0.4517733 -0.6757301
-0.9658817 -0.3890178 -0.673716
-0.9667211 -0.3762015 -0.6757301
-0.9744657 -0.3640482 -0.672709
-0.967349 -0.3633853 -0.6767372
-0.9679769 -0.35079 -0.6787512
-0.9508131 -0.3169816 -0.6757301
-0.9780241 -0.3015136 -0.6767372
-0.9451616 -0.2814054 -0.6797583
-0.919416 -0.2705778 -0.6787512
-0.9801172 -0.2637278 -0.6777442
-0.9275792 -0.2540051 -0.6757301
-0.9282072 -0.2416308 -0.6787512
-0.9026707 -0.2270467 -0.672709
-0.8951375 -0.2246161 -0.6717019
-0.8698083 -0.2003094 -0.6717019
-0.8986938 -0.1607557 -0.6787512
-0.8804834 -0.1530218 -0.6747231
-0.8737853 -0.1247376 -0.6787512
-0.8551563 -0.1282731 -0.673716
-0.8746226 -0.1119213 -0.6787512
-0.8557863 -0.1154569 -0.6706949
-0.8566215 -0.1033035 -0.6787512
-0.8838325 -0.0900453 -0.6767372
-0.8765064 -0.07369351 -0.6797583
-0.8499234 -0.07634515 -0.6797583
-0.9650465 -0.05270136 -0.6717019
-0.9658817 -0.04032703 -0.6777442
-0.9847221 -0.03193017 -0.672709
-0.9677677 -0.002541156 -0.672709
-0.9686028 0.009833167 -0.6777442
-0.9949785 0.01226384 -0.6767372
-0.9874432 0.01867197 -0.6767372
-0.9991648 0.0878356 -0.6706949
-0.9612789 -0.4778478 -0.6656596
-0.9619068 -0.4652525 -0.6676737
-0.9625348 -0.4526572 -0.6686808
-0.9709094 -0.4263617 -0.6636455
-0.9637907 -0.4268037 -0.6646526
-0.9646279 -0.4139874 -0.6666667
-0.9430685 -0.3187493 -0.6606244
-0.9240187 -0.3163186 -0.6646526
-0.925486 -0.291349 -0.6676737
-0.9012055 -0.2520164 -0.6656596
-0.9018335 -0.2394211 -0.6666667
-0.8945075 -0.2369904 -0.6616314
-0.876923 -0.2153353 -0.6616314
-0.877553 -0.202961 -0.6606244
-0.8783903 -0.1905867 -0.6696878
-0.8704363 -0.1874931 -0.6616314
-0.925486 -0.1552315 -0.6696878
-0.8723201 -0.1497072 -0.6656596
-0.8478303 -0.114352 -0.6666667
-0.8572494 -0.09048724 -0.6696878
-0.8492955 -0.08871948 -0.6646526
-0.8578774 -0.07767098 -0.6676737
-0.8505535 -0.06330792 -0.6666667
-0.8254336 -0.04076898 -0.6656596
-0.9663024 -0.02751077 -0.6666667
-0.8086905 -0.003425036 -0.6606244
-0.9926761 0.1205392 -0.6616314
-0.9631648 -0.439178 -0.6596173
-0.9715353 -0.4135455 -0.652568
-0.9723725 -0.4013921 -0.6576032
-0.9650465 -0.4009502 -0.6545821
-0.9409754 -0.3565352 -0.6545821
-0.9416033 -0.343498 -0.6515609
-0.9231836 -0.328472 -0.653575
-0.9246488 -0.3037233 -0.6596173
-0.9179507 -0.2951055 -0.6545821
-0.8957633 -0.2111369 -0.6545821
-0.8689732 -0.2126837 -0.653575
-0.854319 -0.1402055 -0.6576032
-0.8275267 -0.1391007 -0.6505539
-0.8472024 -0.1267263 -0.6565962
-0.8289919 -0.114131 -0.6555891
-0.8227125 -0.09115015 -0.6505539
-0.8756692 -0.08562589 -0.6565962
-0.8308758 -0.07634515 -0.6515609
-0.8323431 -0.05137554 -0.6515609
-0.8258523 -0.02773174 -0.652568
-0.9914202 0.09534858 -0.6596173
-0.9997949 0.1006519 -0.6596173
-0.993304 0.1333554 -0.6565962
-0.9939319 0.1461717 -0.653575
-0.994562 0.158988 -0.652568
-0.9422333 -0.4663573 -0.6445116
-0.9457896 -0.4038228 -0.6424975
-0.9464175 -0.3912275 -0.6475327
-0.9424385 -0.3306817 -0.6495468
-0.8915771 -0.2873716 -0.6455186
-0.8997403 -0.276544 -0.6495468
-0.8760878 -0.2274887 -0.6465257
-0.8714849 -0.1616396 -0.6435046
-0.8528538 -0.1647332 -0.6465257
-0.8534797 -0.1521379 -0.6435046
-0.8463651 -0.1388797 -0.6414905
-0.8212473 -0.1165617 -0.6485398
-0.8484582 -0.1008728 -0.6495468
-0.8748319 -0.09777925 -0.6404834
-0.8302479 -0.08849851 -0.6435046
-0.8233405 -0.07811292 -0.6495468
-0.8317131 -0.06374986 -0.6495468
-0.8245943 -0.0531433 -0.6495468
-0.8335969 -0.02596398 -0.6465257
-0.8007345 0.004971826 -0.6445116
-0.8093164 0.01005414 -0.6404834
-0.934068 -0.4840349 -0.632427
-0.9470454 -0.3781902 -0.6344411
-0.9497666 -0.32803 -0.6364552
-0.900159 -0.2632858 -0.6304129
-0.8928329 -0.2612971 -0.6344411
-0.8668779 -0.2500276 -0.6394764
-0.8752505 -0.2394211 -0.6304129
-0.8507586 -0.2016352 -0.6304129
-0.8513886 -0.1892609 -0.6354482
-0.8708549 -0.173793 -0.6354482
-0.8455257 -0.151254 -0.63142
-0.825644 -0.1020882 -0.6349446
-0.858296 -0.06397083 -0.6394764
-0.8237591 -0.06529665 -0.6334341
-0.7973855 -0.05800464 -0.6374623
-0.8063839 -0.04010607 -0.632427
-0.7980134 -0.04518838 -0.63142
-0.8327596 -0.03811733 -0.6354482
-0.7986413 -0.03281405 -0.6384693
-0.8072233 -0.02751077 -0.6334341
-0.8264802 -0.01469451 -0.6384693
-0.8078512 -0.01513645 -0.6374623
-0.8013625 0.01800906 -0.6364552
-0.8019904 0.03060435 -0.6384693
-0.7852473 0.055353 -0.6374623
-0.940766 -0.4904431 -0.6203424
-0.941394 -0.4778478 -0.6213495
-0.9346959 -0.4712186 -0.6263847
-0.9428592 -0.4528781 -0.6243706
-0.9353238 -0.4581814 -0.6223565
-0.9361611 -0.4455861 -0.6294059
-0.9476713 -0.365153 -0.6253777
-0.9208812 -0.3647111 -0.6223565
-0.9141831 -0.3574191 -0.6213495
-0.9489293 -0.3401834 -0.6263847
-0.9150203 -0.3446028 -0.6223565
-0.9156483 -0.3320075 -0.6213495
-0.9162741 -0.3198542 -0.6283988
-0.8974379 -0.313446 -0.6283988
-0.9169042 -0.3068169 -0.6253777
-0.8907398 -0.2993039 -0.6233636
-0.8989031 -0.2886974 -0.6294059
-0.8934609 -0.2484808 -0.6263847
-0.8681338 -0.2243951 -0.6243706
-0.8520166 -0.1766656 -0.6263847
-0.8448999 -0.1638493 -0.6273918
-0.8266895 -0.151033 -0.6273918
-0.8197821 -0.1406474 -0.6203424
-0.8279454 -0.1256215 -0.6243706
-0.8030369 -0.1026406 -0.6223565
-0.8057581 -0.05225942 -0.6223565
-0.7992693 -0.01933488 -0.6223565
-0.809735 0.0228704 -0.6283988
-0.78378 0.03060435 -0.6253777
-0.7844079 0.04319965 -0.6273918
-0.7766633 0.04828196 -0.6203424
-0.7787564 0.08650978 -0.6223565
-0.8886467 0.1691526 -0.6273918
-0.9872339 0.3640482 -0.6213495
-0.938045 -0.4062535 -0.6163142
-0.9386729 -0.3934372 -0.612286
-0.9393008 -0.3806209 -0.6132931
-0.9202532 -0.3768644 -0.6102719
-0.948092 -0.3521158 -0.611279
-0.9217184 -0.3516738 -0.6163142
-0.8901098 -0.3114573 -0.612286
-0.8919957 -0.2734504 -0.6183283
-0.8660406 -0.262181 -0.6132931
-0.8746226 -0.2515744 -0.6163142
-0.8672966 -0.2365485 -0.6183283
-0.8460511 -0.213899 -0.6158106
-0.8428088 -0.2016352 -0.6163142
-0.8434347 -0.1888189 -0.6143001
-0.8440626 -0.1762236 -0.6163142
-0.8189449 -0.1536847 -0.6193354
-0.8042929 -0.07722904 -0.6193354
-0.7965482 -0.070158 -0.6193354
-0.8049208 -0.06463374 -0.6163142
-0.7802196 -0.03193017 -0.6102719
-0.7996879 -0.006739587 -0.6143001
-0.7823148 0.005855707 -0.612286
-0.7829427 0.018451 -0.6163142
-0.7760354 0.03590763 -0.6173213
-0.757825 0.04342062 -0.6173213
-0.7584529 0.05601591 -0.6132931
-0.759083 0.0686112 -0.6143001
-0.7515455 0.07104187 -0.6193354
-0.7605461 0.09380179 -0.6132931
-0.8063839 0.1203182 -0.612286
-0.9949785 0.1726881 -0.6132931
-0.9857687 0.3392995 -0.6153072
-0.9863966 0.3516738 -0.6143001
-0.9891177 0.402055 -0.6102719
-0.989955 0.4146503 -0.6143001
-0.9365798 -0.4321069 -0.6072508
-0.9372056 -0.4188488 -0.6032225
-0.91816 -0.4139874 -0.6072508
-0.9120899 -0.395205 -0.6072508
-0.9129272 -0.3823887 -0.6092649
-0.9133479 -0.3693514 -0.6012084
-0.922137 -0.3390785 -0.6082578
-0.8723201 -0.2884764 -0.6032225
-0.8490862 -0.2257209 -0.6012084
-0.8243892 -0.1874931 -0.6002014
-0.825015 -0.1748978 -0.6032225
-0.8258523 -0.1625235 -0.6042296
-0.8007345 -0.1395426 -0.6032225
-0.8202007 -0.1273892 -0.6022155
-0.795713 -0.08253232 -0.6032225
-0.7787564 -0.05645785 -0.6002014
-0.7739422 -0.002099216 -0.6042296
-0.7745702 0.01093802 -0.6002014
-0.7563618 0.01867197 -0.6072508
-0.7751981 0.02331234 -0.6092649
-0.7507083 0.05910949 -0.6002014
-0.7770819 0.06154016 -0.6002014
-0.7559412 0.08297426 -0.6057402
-0.7528014 0.09689537 -0.6082578
-0.8143399 0.1112584 -0.6032225
-0.8151772 0.1238537 -0.6082578
-0.8982751 0.1885979 -0.6052366
-0.94872 0.3032814 -0.6032225
-0.9759309 0.3178654 -0.6012084
-0.9577205 0.313888 -0.6072508
-0.9501831 0.328693 -0.6042296
-0.9589764 0.3388576 -0.6002014
-0.9792799 0.3808419 -0.6072508
-0.9799079 0.3934372 -0.6022155
-0.9805358 0.4062535 -0.6052366
-0.9811637 0.4188488 -0.6022155
-0.9905829 0.4272456 -0.6072508
-0.9432778 -0.439178 -0.5911379
-0.9166948 -0.439178 -0.5981873
-0.9173228 -0.4261408 -0.5941591
-0.9445337 -0.4144293 -0.5961732
-0.9187859 -0.4013921 -0.5971802
-0.919416 -0.3887968 -0.592145
-0.9399288 -0.3671418 -0.5971802
-0.8892746 -0.3236107 -0.592145
-0.8978544 -0.2997459 -0.5941591
-0.8729481 -0.2756602 -0.593152
-0.8737853 -0.2635068 -0.5971802
-0.8413416 -0.2261629 -0.592145
-0.8168496 -0.1905867 -0.5911379
-0.8174797 -0.1779914 -0.592145
-0.8181076 -0.1656171 -0.5991943
-0.8013625 -0.1267263 -0.593152
-0.7772933 -0.08142747 -0.5971802
-0.7710118 -0.05225942 -0.5901309
-0.7793844 -0.04386256 -0.5971802
-0.772477 -0.02706883 -0.5951661
-0.7808496 -0.01889294 -0.5991943
-0.773105 -0.01469451 -0.5951661
-0.7814775 -0.006076677 -0.5951661
-0.7777098 0.07457739 -0.5991943
-0.7869197 0.09468567 -0.5911379
-0.7609647 0.106839 -0.5981873
-0.734591 0.1048503 -0.5911379
-0.9993742 0.26196 -0.5911379
-0.948092 0.2909071 -0.5961732
-0.9555228 0.3528892 -0.5941591
-0.9876525 0.3773064 -0.5961732
-0.9882805 0.3899017 -0.5971802
-0.9623255 0.401834 -0.5961732
-0.9912109 0.4402829 -0.5981873
-0.9918409 0.4528781 -0.5981873
-0.9665117 0.4771848 -0.5971802
-0.9158576 -0.4511104 -0.5891238
-0.9112527 -0.4071373 -0.5830815
-0.870227 -0.3255994 -0.5871097
-0.862273 -0.3244945 -0.5800604
-0.8708549 -0.3127831 -0.5800604
-0.8649941 -0.2736714 -0.5810674
-0.8398764 -0.2513534 -0.5840886
-0.8443756 -0.2382057 -0.581571
-0.8019904 -0.1136891 -0.5830815
-0.7942457 -0.1075019 -0.5891238
-0.8032463 -0.08871948 -0.5810674
-0.7779192 -0.06839024 -0.5830815
-0.7716398 -0.03944315 -0.5830815
-0.7540552 -0.01823003 -0.5861027
-0.7555225 0.006960557 -0.5840886
-0.7494524 0.0339189 -0.5891238
-0.7500803 0.04673517 -0.5881168
-0.735219 0.1174456 -0.5871097
-0.9987462 0.2495857 -0.5850956
-0.958137 0.3269252 -0.5881168
-0.9765589 0.3311236 -0.5891238
-0.9778147 0.3560933 -0.5861027
-0.9629534 0.4148713 -0.5850956
-0.9817917 0.431665 -0.5891238
-0.9642093 0.4398409 -0.5800604
-0.9824197 0.4444813 -0.5820745
-0.9558367 0.4427135 -0.5830815
-0.9830476 0.4568556 -0.5881168
-0.9650465 0.4522152 -0.5881168
-0.9922575 0.4659154 -0.5800604
-0.9836755 0.4696718 -0.5871097
-0.9656765 0.4648105 -0.5861027
-0.9851407 0.4948624 -0.5830815
-0.9598137 0.5182853 -0.5810674
-0.9091595 -0.4451442 -0.572004
-0.9097875 -0.4323279 -0.5730111
-0.9436964 -0.4261408 -0.5750252
-0.9106247 -0.4195116 -0.5770393
-0.8930423 -0.3863662 -0.5750252
-0.8936702 -0.3739918 -0.5790534
-0.8884373 -0.335543 -0.5750252
-0.8693897 -0.3377527 -0.5760322
-0.8714849 -0.2999668 -0.5780463
-0.8643662 -0.2862667 -0.5760322
-0.8461558 -0.2752182 -0.5790534
-0.8220825 -0.2243951 -0.570997
-0.8235498 -0.1992045 -0.5770393
-0.7906853 -0.1704784 -0.5740181
-0.7701746 -0.0641918 -0.5740181
-0.7546852 -0.004971826 -0.570997
-0.7486172 0.02176555 -0.5760322
-0.7567784 0.03215114 -0.5790534
-0.7337538 0.09269694 -0.5770393
-0.7255905 0.09203403 -0.5740181
-0.7262185 0.1048503 -0.570997
-0.7276857 0.1300409 -0.5790534
-0.7283116 0.1430781 -0.5740181
-0.7124037 0.1885979 -0.5740181
-0.7130316 0.2014142 -0.5730111
-0.9602323 0.3647111 -0.5790534
-0.9635813 0.4276876 -0.5740181
-0.9564646 0.4557507 -0.5730111
-0.9928854 0.4785106 -0.5770393
-0.9669304 0.4904431 -0.5790534
-0.9583485 0.4937576 -0.570997
-0.940766 0.4919898 -0.5790534
-0.941394 0.5045851 -0.5740181
-0.8901098 -0.4360844 -0.5639476
-0.8829952 -0.4374102 -0.5669688
-0.8907398 -0.4234891 -0.5639476
-0.8842511 -0.4115567 -0.5609265
-0.8848769 -0.3989615 -0.5629406
-0.8687618 -0.3499061 -0.5699899
-0.862901 -0.3112363 -0.5619335
-0.8635289 -0.298641 -0.5689829
-0.8446906 -0.2999668 -0.5689829
-0.8453206 -0.2873716 -0.5679758
-0.8384112 -0.2761021 -0.5659617
-0.8474117 -0.2498067 -0.5689829
-0.8227125 -0.2115788 -0.5699899
-0.8151772 -0.2153353 -0.5619335
-0.7984299 -0.1757817 -0.5639476
-0.7955016 -0.1541266 -0.5649546
-0.7925712 -0.1320296 -0.5629406
-0.7934085 -0.1194343 -0.5669688
-0.7946644 -0.09402276 -0.5679758
-0.7689186 -0.08960336 -0.5669688
-0.7525921 -0.0427577 -0.5669688
-0.7452661 -0.04143189 -0.5659617
-0.75322 -0.03016241 -0.5689829
-0.7471499 -0.003425036 -0.5669688
-0.7477779 0.009170257 -0.5679758
-0.7308234 0.04319965 -0.5649547
-0.7234973 0.05446912 -0.5609265
-0.7249647 0.07988068 -0.5649547
-0.7329186 0.08054359 -0.5689829
-0.7270557 0.1176666 -0.5699899
-0.7094712 0.1386587 -0.5649547
-0.7103105 0.151033 -0.5659617
-0.7027752 0.1607557 -0.5629406
-0.7115664 0.1762236 -0.5649547
-0.704659 0.1987626 -0.5629406
-0.705287 0.2113579 -0.5619335
-0.7059149 0.2239532 -0.5629406
-0.9769775 0.3443818 -0.5649547
-0.9782333 0.3695724 -0.5619335
-0.9543715 0.4179649 -0.5699899
-0.8748319 0.4208375 -0.5629406
-0.9384636 0.4548669 -0.5609265
-0.9570926 0.468567 -0.5629406
-0.9399288 0.4798365 -0.5629406
-0.9577205 0.4811623 -0.5639476
-0.9675583 0.5032593 -0.5639476
-0.9589764 0.5059109 -0.5699899
-0.9681863 0.5156336 -0.5659617
-0.9342794 0.5388355 -0.5629406
-0.9349052 0.5514308 -0.5699899
-0.9361611 0.5766214 -0.5659617
-0.8834138 -0.424373 -0.5558912
-0.8652034 -0.4122196 -0.5568983
-0.8919957 -0.3982985 -0.5538771
-0.8855069 -0.3859242 -0.5579053
-0.8664572 -0.3870291 -0.5538771
-0.8861349 -0.372887 -0.5528701
-0.8672966 -0.3744338 -0.5558912
-0.8595519 -0.3744338 -0.5538771
-0.8940889 -0.3609546 -0.5579053
-0.8869721 -0.3607336 -0.5599194
-0.8601798 -0.3618385 -0.5538771
-0.8608078 -0.3492432 -0.5568983
-0.837576 -0.2884764 -0.551863
-0.8465744 -0.2615181 -0.5528701
-0.8390391 -0.2632858 -0.5599194
-0.8143399 -0.2279306 -0.5538771
-0.7969668 -0.2005303 -0.5558912
-0.7919433 -0.1446249 -0.5568983
-0.7743608 -0.1304828 -0.5589124
-0.7674534 -0.114573 -0.5558912
-0.776454 -0.09269694 -0.5599194
-0.7693373 -0.07634515 -0.5548842
-0.7456847 -0.02839465 -0.5528701
-0.7463127 -0.01557839 -0.550856
-0.7287302 0.005413766 -0.5528701
-0.7241253 0.06750635 -0.550856
-0.7088453 0.1265054 -0.5528701
-0.7109385 0.1638493 -0.5589124
-0.7065428 0.2367694 -0.5579053
-0.690007 0.2703569 -0.550856
-0.9840963 0.483151 -0.5589124
-0.9935133 0.4915479 -0.5589124
-0.9418126 0.5176224 -0.5538771
-0.9162741 0.5291128 -0.5558912
-0.9189973 0.579715 -0.5548842
-0.8913677 -0.4104519 -0.5448137
-0.8658314 -0.3991824 -0.5478349
-0.8677152 -0.3613965 -0.5448137
-0.8873887 -0.3474754 -0.5468278
-0.8953426 -0.3353221 -0.5448137
-0.8614358 -0.335985 -0.5458208
-0.8348549 -0.3392995 -0.5498489
-0.896182 -0.3231687 -0.5488419
-0.8438533 -0.3118992 -0.5488419
-0.836946 -0.3008507 -0.5448137
-0.8103629 -0.3041653 -0.5488419
-0.8191563 -0.2734504 -0.5478349
-0.8212473 -0.2361065 -0.5478349
-0.8155958 -0.2016352 -0.5427996
-0.7898501 -0.1824108 -0.5468278
-0.7988507 -0.1627444 -0.5488419
-0.7735236 -0.1424152 -0.5448137
-0.7666162 -0.1267263 -0.5427996
-0.7747815 -0.1172246 -0.5417926
-0.7756167 -0.1046293 -0.5427996
-0.7680814 -0.1015357 -0.5468278
-0.7502896 -0.07921777 -0.5407855
-0.7435895 -0.06618053 -0.5448137
-0.7517548 -0.05446912 -0.5488419
-0.7442195 -0.05358524 -0.5458208
-0.7314513 0.05623688 -0.5478349
-0.7320793 0.06883217 -0.5407855
-0.7059149 0.07656612 -0.5458208
-0.7073801 0.1015357 -0.5468278
-0.7031938 0.1742349 -0.5427996
-0.7038218 0.1866092 -0.5458208
-0.6858228 0.195448 -0.5427996
-0.6879138 0.232792 -0.5458208
-0.6799599 0.2347807 -0.5407855
-0.7071708 0.2495857 -0.5498489
-0.7077988 0.262181 -0.5468278
-0.690635 0.2831731 -0.5478349
-0.682681 0.2851619 -0.5458208
-0.6839369 0.3105734 -0.5498489
-0.8015717 0.372445 -0.5498489
-0.8733667 0.3958679 -0.5498489
-0.8739946 0.4086841 -0.5417926
-0.9328121 0.5140868 -0.5448137
-0.91816 0.5673406 -0.5478349
-0.8572494 -0.4117777 -0.5347432
-0.8417602 -0.3490222 -0.5367573
-0.8354807 -0.3262623 -0.5397785
-0.8162238 -0.3231687 -0.5337362
-0.8361087 -0.3130041 -0.5357503
-0.817689 -0.2981991 -0.5367573
-0.8183169 -0.2856038 -0.5337362
-0.8160145 -0.2629544 -0.5357503
-0.8128747 -0.2526793 -0.5337362
-0.813712 -0.240084 -0.5387714
-0.7892222 -0.1945641 -0.5367573
-0.7973855 -0.1872721 -0.530715
-0.7726863 -0.1545686 -0.5357503
-0.765151 -0.1519169 -0.5327291
-0.7659882 -0.1391007 -0.5367573
-0.7481965 -0.1165617 -0.530715
-0.7488223 -0.1044084 -0.5377644
-0.7494524 -0.09159209 -0.5327291
-0.7429636 -0.07855485 -0.5377644
-0.7509176 -0.06662247 -0.5337362
-0.7264277 -0.0317092 -0.5347432
-0.727265 -0.01889294 -0.5357503
-0.7199369 -0.007623467 -0.5347432
-0.7260091 0.03071484 -0.5362538
-0.6990054 0.09866313 -0.5347432
-0.7080081 0.114573 -0.5377644
-0.6818437 0.2730085 -0.5357503
-0.6912608 0.2959894 -0.5397785
-0.6831017 0.2981991 -0.5337362
-0.9319727 0.5019335 -0.5397785
-0.8907398 0.5547453 -0.5337362
-0.8382018 -0.4111148 -0.5266868
-0.8578774 -0.3989615 -0.5287009
-0.8390391 -0.3989615 -0.529708
-0.8340155 -0.3512319 -0.529708
-0.8945075 -0.3472545 -0.5287009
-0.8430139 -0.3236107 -0.5266868
-0.8168496 -0.3103524 -0.5256798
-0.8095257 -0.3158767 -0.5287009
-0.7925712 -0.2745553 -0.5216516
-0.8204101 -0.2478179 -0.5276939
-0.7940364 -0.2498067 -0.5276939
-0.7952923 -0.224837 -0.5287009
-0.7959182 -0.2122417 -0.5256798
-0.7632672 -0.1897028 -0.5246727
-0.7712211 -0.1793172 -0.5216516
-0.7720605 -0.1669429 -0.5266868
-0.7461013 -0.1536847 -0.5206445
-0.7467313 -0.1415313 -0.5256798
-0.7473592 -0.129157 -0.5256798
-0.7421263 -0.09115015 -0.529708
-0.7184738 -0.03259308 -0.5226586
-0.7276857 -0.006297647 -0.5276939
-0.722658 0.04297868 -0.5287009
-0.7050776 0.06463374 -0.5246727
-0.7063336 0.08982433 -0.5226586
-0.6816344 0.1203182 -0.5236657
-0.6764016 0.1720252 -0.5236657
-0.731242 0.2076014 -0.529708
-0.6870766 0.2208596 -0.5276939
-0.6621702 0.2517954 -0.5276939
-0.8312944 -0.402055 -0.5135952
-0.8394577 -0.3854823 -0.510574
-0.8059673 -0.3790741 -0.5115811
-0.8409229 -0.3605126 -0.510574
-0.8155958 -0.3351011 -0.5186304
-0.8107816 -0.2902442 -0.5166163
-0.8114116 -0.2774279 -0.5196375
-0.7946644 -0.2369904 -0.5176234
-0.7685 -0.2288145 -0.5135952
-0.7875476 -0.2195338 -0.5196375
-0.7654639 -0.2155563 -0.5151057
-0.7883849 -0.2067175 -0.5196375
-0.7699652 -0.2040658 -0.5156093
-0.7379401 -0.1665009 -0.5135952
-0.7387773 -0.1536847 -0.5125881
-0.7394053 -0.1413103 -0.5135952
-0.7400332 -0.1284941 -0.5125881
-0.7406632 -0.1161198 -0.5196375
-0.7228694 -0.09335985 -0.5125881
-0.7249647 -0.05623688 -0.5186304
-0.7255905 -0.04364159 -0.5196375
-0.7193111 -0.01955585 -0.5196375
-0.7008914 -0.01027511 -0.5176234
-0.7015214 0.002320186 -0.510574
-0.7251719 0.01889294 -0.5161128
-0.7029845 0.02751077 -0.510574
-0.7042383 0.05270136 -0.5115811
-0.6975423 0.07391448 -0.510574
-0.6983796 0.08628881 -0.5186304
-0.7015214 0.1497072 -0.5115811
-0.6841462 0.1711413 -0.5125881
-0.6862394 0.2087062 -0.5196375
-0.6784947 0.210253 -0.5186304
-0.7318699 0.2208596 -0.5125881
-0.6791226 0.2230693 -0.5135952
-0.7324979 0.2334549 -0.5166163
-0.6889604 0.2588664 -0.5125881
-0.6640519 0.2900232 -0.5125881
-0.6916815 0.3092476 -0.5156093
-0.6648913 0.3026185 -0.5146022
-0.6655172 0.3152138 -0.5115811
-0.6843555 0.3240526 -0.5166163
-0.6586098 0.3426141 -0.5146022
-0.6676083 0.3527787 -0.5146022
-0.6598636 0.3682466 -0.5125881
-0.6607029 0.3806209 -0.5196375
-0.8304572 -0.4144293 -0.509567
-0.8120375 -0.3971937 -0.5055388
-0.858296 -0.3852613 -0.5015106
-0.8319224 -0.3890178 -0.509567
-0.8325482 -0.3759806 -0.5015106
-0.8331783 -0.3631643 -0.5015106
-0.8080605 -0.3408463 -0.509567
-0.7814775 -0.3335543 -0.5005035
-0.7896408 -0.3240526 -0.5025176
-0.793197 -0.2615181 -0.5045317
-0.7854524 -0.2573196 -0.509567
-0.7670327 -0.2537841 -0.5035247
-0.7860824 -0.2442824 -0.5025176
-0.7622206 -0.2016352 -0.5025176
-0.7643158 -0.1636283 -0.5065458
-0.7452661 -0.165838 -0.5035247
-0.7207763 -0.1309248 -0.5035247
-0.7136596 -0.1214231 -0.5085599
-0.7214042 -0.1183295 -0.509567
-0.7142875 -0.1086068 -0.5005035
-0.7234973 -0.08054359 -0.5005035
-0.7157527 -0.08297426 -0.5015106
-0.7170086 -0.05734173 -0.5005035
-0.7178459 -0.04496741 -0.5075529
-0.7021472 0.01491548 -0.5085599
-0.7036124 0.04032703 -0.5005035
-0.6969144 0.06131919 -0.5085599
-0.6722152 0.09711634 -0.5025176
-0.6805899 0.1083858 -0.5035247
-0.6994262 0.1121423 -0.5055388
-0.7002634 0.1247376 -0.5085599
-0.6736804 0.1225279 -0.5005035
-0.682053 0.1337974 -0.5025176
-0.6743084 0.1351232 -0.5005035
-0.6835182 0.158988 -0.5035247
-0.6755622 0.1596509 -0.509567
-0.6847742 0.1839576 -0.509567
-0.6776574 0.1980997 -0.5035247
-0.6592377 0.2025191 -0.5045317
-0.660075 0.2146724 -0.509567
-0.6613309 0.240084 -0.5025176
-0.6810065 0.2608552 -0.5065458
-0.6625867 0.2650536 -0.5025176
-0.6544256 0.2672633 -0.5025176
-0.663424 0.2776489 -0.5075529
-0.6556794 0.2924539 -0.5015106
-0.6571425 0.3176444 -0.5045317
-0.6577725 0.3302397 -0.5075529
-0.6667731 0.3401834 -0.509567
-0.6590284 0.3554303 -0.5065458
-0.6682383 0.365595 -0.5055388
-0.6688662 0.3781902 -0.5075529
-0.6433298 0.4016131 -0.509567
-0.6439599 0.4146503 -0.5015106
-0.644795 0.4272456 -0.5015106
-0.645423 0.4398409 -0.5035247
-0.6215611 0.5041432 -0.5005035
-0.5903732 0.6040217 -0.5035247
-0.8105723 -0.4215004 -0.490433
-0.8032463 -0.4292343 -0.490433
-0.8045021 -0.4038228 -0.4954683
-0.8126654 -0.3843774 -0.4984894
-0.8400878 -0.372445 -0.4994965
-0.8132934 -0.3717821 -0.4994965
-0.8139234 -0.3589659 -0.4924471
-0.8072233 -0.3527787 -0.4944612
-0.8145493 -0.3465915 -0.4944612
-0.8421788 -0.3351011 -0.4984894
-0.8084791 -0.3273671 -0.4934542
-0.7821055 -0.320738 -0.4984894
-0.7827314 -0.3074798 -0.490433
-0.791734 -0.2862667 -0.4964753
-0.7848266 -0.269252 -0.4944612
-0.7661976 -0.2657165 -0.4914401
-0.7867104 -0.2314661 -0.4984894
-0.7603368 -0.2394211 -0.4944612
-0.735219 -0.2168821 -0.4934542
-0.7429636 -0.203182 -0.4944612
-0.7703838 -0.1908076 -0.4974824
-0.7438009 -0.1908076 -0.4994965
-0.71722 -0.1930173 -0.490433
-0.7444288 -0.1782124 -0.4944612
-0.7371028 -0.1788753 -0.4944612
-0.7109385 -0.1715833 -0.490433
-0.7186831 -0.1678268 -0.490433
-0.7160646 -0.1446249 -0.4914401
-0.7130316 -0.1337974 -0.4974824
-0.6937726 -0.1351232 -0.490433
-0.7149155 -0.09556955 -0.4954683
-0.6958678 -0.09755828 -0.490433
-0.697333 -0.07236769 -0.4924471
-0.7241253 -0.06816927 -0.4984894
-0.6715873 -0.05491106 -0.490433
-0.7000541 -0.02220749 -0.4934542
-0.6927281 -0.01469451 -0.4984894
-0.6757736 0.0206607 -0.4934542
-0.675355 0.0840791 -0.4919436
-0.6799599 0.09601149 -0.4964753
-0.700682 0.1377748 -0.4974824
-0.682681 0.1466136 -0.4944612
-0.6749364 0.1477185 -0.4954683
-0.6483534 0.1536847 -0.4984894
-0.6577725 0.1775494 -0.4914401
-0.6768202 0.1857253 -0.4944612
-0.6584005 0.1903657 -0.490433
-0.6517045 0.2168821 -0.4914401
-0.6604936 0.2277097 -0.4964753
-0.6523303 0.2296984 -0.4954683
-0.6881232 0.246934 -0.4964753
-0.6349573 0.2515744 -0.4914401
-0.6550515 0.2798586 -0.4984894
-0.6661451 0.32803 -0.4994965
-0.6412387 0.3644901 -0.4934542
-0.6418646 0.3770854 -0.4934542
-0.6424925 0.3894597 -0.4964753
-0.6611215 0.3936582 -0.4984894
-0.6617495 0.4062535 -0.4984894
-0.6460509 0.4524362 -0.4984894
-0.8038742 -0.4164181 -0.4853978
-0.8109909 -0.4089051 -0.4803625
-0.7888035 -0.335985 -0.4874119
-0.7833614 -0.2944426 -0.4823766
-0.7594995 -0.2515744 -0.4803625
-0.7676628 -0.2405259 -0.4853978
-0.7417077 -0.2281516 -0.489426
-0.7358469 -0.2038449 -0.4864048
-0.7364749 -0.1910286 -0.4853978
-0.7140782 -0.1820793 -0.4874119
-0.7115664 -0.158767 -0.4853978
-0.686658 -0.1284941 -0.4864048
-0.7220321 -0.1050713 -0.489426
-0.6952398 -0.1099326 -0.4843907
-0.7161713 -0.06971605 -0.489426
-0.690007 -0.06485471 -0.4874119
-0.6709594 -0.06706441 -0.4813696
-0.6912608 -0.03966413 -0.4833837
-0.6921002 -0.02684786 -0.4853978
-0.7201483 0.006518617 -0.4864048
-0.6749364 0.008286377 -0.4813696
-0.6770295 0.04607226 -0.4813696
-0.6521211 0.07745001 -0.4833837
-0.6529583 0.08982433 -0.4803625
-0.6728411 0.1099326 -0.489426
-0.6535863 0.1021987 -0.4843907
-0.6563073 0.1525798 -0.4813696
-0.6569374 0.1651751 -0.4833837
-0.630143 0.1640703 -0.4864048
-0.6496093 0.1793172 -0.489426
-0.6502372 0.1916915 -0.4884189
-0.6328641 0.2142305 -0.4884189
-0.6343293 0.2389791 -0.489426
-0.6801692 0.2489228 -0.4864048
-0.6529583 0.2425146 -0.4864048
-0.6535863 0.254889 -0.489426
-0.6355852 0.2643907 -0.4884189
-0.6364225 0.276986 -0.489426
-0.6563073 0.3057121 -0.4833837
-0.6383063 0.3145509 -0.4864048
-0.6297244 0.3165396 -0.4823766
-0.6343293 0.4047067 -0.4803625
-0.6355852 0.4296763 -0.4853978
-0.5738373 0.6336316 -0.4884189
-0.5744653 0.6464479 -0.4823766
-0.5650461 0.6504254 -0.4884189
-0.5388818 0.6703126 -0.4833837
-0.7900594 -0.3103524 -0.4753273
-0.7607554 -0.2259419 -0.4743202
-0.7421263 -0.2151144 -0.4753273
-0.7191017 -0.1545686 -0.4723061
-0.6944026 -0.122086 -0.4712991
-0.7410798 -0.1019777 -0.4773414
-0.6891698 -0.07700807 -0.4753273
-0.6941933 -0.05557397 -0.4768379
-0.6983796 -0.0465142 -0.4712991
-0.6992168 -0.03413988 -0.4773414
-0.6674031 0.009170257 -0.4783484
-0.6958678 0.04982875 -0.4712991
-0.6542142 0.1150149 -0.4783484
-0.6548421 0.1278312 -0.4743202
-0.6468882 0.128936 -0.4763343
-0.648772 0.1671638 -0.4773414
-0.630773 0.1766656 -0.4793555
-0.6320269 0.2020771 -0.4733132
-0.630143 0.3291349 -0.4733132
-0.6309782 0.3417302 -0.4733132
-0.6403994 0.3525577 -0.470292
-0.6322361 0.3671418 -0.4773414
-0.6336992 0.3923323 -0.4773414
-0.8825765 0.587007 -0.4743202
-0.5642089 0.638051 -0.4783484
-0.8063839 -0.3647111 -0.4652568
-0.779803 -0.357861 -0.469285
-0.7879642 -0.3476964 -0.4672709
-0.7632672 -0.3149928 -0.4652568
-0.7301975 -0.3050492 -0.4632427
-0.7155434 -0.2168821 -0.4602216
-0.7163807 -0.2047288 -0.469285
-0.7094712 -0.1961109 -0.4682779
-0.7634765 -0.1748978 -0.469285
-0.6929374 -0.1468346 -0.4682779
-0.6858228 -0.1406474 -0.4672709
-0.6619588 -0.09203403 -0.4642498
-0.6701242 -0.07921777 -0.4662639
-0.6937726 0.0118219 -0.4652568
-0.6952398 0.03723345 -0.4672709
-0.6782854 0.07148381 -0.469285
-0.6554701 0.1406474 -0.4612286
-0.6313989 0.1897028 -0.4642498
-0.6368411 0.2900232 -0.4642498
-0.637469 0.3026185 -0.4672709
-0.6316082 0.3547674 -0.4682779
-0.6328641 0.379958 -0.469285
-0.6368411 0.4555298 -0.4652568
-0.7852473 -0.3974147 -0.4541793
-0.8049208 -0.3894597 -0.4592145
-0.7906853 -0.2970943 -0.4592145
-0.757197 -0.2889183 -0.4551863
-0.6870766 -0.114131 -0.4501511
-0.6877046 -0.1017567 -0.4531722
-0.6692848 -0.09137112 -0.4541793
-0.6962885 -0.08363717 -0.4511581
-0.6944026 0.0250801 -0.4501511
-0.6774481 0.05933046 -0.4592145
-0.5116709 0.6776047 -0.4592145
-0.5122988 0.6904209 -0.4511581
-0.7538501 -0.3521158 -0.4420947
-0.6883346 -0.08871948 -0.4410876
-0.6929374 -0.0003314551 -0.4441088
-0.6705408 0.07347254 -0.448137
-0.6458416 0.1172246 -0.4420947
-0.6473068 0.1426362 -0.448137
-0.5311371 0.5330903 -0.4400806
-0.2602839 0.6846758 -0.4400806
-0.7609647 -0.3512319 -0.4310171
-0.2699103 0.6795934 -0.4300101
-0.7856638 -0.3834935 -0.4219537
-0.7802196 -0.343277 -0.4219537
-0.6669824 -0.1280521 -0.4249748
-0.6676083 -0.1154569 -0.4209466
-0.7862918 -0.3706773 -0.4169184
-0.2613305 0.7100873 -0.4128902
-0.3088449 -0.1207601 -0.4018127
-0.348824 0.247376 -0.407855
-0.2175816 0.7595846 -0.4058409
-0.2182116 0.7724009 -0.3947634
-0.4480392 -0.1324715 -0.3836858
-0.6113046 -0.008728317 -0.3826787
-0.3762442 0.2440614 -0.388721
-0.5951874 0.5529776 -0.3645519
-0.008061756 0.5854602 -0.3373615
-0.3255901 0.1961109 -0.2950655
-0.6186307 -0.004750856 -0.2769386
-0.3605456 -0.1609767 -0.2175227
-0.3318695 0.3236107 -0.2195368
-0.4551559 0.7087615 -0.2175227
-0.481741 0.6935145 -0.1913394
-0.4809016 0.6818031 -0.1732125
-0.4631099 0.6815822 -0.1772407
-0.1732069 0.04121092 -0.1349446
-0.1889055 -0.03148823 -0.12286
-0.127369 0.2376533 -0.1238671
-0.1633712 0.02309137 -0.1198389
-0.1390886 0.1037454 -0.1178248
-0.142649 0.1671638 -0.1148036
-0.1244386 0.187935 -0.1117825
-0.117952 0.2272677 -0.1178248
-0.120043 0.2654955 -0.1127895
-0.1045537 0.3335543 -0.1127895
-0.105391 0.3459286 -0.1178248
-0.1723717 0.0294995 -0.1097684
-0.1652529 0.06154016 -0.1047331
-0.1457887 0.06286598 -0.1047331
-0.1472539 0.08761463 -0.101712
-0.1487191 0.1128052 -0.1007049
-0.1495543 0.1249586 -0.1087613
-0.1501843 0.1377748 -0.1047331
-0.1259059 0.2133466 -0.1087613
-0.1265318 0.2259419 -0.1057402
-0.1192058 0.2526793 -0.1087613
-0.1030885 0.3085847 -0.1067472
-0.09387869 0.3079218 -0.1047331
-0.09450873 0.3205171 -0.1047331
-0.09597185 0.3457077 -0.102719
-0.07943598 0.3865871 -0.1057402
-0.08090118 0.4117777 -0.1057402
-0.1935125 -0.08894045 -0.09365559
-0.1943498 -0.07634515 -0.09466264
-0.1866051 -0.06816927 -0.09869084
-0.195815 -0.05181748 -0.09566969
-0.1700692 -0.007623467 -0.09667674
-0.1706972 0.004750856 -0.09466264
-0.1623246 0.01137996 -0.09365559
-0.1464167 0.07546128 -0.09063444
-0.1374162 0.07965971 -0.09063444
-0.1478819 0.1002099 -0.09768379
-0.1403466 0.1295989 -0.09264854
-0.1418097 0.1550105 -0.09466264
-0.1250666 0.2009723 -0.09466264
-0.09241349 0.2827312 -0.09969789
-0.0953439 0.3333333 -0.09768379
-0.09659979 0.358303 -0.09869084
-0.08006392 0.3994034 -0.09969789
-0.07127271 0.417081 -0.09466264
-0.08152703 0.424373 -0.09969789
-0.07273791 0.4424925 -0.09365559
-0.1587663 -0.05181748 -0.08660624
-0.1713251 0.01734615 -0.08660624
-0.1637898 0.03679151 -0.08862034
-0.1644178 0.04938681 -0.08257805
-0.135951 0.05446912 -0.08459215
-0.1380441 0.092255 -0.08761329
-0.1212989 0.1386587 -0.081571
-0.1409745 0.1426362 -0.08559919
-0.12339 0.1764446 -0.08459215
-0.1148102 0.1779914 -0.0835851
-0.09304143 0.2959894 -0.08257805
-0.1035072 0.3216219 -0.081571
-0.07838941 0.3744338 -0.08962739
-0.07043545 0.4051486 -0.081571
-0.07336585 0.4550878 -0.08559919
-0.1690227 -0.01933488 -0.07452165
-0.1614874 -0.0007733952 -0.07452165
-0.1449515 0.05115457 -0.07653575
-0.1395093 0.1176666 -0.0775428
-0.1219269 0.151696 -0.0715005
-0.113345 0.1532427 -0.07452165
-0.1162754 0.2034029 -0.07854985
-0.05180644 0.4108938 -0.07452165
-0.1857679 -0.07988068 -0.06646526
-0.1870237 -0.05469009 -0.06747231
-0.1675575 -0.04408353 -0.06042296
-0.1600201 -0.02596398 -0.06243706
-0.1606501 -0.01336869 -0.06847936
-0.1424397 0.01381063 -0.06042296
-0.1441163 0.03900122 -0.06445116
-0.1202523 0.1267263 -0.06243706
-0.1139729 0.16628 -0.06143001
-0.116694 0.2164402 -0.06344411
-0.09764636 0.2221854 -0.06847936
-0.0997416 0.2597503 -0.06445116
-0.1003674 0.2725666 -0.06143001
-0.1012047 0.2847199 -0.06646526
-0.1018327 0.2973152 -0.06646526
-0.07671489 0.3499061 -0.06545821
-0.07755215 0.3625014 -0.06445116
-0.1660923 -0.06905314 -0.05337362
-0.1577197 -0.0635289 -0.05639476
-0.1667202 -0.05645785 -0.05639476
-0.143277 0.02684786 -0.05035247
-0.1351137 0.04297868 -0.05337362
-0.1363717 0.06839024 -0.05337362
-0.1173219 0.07745001 -0.05035247
-0.1194151 0.114573 -0.05135952
-0.1225548 0.1645122 -0.05740181
-0.08634336 0.1832947 -0.05236657
-0.09806499 0.2350017 -0.05639476
-0.08990172 0.2464921 -0.05438067
-0.09136692 0.2716827 -0.05639476
-0.07231928 0.2749972 -0.05135952
-0.06373738 0.2924539 -0.05337362
-0.07378239 0.3001878 -0.05135952
-0.07441243 0.3127831 -0.05035247
-0.06603984 0.3300188 -0.05840886
-0.05012983 0.3865871 -0.05740181
-0.07169133 0.4307811 -0.05941591
-0.05327164 0.4365264 -0.05941591
-0.04510837 0.4637057 -0.05135952
-0.1570917 -0.07546128 -0.04632427
-0.1388835 -0.04806099 -0.04934542
-0.1591849 -0.03789636 -0.04833837
-0.1328112 0.005413766 -0.04733132
-0.1334392 0.01800906 -0.04330312
-0.1342764 0.03060435 -0.04229607
-0.10874 0.07833388 -0.04733132
-0.1187871 0.1026406 -0.04229607
-0.1108332 0.1163407 -0.04330312
-0.09513459 0.1850624 -0.04833837
-0.117952 0.2420727 -0.04531722
-0.09890225 0.2478179 -0.04833837
-0.09052966 0.2595293 -0.04028197
-0.06520258 0.3178654 -0.04733132
-0.07587763 0.3379737 -0.04431017
-0.06666778 0.342835 -0.04934542
-0.04929466 0.3742128 -0.04934542
-0.06876093 0.3808419 -0.04330312
-0.04071276 0.3879129 -0.04733132
-0.06938887 0.3934372 -0.04632427
-0.05075986 0.3991824 -0.04531722
-0.04196865 0.4133245 -0.04330312
-0.04280591 0.4256988 -0.04833837
-0.167974 -0.03082532 -0.03826788
-0.1395093 -0.03546569 -0.03625378
-0.1401372 -0.0228704 -0.03826788
-0.1407652 -0.01049608 -0.03726083
-0.131974 -0.006960557 -0.03222558
-0.1416045 0.002099216 -0.03524673
-0.1164847 0.06529665 -0.03927492
-0.1102073 0.1041874 -0.03423968
-0.1116704 0.129157 -0.03826788
-0.09136692 0.1236328 -0.03121853
-0.09220418 0.136228 -0.03423968
-0.1122984 0.1417523 -0.03826788
-0.1150195 0.1921335 -0.03524673
-0.09576253 0.1980997 -0.03726083
-0.0867599 0.1965529 -0.03222558
-0.08759926 0.2093691 -0.03021148
-0.08885514 0.2343387 -0.03021148
-0.06436532 0.3057121 -0.03927492
-0.07504037 0.3258204 -0.03826788
-0.0469922 0.3370898 -0.03121853
-0.0484574 0.3616175 -0.03826788
-0.05369027 0.4495636 -0.03826788
-0.04406179 0.4517733 -0.03021148
0.2002085 0.4992819 -0.03121853
-0.1313439 -0.01933488 -0.02920443
-0.1058096 0.02861562 -0.02215509
-0.1156453 0.0531433 -0.02618328
-0.1177406 0.09092918 -0.02014099
-0.09346007 0.1611977 -0.02517623
-0.09429733 0.173572 -0.02215509
-0.08529679 0.1713623 -0.02819738
-0.0882272 0.2219644 -0.02819738
-0.07043545 0.2506905 -0.02114804
-0.07273791 0.2882555 -0.02618328
-0.06708641 0.3558723 -0.02819738
-0.06792367 0.3686886 -0.02819738
-0.05201575 0.4248149 -0.02316214
-0.04343385 0.438957 -0.02920443
-0.02438621 0.4367473 -0.02517623
-0.1305088 -0.03148823 -0.01208459
-0.1127191 0.003646006 -0.01611279
-0.1041351 0.003866976 -0.01007049
-0.1049745 0.0162413 -0.01208459
-0.1070655 0.05380621 -0.01913394
-0.08236638 0.121644 -0.01510574
-0.08320364 0.1340183 -0.01711984
-0.06750504 0.2003094 -0.01208459
-0.09639047 0.2113579 -0.01409869
-0.05913245 0.217987 -0.01913394
-0.0710613 0.2637278 -0.01007049
-0.0626908 0.2811844 -0.01409869
-0.03673578 0.3262623 -0.01812689
-0.04761805 0.3501271 -0.01107754
-0.02208375 0.3994034 -0.01208459
-0.04113139 0.4016131 -0.01107754
-0.02292101 0.4117777 -0.01611279
0.20586 0.4124406 -0.01007049
-0.02354895 0.424373 -0.01208459
0.1018285 -0.2380952 -0.001007049
-0.0882272 0.07435642 -0.003021148
-0.1091587 0.09269694 -2.88658e-15
-0.0896924 0.09954701 -0.005035247
-0.09032035 0.1121423 -2.88658e-15
-0.09262281 0.1494862 -0.007049345
-0.08383159 0.1468346 -0.006042296
-0.08445954 0.1594299 -0.003021148
-0.06666778 0.187935 -0.004028197
-0.06876093 0.2257209 -0.005035247
-0.06039044 0.2438405 -0.003021148
-0.0612256 0.2562148 -0.009063444
-0.04155002 0.2504696 -2.88658e-15
-0.04448042 0.3006298 -0.003021148
-0.04531768 0.3130041 -0.002014099
-0.04594563 0.3253784 -2.88658e-15
-0.01747883 0.3249365 -2.88658e-15
-0.0128739 0.4049276 -0.007049345
-0.1110425 -0.0206607 0.005035247
-0.1146009 0.04165285 0.001007049
-0.1076914 0.06728538 0.002014099
-0.08885514 0.08739366 0.008056395
-0.06582843 0.1755607 0.005035247
-0.05829519 0.2064965 0.007049345
-0.06813299 0.2133466 0.003021148
-0.0597604 0.2314661 0.004028197
-0.06185354 0.269473 0.009063444
-0.04301522 0.2758811 0.009063444
-0.04385248 0.2884764 0.005035247
-0.01057144 0.3678047 0.006042296
-0.02040923 0.3748757 0.008056395
-0.02124858 0.387471 0.009063444
-0.1102073 -0.03281405 0.01208459
-0.1116704 -0.007844437 0.01409869
-0.1137636 0.02994144 0.01711984
-0.1062283 0.04231577 0.01007049
-0.08152703 0.1101536 0.01007049
-0.06206286 0.1128052 0.01510574
-0.05515757 0.1561154 0.01913394
-0.03443122 0.2895813 0.01007049
-0.03506126 0.3019556 0.01510574
-0.03799167 0.3525577 0.01812689
-0.03861961 0.3649321 0.01611279
-0.01957197 0.3627223 0.01409869
-0.03945896 0.3775274 0.01711984
-0.01329462 0.4181858 0.01510574
0.2043948 0.4380731 0.01510574
-0.1294622 -0.04319965 0.02215509
-0.08424813 0.01292675 0.02819738
-0.08508748 0.02530107 0.02215509
-0.0769242 0.03458181 0.02719033
-0.08718062 0.06308695 0.02819738
-0.05452753 0.143962 0.02819738
-0.064156 0.151033 0.02215509
-0.05662068 0.1815269 0.02114804
-0.04218005 0.2637278 0.02014099
-0.01349975 0.2635068 0.02920443
-0.0356892 0.3149928 0.02618328
-0.01664157 0.3132251 0.02719033
-0.01810677 0.3381947 0.02215509
-0.03715232 0.3401834 0.02618328
-0.01873262 0.35079 0.02416918
-0.009524866 0.3558723 0.02819738
0.2167464 0.3954259 0.02215509
-0.075459 0.009612198 0.03423968
-0.07629417 0.02242846 0.03726083
-0.08634336 0.05071263 0.03625378
-0.07901525 0.07303061 0.03625378
-0.05955108 0.07546128 0.03524673
-0.07985461 0.08518396 0.03021148
-0.08048256 0.09844216 0.03826788
-0.0626908 0.1260634 0.03222558
-0.06331666 0.1388797 0.03423968
-0.05369027 0.1320296 0.03927492
-0.05578342 0.1691526 0.03222558
-0.03673578 0.1768865 0.03625378
-0.05724862 0.1945641 0.03625378
-0.03841029 0.2016352 0.03121853
-0.03066565 0.2270467 0.03121853
-0.06917956 0.239642 0.03021148
-0.04050344 0.2392001 0.03625378
-0.0312936 0.239863 0.03726083
-0.008061756 0.3311236 0.03927492
-0.008896922 0.343498 0.03021148
0.01014862 0.3457077 0.03222558
0.009313459 0.358303 0.03625378
-0.01098798 0.3815048 0.03222558
0.2161164 0.4082422 0.03222558
0.2054413 0.4263617 0.03423968
0.2154884 0.4212794 0.03726083
0.2146512 0.4334328 0.03625378
0.2140253 0.4458071 0.03524673
0.213186 0.4584024 0.03826788
-0.08341296 0.0009943653 0.04733132
-0.1129242 0.018451 0.04934542
-0.07755215 0.04784002 0.04431017
-0.07818009 0.06065628 0.04733132
-0.06039044 0.08827754 0.04128902
-0.06478395 0.1642912 0.04531722
-0.02899323 0.2022981 0.04632427
-0.03903824 0.2146724 0.04531722
-0.03966409 0.2270467 0.04229607
-0.01559499 0.3010717 0.04028197
-0.007222404 0.3187493 0.04531722
0.01768605 0.3843774 0.04833837
0.2372572 0.3896807 0.04632427
-0.01161801 0.3941001 0.04531722
-0.07462174 -0.002541156 0.05236657
-0.0855061 0.03900122 0.05639476
-0.0484574 0.04386256 0.05035247
-0.0499247 0.06905314 0.05337362
-0.06101628 0.1013148 0.05337362
-0.03443122 0.1402055 0.05941591
-0.03506126 0.1525798 0.05840886
-0.02689799 0.1649542 0.05840886
-0.03736372 0.1899238 0.05236657
-0.01475773 0.2889183 0.05438067
-0.005755108 0.2940007 0.05941591
0.01182523 0.3214009 0.05639476
-0.1028792 -0.006076677 0.06143001
-0.0555741 0.01358966 0.06847936
-0.05703931 0.03855928 0.06445116
-0.05787866 0.05137554 0.06747231
-0.05850451 0.06397083 0.0694864
-0.05264579 0.1196553 0.06143001
-0.02606073 0.1525798 0.06445116
-0.03589852 0.1653961 0.06847936
-0.02752593 0.1779914 0.06243706
-0.02815388 0.1908076 0.06646526
-0.009524866 0.2020771 0.06747231
-0.002828888 0.2442824 0.0694864
-0.03171432 0.2535631 0.06747231
-0.01245527 0.2520164 0.06847936
-0.003454739 0.2564358 0.06445116
-0.03317743 0.2783118 0.06445116
-0.006385145 0.3070379 0.06143001
0.008894829 0.3715611 0.06344411
0.01852331 0.372666 0.0694864
0.008266885 0.3839355 0.06445116
-0.102042 -0.018451 0.0735146
-0.08236638 -0.01049608 0.07653575
-0.05473685 0.001436305 0.0735146
-0.05180644 0.107281 0.07250755
-0.02376036 0.1154569 0.07854985
-0.03359606 0.1280521 0.07452165
-0.02961908 0.2157773 0.0715005
-0.001152277 0.2190918 0.07653575
-0.01161801 0.239642 0.07452165
-0.03234017 0.2661584 0.0715005
-0.004082683 0.269252 0.07250755
-0.01392047 0.2774279 0.07854985
-0.004919942 0.2818473 0.07250755
0.01119729 0.3344382 0.0735146
0.01936056 0.3602917 0.0775428
-0.05620205 0.02662689 0.08056395
-0.03045634 0.07811292 0.08056395
-0.05034123 0.08253232 0.08257805
-0.05117849 0.09534858 0.0835851
-0.0312936 0.09070821 0.08459215
-0.02229306 0.09026627 0.08862034
-0.007850348 0.1775494 0.0835851
-0.008687607 0.1903657 0.08660624
-0.0005222402 0.2073804 0.08862034
-0.04678288 0.01999779 0.09063444
-0.02752593 0.02861562 0.09264854
-0.04741292 0.03303503 0.09566969
-0.02815388 0.04121092 0.09365559
-0.02438621 0.1287151 0.09969789
0.0003129255 0.1950061 0.09969789
-0.009943496 0.2151144 0.09264854
-0.01078285 0.2277097 0.09466264
0.01663947 0.247376 0.09164149
0.01370907 0.2975362 0.09063444
0.02313032 0.2981991 0.09466264
0.01286971 0.3101315 0.09063444
-0.04510837 -0.004750856 0.1097684
-0.02585141 0.003866976 0.101712
-0.02648145 0.01668324 0.1097684
-0.01768814 0.01579936 0.1077543
-0.01852749 0.02817368 0.1067472
-0.04866672 0.05822561 0.1057402
-0.02878182 0.05380621 0.1047331
-0.0199906 0.05292233 0.101712
-0.02961908 0.06618053 0.101712
-0.007013089 0.165838 0.1077543
0.001778128 0.1700365 0.101712
0.001150184 0.1826318 0.1077543
0.01517636 0.2727875 0.1047331
0.02459343 0.2736714 0.1007049
0.01454633 0.2853828 0.1087613
0.02396549 0.2860457 0.1087613
0.04112929 0.3125621 0.1057402
-0.02124858 0.07855485 0.1107754
-0.02271169 0.1037454 0.1127895
-0.03234017 0.1170036 0.1178248
-0.003873369 0.1165617 0.1188318
-0.00617583 0.1539056 0.1198389
0.02773315 0.2239532 0.1158107
0.04050135 0.3253784 0.1188318
-0.02040923 0.0664015 0.1208459
-0.004710628 0.129157 0.1208459
-0.02480484 0.1419733 0.1268882
0.01915125 0.2113579 0.1258812
0.01831399 0.2237322 0.1248741
0.01622084 0.2610761 0.1289023
0.04364107 0.2756602 0.1248741
0.04217587 0.3006298 0.1208459
0.0227096 0.3118992 0.1299094
-0.04573631 0.008507348 0.1319235
-0.0007336481 0.06706441 0.1309164
-0.002198851 0.09203403 0.1349446
-0.03150291 0.1048503 0.1309164
0.005755108 0.1081648 0.1379658
-0.005338572 0.1419733 0.1329305
0.003661961 0.1459507 0.1389728
0.03003561 0.1868302 0.1349446
0.02919836 0.1994255 0.1319235
-0.001570907 0.2334549 0.1329305
0.01768605 0.2363275 0.1329305
0.0256421 0.26196 0.1389728
0.02208166 0.3244945 0.1349446
0.02061436 0.3494641 0.1369587
-0.01894403 0.04187383 0.1440081
0.006592367 0.09601149 0.1490433
-0.002828888 0.1050713 0.1440081
0.005127164 0.1209811 0.1460222
0.003034017 0.158767 0.1490433
0.02082577 0.1868302 0.143001
0.02856832 0.2124627 0.1460222
0.02710521 0.2374323 0.1470292
0.02647726 0.2500276 0.1490433
0.02145371 0.3370898 0.1440081
0.01014862 0.0339189 0.1540785
0.00449922 0.1337974 0.1500504
0.02396549 0.1373329 0.1560926
0.03296602 0.1375539 0.1510574
0.02313032 0.1494862 0.1510574
0.02019782 0.1996464 0.1550856
0.04845531 0.2018562 0.1581067
0.04761805 0.2144514 0.1581067
0.04531559 0.2517954 0.1530715
0.05431612 0.254889 0.1591138
0.04468764 0.2643907 0.1581067
0.05347886 0.2670423 0.1520645
0.04301313 0.2889183 0.1510574
0.05222297 0.2924539 0.1591138
0.009522773 0.04673517 0.1621349
0.0003129255 0.05579494 0.1681772
-0.001361592 0.08054359 0.163142
0.02187234 0.1748978 0.1661631
0.03087497 0.1755607 0.1671702
0.05515338 0.2422937 0.1671702
0.05285092 0.2798586 0.1621349
0.007431719 0.08407911 0.1701913
0.02626795 0.1006519 0.1742195
0.0256421 0.1130262 0.1762336
0.03464054 0.1134681 0.1772407
0.02480275 0.1254005 0.1722054
0.02250029 0.1625235 0.1722054
0.03171013 0.1631864 0.1722054
0.05075777 0.1649542 0.1752266
0.05745584 0.2047288 0.1701913
0.05661858 0.217766 0.1792548
0.05159503 0.3050492 0.1711984
0.009104144 0.05955143 0.1802618
0.03401259 0.1262844 0.1863041
0.05326955 0.1280521 0.1893253
0.04949979 0.1901447 0.1863041
0.0582931 0.1930173 0.1873112
0.04719942 0.2277097 0.1883182
0.04636216 0.240084 0.1822759
0.001150184 0.04408353 0.1903323
0.0084762 0.07236769 0.1903323
0.02794247 0.07612418 0.1973817
0.03254739 0.151254 0.1913394
0.05892105 0.180643 0.1903323
0.08445744 0.2305823 0.1913394
0.02731452 0.08894045 0.2064451
0.03568711 0.1015357 0.2014099
0.0526416 0.1408684 0.2024169
0.07420102 0.254889 0.2004028
0.05201157 0.1536847 0.2165156
0.05996552 0.1689316 0.2175227
0.07650348 0.2182079 0.2165156
0.05619995 0.2312452 0.2145015
0.07503828 0.2429566 0.2134945
0.03715232 0.07745001 0.2205438
0.03652437 0.0900453 0.2255791
0.06227217 0.1313667 0.2296073
0.06143282 0.143741 0.2286002
0.06080488 0.1563363 0.2205438
0.05054846 0.1788753 0.223565
0.07587554 0.2308032 0.2205438
