# .PCD v.7 - Point Cloud Data file format
VERSION .7
FIELDS x y z
SIZE 4 4 4
TYPE F F F
COUNT 1 1 1
WIDTH 1120
HEIGHT 1
VIEWPOINT 0 0 0 1 0 0 0
POINTS 1120
DATA ascii
-0.9361611 -0.1046293 -0.713998
-0.9284165 -0.1059551 -0.713998
-0.9097875 -0.1026406 -0.7109768
-0.9905829 0.08253232 -0.6576032
-0.9723725 0.08650978 -0.6505539
-0.8423881 0.1379958 -0.6233636
-0.8057581 0.107281 -0.6163142
-0.8612244 0.1541266 -0.6042296
-0.9493479 0.3160977 -0.6012084
-0.9549994 0.4307811 -0.5609265
-0.9886991 0.5713181 -0.5579053
-0.9895343 0.5839134 -0.5568983
-0.936789 0.5892166 -0.5579053
-0.9989555 0.5918683 -0.5599194
-0.9742564 0.6292123 -0.5558912
-0.9748843 0.6413656 -0.5528701
-0.9974903 0.5671197 -0.5448137
-0.9905829 0.6093249 -0.5448137
-0.9734191 0.6168379 -0.5438067
-0.9926761 0.6471108 -0.5478349
-0.993304 0.6597061 -0.5427996
-0.8758785 0.4469119 -0.5327291
-0.9981183 0.5799359 -0.5367573
-0.8850883 0.623467 -0.5236657
-0.8857163 0.6360623 -0.5216516
-0.8842511 0.6113136 -0.510574
-0.8959727 0.6552867 -0.5125881
-0.9698608 0.7213567 -0.5146022
-0.9976996 0.7485361 -0.509567
-0.8683431 0.6440172 -0.4994965
-0.8646812 0.6579384 -0.4949648
-0.8331783 0.6537399 -0.4964753
-0.9981183 0.7613524 -0.4974824
-0.9811637 0.7686443 -0.4924471
-0.8411322 0.6298751 -0.4864048
-0.8419695 0.6422495 -0.489426
-0.8865535 0.6621368 -0.4833837
-0.6581911 0.6784886 -0.4853978
-0.9966531 0.7363827 -0.4884189
-0.9987462 0.7741686 -0.4843907
-0.8871835 0.674953 -0.4712991
-0.6849834 0.6802563 -0.4712991
-0.9719539 0.7728428 -0.4712991
-0.9991648 0.7869849 -0.4753273
-0.9817917 0.7816816 -0.4793555
-0.9997949 0.7995802 -0.4712991
-0.5462078 0.8088609 -0.4753273
-0.5468357 0.8214562 -0.4733132
-0.5294626 0.830074 -0.4712991
-0.7038218 0.7032372 -0.4672709
-0.6355852 0.7684234 -0.4632427
-0.9547901 0.7708541 -0.4672709
-0.9725819 0.7854381 -0.469285
-0.9457896 0.7801348 -0.4662639
-0.636211 0.7810187 -0.4612286
-0.9824197 0.7944978 -0.4642498
-0.9830476 0.8068722 -0.4662639
-0.6098416 0.801127 -0.469285
-0.5556269 0.808198 -0.4602216
-0.5734166 0.8141642 -0.4652568
-0.3247549 0.8188046 -0.4602216
-0.5564642 0.8205723 -0.4622357
-0.675357 0.6718594 -0.4592145
-0.652749 0.7578168 -0.4561934
-0.6627961 0.7668766 -0.4582075
-0.9552109 0.7836703 -0.4521652
-0.9288351 0.7827864 -0.4511581
-0.6265846 0.7841123 -0.4531722
-0.9464175 0.792951 -0.4521652
-0.929463 0.7953817 -0.4521652
-0.6368411 0.793614 -0.4582075
-0.6272126 0.7967076 -0.4531722
-0.5824192 0.7975914 -0.4551863
-0.9470454 0.8055463 -0.4551863
-0.903508 0.8073141 -0.4561934
-0.6006296 0.8055463 -0.4582075
-0.5727907 0.8017899 -0.4551863
-0.2673985 0.8093029 -0.4541793
-0.9738356 0.8106287 -0.4572004
-0.5830472 0.8101867 -0.4521652
-0.6018855 0.8307369 -0.4561934
-0.3821051 0.8510662 -0.4501511
-0.663424 0.7799138 -0.4441088
-0.9020428 0.7827864 -0.4400806
-0.8928329 0.7883107 -0.4410876
-0.9730005 0.7984753 -0.4451158
-0.919416 0.7909623 -0.4461229
-0.9028822 0.7951608 -0.4461229
-0.9200439 0.8033366 -0.4410876
-0.8934609 0.800906 -0.4410876
-0.637469 0.8062093 -0.4461229
-0.6278405 0.8095238 -0.4410876
-0.2209327 0.8086399 -0.4461229
-0.6104674 0.8143852 -0.4441088
-0.5740467 0.8272014 -0.449144
-0.4082694 0.8218982 -0.449144
-0.5746746 0.8397967 -0.4461229
-0.3812678 0.8386918 -0.4431017
-0.353431 0.8316208 -0.4461229
-0.3251714 0.8318418 -0.4400806
-0.5478823 0.8470887 -0.4461229
-0.5202528 0.8413435 -0.4431017
-0.5028775 0.8433322 -0.4400806
-0.3917335 0.8459839 -0.449144
-0.5485103 0.859905 -0.4410876
-0.5035076 0.8559275 -0.4400806
-0.6810065 0.7854381 -0.4330312
-0.6537955 0.7834494 -0.4310171
-0.2192582 0.7838913 -0.4350453
-0.1344858 0.7883107 -0.4310171
-0.9558367 0.7964866 -0.4380665
-0.6908442 0.793614 -0.4380665
-0.6640519 0.7927301 -0.4300101
-0.1535334 0.7975914 -0.4390735
-0.930091 0.808198 -0.4380665
-0.6646799 0.8051044 -0.4350453
-0.2387245 0.8039995 -0.4380665
-0.1815816 0.8000221 -0.4300101
-0.1637898 0.8053254 -0.4340383
-0.9476713 0.8185836 -0.4370594
-0.8940889 0.8137223 -0.4370594
-0.6010482 0.8188046 -0.4350453
-0.2778642 0.8172578 -0.4370594
-0.2491902 0.8146061 -0.4390735
-0.9834662 0.8201303 -0.4380665
-0.9742564 0.8236659 -0.4350453
-0.9041359 0.8203514 -0.4350453
-0.6284664 0.8221191 -0.4340383
-0.5836772 0.823003 -0.4370594
-0.296286 0.8216771 -0.4320242
-0.6117233 0.8395757 -0.4330312
-0.5470471 0.8347144 -0.4370594
-0.3628481 0.8313999 -0.4340383
-0.296914 0.8336095 -0.4380665
-0.9847221 0.8453209 -0.4350453
-0.5575129 0.8464258 -0.4340383
-0.5298812 0.8431113 -0.4390735
-0.363476 0.8437741 -0.4350453
-0.3354258 0.8420064 -0.4310171
-0.3257994 0.8446581 -0.4310171
-0.5750932 0.852613 -0.4330312
-0.5305092 0.8557066 -0.4360524
-0.5857683 0.8607889 -0.4300101
-0.5221366 0.8793504 -0.4330312
-0.04803877 0.763783 -0.4209466
-0.124648 0.7896365 -0.4229607
-0.09576253 0.7852171 -0.429003
-0.6544256 0.7962656 -0.4209466
-0.9564646 0.8095238 -0.429003
-0.4624819 0.8039995 -0.4269889
-0.8675059 0.8115125 -0.429003
-0.6378877 0.8192465 -0.4259819
-0.2393524 0.8165948 -0.427996
-0.2678192 0.822782 -0.427996
-0.2498182 0.8274224 -0.4269889
-0.9577205 0.8344934 -0.4219537
-0.948092 0.8313999 -0.4219537
-0.6385156 0.8318418 -0.4209466
-0.5566735 0.8338305 -0.429003
-0.3067518 0.8318418 -0.427996
-0.2784943 0.830074 -0.4269889
-0.602302 0.8439952 -0.429003
-0.3073797 0.8444371 -0.4249748
-0.5206714 0.8543807 -0.4249748
-0.3362651 0.8546017 -0.4269889
-0.5311371 0.8685228 -0.4209466
-0.5041355 0.8689647 -0.4259819
-0.5489289 0.8727213 -0.4269889
-0.4940884 0.8762568 -0.4249748
-0.03757304 0.7584797 -0.4199396
0.03778026 0.7500829 -0.4128902
0.008685514 0.7606894 -0.4189325
-0.0199906 0.771517 -0.4108761
-0.1914173 0.7920672 -0.4108761
-0.1066469 0.7942769 -0.4149043
-0.09639047 0.7980334 -0.4108761
-0.8765064 0.8090819 -0.4159114
-0.6550515 0.8088609 -0.4149043
-0.1252759 0.8024527 -0.4159114
-0.1072748 0.8068722 -0.4169184
-0.6653079 0.8179207 -0.4199396
-0.1928845 0.8170368 -0.4138973
-0.1820002 0.8130593 -0.4149043
-0.1642084 0.8181416 -0.4128902
-0.9305096 0.8212352 -0.4149043
-0.9210904 0.8291901 -0.4159114
-0.8771344 0.8216771 -0.4128902
-0.610886 0.8274224 -0.4199396
-0.2213514 0.8218982 -0.4159114
-0.9313469 0.8338305 -0.4169184
-0.8777623 0.8340515 -0.4108761
-0.5840937 0.8358192 -0.4179255
-0.9755123 0.8490775 -0.4138973
-0.9217184 0.8415645 -0.4128902
-0.584931 0.8486355 -0.4128902
-0.3538476 0.844879 -0.4118832
-0.2973326 0.8468677 -0.4159114
-0.9853501 0.8581372 -0.4179255
-0.6027228 0.8572533 -0.4149043
-0.3544755 0.8574743 -0.4118832
-0.9761423 0.8616728 -0.4189325
-0.5045542 0.881781 -0.4138973
0.5035055 0.4387361 -0.4008057
0.5026683 0.4513313 -0.4048338
0.507066 0.5333112 -0.4068479
0.2837251 0.6879902 -0.4018127
0.07755005 0.7259971 -0.4028198
0.06666569 0.7385924 -0.4008057
0.07671279 0.7381505 -0.4098691
-0.03820098 0.771517 -0.4038268
-0.04950397 0.7891946 -0.4098691
-0.03882892 0.7838913 -0.4008057
-0.4348503 0.807977 -0.4058409
-0.1920473 0.8044415 -0.4098691
-0.4629005 0.8170368 -0.4038268
-0.8945075 0.8272014 -0.4098691
-0.6554701 0.8218982 -0.4018127
-0.2397711 0.8298531 -0.4008057
-0.1935125 0.8298531 -0.4048338
-0.1826281 0.8256546 -0.408862
-0.9838849 0.8331676 -0.407855
-0.6563073 0.8342724 -0.4058409
-0.6288871 0.8353773 -0.407855
-0.3345906 0.830074 -0.4068479
-0.1648364 0.8307369 -0.4048338
-0.6391435 0.8446581 -0.408862
-0.6295151 0.8479726 -0.4048338
-0.2789129 0.8431113 -0.4028198
-0.2504461 0.8406806 -0.408862
-0.6121419 0.8528339 -0.4028198
-0.326218 0.8574743 -0.4068479
-0.630143 0.8603469 -0.4048338
-0.5210879 0.867418 -0.4008057
-0.4932512 0.8638824 -0.4098691
-0.3645226 0.8696277 -0.4018127
-0.4765081 0.8760358 -0.4058409
-0.5493475 0.8857585 -0.4018127
-0.5317651 0.88156 -0.407855
-0.4497137 0.8952602 -0.4008057
0.5055987 0.5582808 -0.3977845
0.3036099 0.6864435 -0.3987916
0.3147036 0.6864435 -0.3977845
0.3345864 0.6897581 -0.3917422
0.193299 0.7107502 -0.3937563
0.1252717 0.7257761 -0.3917422
0.134693 0.7290907 -0.3977845
0.1633691 0.7244503 -0.3997986
0.1058075 0.7335101 -0.3957704
0.1244365 0.7381505 -0.3997986
-0.01915334 0.7593636 -0.3917422
0.01936056 0.7533974 -0.3977845
0.04761805 0.7542813 -0.3977845
0.06603774 0.7514087 -0.3957704
0.1520661 0.7500829 -0.3907351
0.01873262 0.7657717 -0.3977845
0.03715232 0.7633411 -0.3907351
0.04699011 0.7668766 -0.3917422
0.06519839 0.764004 -0.3997986
-0.0769242 0.7781461 -0.3997986
-0.04866672 0.7772622 -0.3907351
0.03631296 0.7757154 -0.3937563
-0.02061855 0.7843332 -0.3947634
-0.01036213 0.7841123 -0.3987916
0.007431719 0.7863219 -0.3957704
-0.2094204 0.7960446 -0.3907351
-0.07755215 0.7907414 -0.3927492
-0.03945896 0.7967076 -0.3917422
0.01726742 0.7907414 -0.3947634
-0.9202532 0.8172578 -0.3947634
-0.8505535 0.8199094 -0.3997986
-0.1537427 0.8110706 -0.3957704
-0.1357416 0.8141642 -0.3947634
-0.1256945 0.8152691 -0.3997986
-0.09702051 0.8110706 -0.3987916
-0.9568833 0.822782 -0.3947634
-0.8155958 0.8364822 -0.3917422
-0.2682379 0.8360402 -0.3997986
-0.1832561 0.8384709 -0.3977845
-0.6567259 0.8470887 -0.3967775
-0.2688658 0.8488565 -0.3927492
-0.1941383 0.8426693 -0.3907351
-0.4924118 0.8517291 -0.3947634
-0.3919429 0.859905 -0.3937563
-0.3638968 0.8574743 -0.3957704
-0.5755119 0.8660921 -0.3987916
-0.6403994 0.8700696 -0.3977845
-0.4769246 0.8888521 -0.3937563
-0.5767677 0.8910618 -0.3937563
-0.5499734 0.8987957 -0.3907351
-0.4668775 0.8926085 -0.3957704
0.5047593 0.5713181 -0.388721
0.4277336 0.6610319 -0.3836858
0.43799 0.6627997 -0.3846928
0.2732593 0.6873274 -0.3806646
0.3762442 0.6806983 -0.3826787
0.2138139 0.6926306 -0.3826787
0.2535816 0.6924097 -0.3836858
0.2527465 0.704784 -0.3846928
0.1830447 0.7149487 -0.3826787
0.2121394 0.7176003 -0.387714
0.1537406 0.7253342 -0.3846928
0.1822074 0.7273229 -0.3826787
0.1053889 0.7463264 -0.3806646
0.09471386 0.7518506 -0.3846928
0.1238086 0.7511877 -0.3806646
-0.06603984 0.7686443 -0.3816717
0.075459 0.764004 -0.387714
0.09387451 0.7644459 -0.3826787
-0.009524866 0.7717379 -0.3897281
0.01810258 0.778809 -0.3826787
0.06457254 0.7768202 -0.3897281
-0.01098798 0.7971495 -0.387714
-0.2100484 0.8088609 -0.3856999
-0.1349044 0.8020108 -0.3867069
-0.05012983 0.8026738 -0.3846928
-0.06876093 0.8192465 -0.3806646
-0.1543707 0.8236659 -0.3867069
-0.1363717 0.8269805 -0.3826787
-0.1076914 0.8203514 -0.3816717
-0.8511793 0.8327256 -0.3836858
-0.825015 0.8409016 -0.3806646
-0.6663544 0.8439952 -0.3836858
-0.240399 0.8428903 -0.3806646
-0.6395621 0.8579162 -0.3846928
-0.6125627 0.8656502 -0.388721
-0.557718 0.8603469 -0.3816717
-0.3821051 0.8649873 -0.3867069
-0.3364744 0.8683019 -0.3836858
-0.2977512 0.860126 -0.3816717
-0.6031414 0.8702906 -0.3846928
-0.4103625 0.8738261 -0.387714
-0.382733 0.8773616 -0.3816717
-0.3548941 0.8709535 -0.3826787
-0.6037694 0.8828859 -0.3806646
-0.494507 0.889294 -0.3897281
-0.3651506 0.8826649 -0.3867069
-0.3371024 0.8806762 -0.3816717
-0.5049728 0.8950392 -0.3836858
-0.4394573 0.896365 -0.3836858
-0.5229738 0.9054248 -0.3816717
-0.5058101 0.9076345 -0.3836858
-0.4775526 0.9014474 -0.3856999
-0.4675055 0.9054248 -0.3826787
-0.4783898 0.9140427 -0.3836858
0.4704359 0.6367252 -0.3756294
0.3664044 0.6707546 -0.3716012
0.3965457 0.6709756 -0.3796576
0.4271056 0.6740692 -0.3705942
0.254421 0.6800354 -0.3746223
0.2232331 0.7089824 -0.3726082
0.2431159 0.7003646 -0.3776435
0.2422807 0.7127389 -0.3786505
0.1926731 0.7235665 -0.3786505
0.2709568 0.7251133 -0.3716012
0.1529033 0.7379295 -0.3796576
0.1815795 0.7399182 -0.3766364
0.134065 0.742128 -0.3796576
0.1332257 0.7547233 -0.3776435
0.008266885 0.7743896 -0.3766364
0.09324866 0.7772622 -0.3726082
-0.06666778 0.7816816 -0.3705942
0.03568711 0.7885317 -0.3766364
-0.02124858 0.7973704 -0.3766364
-0.07818009 0.8035576 -0.3786505
-0.04008481 0.8097448 -0.3776435
-0.05075986 0.815048 -0.3756294
-0.2106763 0.8214562 -0.3766364
-0.1263225 0.8283063 -0.3766364
-0.9744657 0.837587 -0.3756294
-0.8411322 0.8322837 -0.3796576
-0.4739921 0.8391338 -0.3716012
-0.4185258 0.8446581 -0.3776435
-0.1654643 0.8439952 -0.3756294
-0.6667731 0.8568114 -0.3726082
-0.2793315 0.8561485 -0.3796576
-0.2127694 0.8592421 -0.3705942
-0.1947684 0.8557066 -0.3796576
-0.6571425 0.8603469 -0.3705942
-0.4095253 0.8614517 -0.3726082
-0.2514948 0.8663131 -0.3716012
-0.2230259 0.8603469 -0.3746223
-0.9763474 0.8751519 -0.3716012
-0.6579819 0.8727213 -0.3726082
-0.5759326 0.8791294 -0.3786505
-0.5583481 0.8729422 -0.3736153
-0.3266367 0.8707325 -0.3796576
-0.6682383 0.881781 -0.3746223
-0.4109926 0.8864214 -0.3726082
-0.3090563 0.8833278 -0.3705942
-0.2990071 0.8853166 -0.3716012
-0.5872335 0.8999006 -0.3776435
-0.5596039 0.8983538 -0.3726082
-0.5773957 0.904099 -0.3786505
-0.4949236 0.9023312 -0.3705942
-0.4501323 0.9082974 -0.3736153
-0.4400831 0.9089603 -0.3726082
-0.5503941 0.9118329 -0.3716012
0.5026683 0.6097669 -0.3625378
0.5231811 0.6029168 -0.3625378
0.4612239 0.6263396 -0.366566
0.5212973 0.6281074 -0.3645519
0.4896907 0.6526351 -0.3695871
0.4993213 0.660148 -0.3655589
0.3957084 0.6840128 -0.366566
0.4262663 0.6866645 -0.3605237
0.3756142 0.6935145 -0.367573
0.2833064 0.7016904 -0.3645519
0.314285 0.7001436 -0.3635448
0.3339606 0.7030162 -0.3695871
0.3638926 0.7085405 -0.3625378
0.2824692 0.7140647 -0.366566
0.1920452 0.7363827 -0.3685801
0.2115136 0.7310795 -0.3645519
0.2514906 0.7306375 -0.3635448
0.09555112 0.7401392 -0.3605237
0.07629417 0.7516297 -0.3695871
0.104761 0.7593636 -0.366566
0.1621132 0.7505248 -0.3695871
0.1231807 0.7642249 -0.3645519
0.04636216 0.7799138 -0.3625378
0.1039237 0.7721798 -0.3655589
-0.06729573 0.7944978 -0.3645519
0.007010996 0.7993592 -0.3685801
-0.06792367 0.8070931 -0.3625378
-0.09743705 0.8245498 -0.3625378
-0.0796453 0.8291901 -0.3605237
-0.2113042 0.8342724 -0.3655589
-0.1549986 0.8369241 -0.367573
-0.2119322 0.8468677 -0.3605237
-0.1367882 0.8400177 -0.3635448
-0.2506554 0.8541598 -0.3625378
-0.2408176 0.8557066 -0.367573
-0.1836726 0.85195 -0.3645519
-0.1660923 0.8568114 -0.3685801
-0.1376255 0.852613 -0.3605237
-0.2801709 0.8691857 -0.3695871
-0.2414456 0.8683019 -0.3625378
-0.6131885 0.8786874 -0.367573
-0.3923615 0.8733842 -0.3615307
-0.6584005 0.8850956 -0.366566
-0.6408181 0.8833278 -0.3635448
-0.5863983 0.8873053 -0.3635448
-0.558976 0.8859795 -0.3615307
-0.3553128 0.8839907 -0.3645519
-0.5319744 0.8950392 -0.3655589
-0.5221366 0.8932714 -0.3635448
-0.4116184 0.8990167 -0.367573
-0.383361 0.8901779 -0.3685801
-0.3655692 0.8957021 -0.367573
-0.5326023 0.9074135 -0.3685801
-0.4681334 0.918462 -0.3695871
-0.5510221 0.9246492 -0.3605237
-0.5062287 0.9204508 -0.3625378
0.02501206 0.4995028 -0.3534743
0.5223438 0.615954 -0.3534743
0.5198321 0.653077 -0.3564955
0.4587122 0.6641255 -0.3595166
0.4689686 0.6623577 -0.3514602
0.4888556 0.6654513 -0.3575025
0.4072207 0.6776047 -0.3595166
0.4578749 0.6767208 -0.3544814
0.2439553 0.6882113 -0.3544814
0.3657785 0.6837919 -0.3524673
0.4570376 0.6893161 -0.3514602
0.3454729 0.6913048 -0.3504532
0.3647299 0.6961662 -0.3595166
0.3950805 0.6968291 -0.3564955
0.4065928 0.6902 -0.3504532
0.213186 0.7058889 -0.3575025
0.2726314 0.7003646 -0.3554884
0.271792 0.7129599 -0.3595166
0.2416528 0.7257761 -0.3534743
0.1629505 0.7379295 -0.3595166
0.2703289 0.7381505 -0.3524673
0.1614853 0.763562 -0.3544814
0.1225548 0.7770412 -0.3514602
0.06415391 0.7902994 -0.3564955
-0.02187443 0.8104077 -0.3575025
-0.0114087 0.8101867 -0.3595166
-0.2215607 0.8358192 -0.3575025
-0.09806499 0.837366 -0.3544814
-0.8415508 0.845542 -0.3524673
-0.1554172 0.8497404 -0.3524673
-0.3073797 0.8585792 -0.3534743
-0.2692844 0.8623357 -0.3595166
-0.1843027 0.8645453 -0.3514602
-0.8430139 0.8702906 -0.3585096
-0.6303523 0.8738261 -0.3514602
-0.308217 0.8711745 -0.3514602
-0.2699103 0.87471 -0.3585096
-0.2521206 0.8791294 -0.3564955
-0.2236538 0.8733842 -0.3534743
-0.2131881 0.8720583 -0.3595166
-0.712613 0.8941553 -0.3524673
-0.6414439 0.8961441 -0.3585096
-0.604188 0.8959231 -0.3575025
-0.3936174 0.8985748 -0.3524673
-0.3559407 0.896807 -0.3524673
-0.6048138 0.9085184 -0.3534743
-0.3837796 0.9029942 -0.3514602
-0.6322361 0.9111701 -0.3534743
-0.5878614 0.9127168 -0.3575025
-0.560234 0.9109491 -0.3595166
-0.5332303 0.9200088 -0.3564955
-0.4788085 0.9273009 -0.3544814
0.5043427 0.5847973 -0.3484391
0.532391 0.6181638 -0.346425
0.5315537 0.6307591 -0.3494461
0.4907373 0.6407027 -0.3494461
0.5206693 0.6411446 -0.3434038
0.5307185 0.6435753 -0.3494461
0.5189948 0.6661143 -0.3413897
0.4375714 0.6764998 -0.3423968
0.4683406 0.675174 -0.3403827
0.4882255 0.6787095 -0.3454179
0.436732 0.6890951 -0.346425
0.4675034 0.6879902 -0.3413897
0.4256404 0.6994807 -0.3454179
0.3031892 0.7003646 -0.3494461
0.344847 0.7041211 -0.3423968
0.3749863 0.7067727 -0.3434038
0.4057555 0.7032372 -0.3454179
0.4358968 0.7014694 -0.3484391
0.2523278 0.7184842 -0.3413897
0.313655 0.7131808 -0.3423968
0.3440077 0.7164954 -0.3434038
0.2226052 0.7222406 -0.3434038
0.2219793 0.7350569 -0.3454179
0.1809515 0.7531765 -0.3484391
0.1035051 0.7852171 -0.3434038
0.04573422 0.792951 -0.3484391
0.09283003 0.7907414 -0.3403827
0.0170581 0.8044415 -0.3454179
0.03526848 0.8022318 -0.3423968
-0.04050344 0.823003 -0.3484391
-0.06917956 0.8322837 -0.346425
-0.4637378 0.8437741 -0.3403827
-0.2221886 0.8484145 -0.3484391
-0.1267411 0.8417854 -0.346425
-0.08027324 0.8417854 -0.346425
-0.1560452 0.8623357 -0.3403827
-0.2981699 0.8736051 -0.3423968
-0.3270553 0.8837698 -0.346425
-0.2805874 0.882002 -0.3494461
-0.2420735 0.8813391 -0.3413897
-0.6136071 0.8919457 -0.3423968
-0.337521 0.8939344 -0.3494461
-0.3276832 0.896365 -0.3434038
-0.3094729 0.8961441 -0.3494461
-0.2812154 0.8948182 -0.3444109
-0.3661971 0.9087394 -0.3413897
-0.6150745 0.9164733 -0.3494461
-0.5778143 0.9173572 -0.3494461
-0.5233925 0.918683 -0.346425
-0.4953443 0.9153685 -0.347432
-0.3942453 0.9111701 -0.3454179
-0.5784444 0.9299525 -0.346425
-0.4405039 0.9224395 -0.3434038
-0.5338582 0.933046 -0.347432
-0.5240204 0.9312783 -0.3484391
-0.5068566 0.9332671 -0.3444109
-0.4685541 0.9312783 -0.3454179
-0.8057581 0.9792288 -0.3454179
-0.8488769 0.9832063 -0.346425
0.460596 0.6398188 -0.3333333
0.4597587 0.6521931 -0.3333333
0.4989006 0.6736272 -0.3333333
0.4873883 0.6913048 -0.3383686
0.2820526 0.7273229 -0.3363545
0.3128198 0.7257761 -0.3373615
0.3634719 0.7220197 -0.3313192
0.1916266 0.7498619 -0.3363545
0.22114 0.7478732 -0.3353474
0.3002609 0.7507458 -0.3353474
0.1330206 0.7684234 -0.3353474
0.1518568 0.764004 -0.3353474
0.2094183 0.7697492 -0.3313192
0.07524759 0.7774832 -0.3363545
0.1608573 0.7763783 -0.3343404
0.07441033 0.7902994 -0.3323263
0.1028771 0.7982543 -0.3303122
-0.07859872 0.8172578 -0.3323263
0.006592367 0.8128384 -0.3313192
-0.05117849 0.8283063 -0.3393756
-0.01182733 0.8234449 -0.3323263
-0.1081121 0.8338305 -0.3363545
-0.06980751 0.8453209 -0.3343404
-0.05180644 0.8411225 -0.3353474
-0.8421788 0.8583582 -0.3353474
-0.1380441 0.8656502 -0.3373615
-0.817061 0.8753729 -0.3343404
-0.630773 0.8868634 -0.3383686
-0.270331 0.8877472 -0.3373615
-0.4210376 0.8961441 -0.3373615
-0.2994258 0.8987957 -0.3313192
-0.7130316 0.9071926 -0.3303122
-0.6142351 0.9043199 -0.3353474
-0.3101008 0.9091813 -0.3323263
-0.775826 0.9144846 -0.3363545
-0.5606505 0.9239863 -0.3323263
-0.4959723 0.9281847 -0.3343404
-0.4503438 0.9217766 -0.3323263
-0.3948733 0.9239863 -0.3323263
-0.5514407 0.9379074 -0.3353474
-0.4231308 0.9341509 -0.3313192
-0.5074846 0.9460833 -0.3363545
-0.6460509 0.9843111 -0.3353474
0.4917839 0.6287703 -0.3242699
0.5022496 0.6232461 -0.3252769
0.5518551 0.6261187 -0.3232628
0.5005751 0.6486576 -0.3222558
0.3465195 0.6793724 -0.3293051
0.456619 0.7027953 -0.3202417
0.3027727 0.7136228 -0.3202417
0.333542 0.7162744 -0.3282981
0.3743583 0.7198099 -0.3282981
0.3944525 0.7100873 -0.326284
0.4354782 0.7149487 -0.3212487
0.3433797 0.7295327 -0.3293051
0.3121918 0.7385924 -0.3242699
0.2110928 0.7445586 -0.3242699
0.3427518 0.742128 -0.3242699
0.2395597 0.7644459 -0.3222558
-0.6071184 0.7794719 -0.327291
-0.6077463 0.7920672 -0.3202417
0.04531559 0.8062093 -0.326284
0.06373528 0.8033366 -0.3242699
0.07378239 0.8028947 -0.326284
0.09220208 0.8035576 -0.3202417
-0.02229306 0.8236659 -0.3242699
0.03380119 0.8276433 -0.3282981
-0.01245527 0.8360402 -0.3202417
-0.10874 0.8468677 -0.3293051
-0.1271597 0.8546017 -0.327291
-0.08069187 0.8548227 -0.326284
-0.1949777 0.8694067 -0.3222558
-0.127997 0.867197 -0.326284
-0.1663016 0.8700696 -0.326284
-0.1566731 0.8753729 -0.327291
-0.4656216 0.882002 -0.3222558
-0.3927822 0.8866423 -0.3252769
-0.1671388 0.8826649 -0.3242699
-0.2525392 0.8926085 -0.3282981
-0.2424921 0.8943763 -0.3242699
-0.2142347 0.8979118 -0.3222558
-0.196445 0.8948182 -0.3202417
-0.6690755 0.9078555 -0.327291
-0.4216634 0.9091813 -0.3202417
-0.3563572 0.9098442 -0.3252769
-0.2818433 0.9076345 -0.3222558
-0.2433294 0.9071926 -0.3202417
-0.8019904 0.9171363 -0.3202417
-0.3844075 0.9162524 -0.3282981
-0.6052346 0.9217766 -0.3232628
-0.3666179 0.9215556 -0.3242699
-0.3569873 0.9224395 -0.3222558
-0.6060718 0.93393 -0.3282981
-0.5612785 0.9365816 -0.3293051
-0.4509696 0.9343719 -0.327291
-0.3954991 0.9365816 -0.3232628
-0.5788609 0.9429897 -0.3222558
-0.5621157 0.9491769 -0.3293051
-0.4966002 0.941001 -0.327291
-0.7965482 0.985416 -0.3252769
-0.8492955 0.9962435 -0.326284
-0.8061787 0.9922661 -0.3222558
-0.7703838 0.992708 -0.3232628
0.5625322 0.6186057 -0.3121853
0.561695 0.6307591 -0.3182276
0.5501827 0.6515302 -0.3131923
0.5292512 0.6694288 -0.3182276
0.5185761 0.6793724 -0.3121853
0.528414 0.6822451 -0.3152064
0.5177368 0.6919677 -0.3111782
0.3327047 0.7290907 -0.3192346
0.4044997 0.7290907 -0.3131923
0.251072 0.7445586 -0.3101712
0.2104649 0.7575958 -0.3162135
0.2403948 0.7520716 -0.3172205
0.1512309 0.7770412 -0.3141994
0.1604387 0.7894155 -0.3172205
0.1221341 0.7905204 -0.3141994
0.1212968 0.8028947 -0.3172205
0.1497636 0.8022318 -0.3111782
0.03484985 0.815711 -0.3101712
0.005964423 0.8258756 -0.3111782
-0.04155002 0.8488565 -0.3152064
-0.109368 0.859905 -0.3131923
-0.07043545 0.8585792 -0.3101712
-0.1847213 0.8778036 -0.3192346
-0.138672 0.8786874 -0.3131923
-0.4202003 0.8842117 -0.3101712
-0.2240724 0.8866423 -0.3182276
-0.2136067 0.8853166 -0.3182276
-0.1956057 0.882223 -0.3152064
-0.1573032 0.8884101 -0.3111782
-0.6311896 0.8996796 -0.3121853
-0.2247004 0.8992376 -0.3172205
-0.1677689 0.8952602 -0.3141994
-0.3379376 0.9074135 -0.3172205
-0.3281019 0.9096233 -0.3111782
-0.6152796 0.9297315 -0.3152064
-0.5880708 0.925975 -0.3152064
-0.8559915 0.9343719 -0.3172205
-0.4407132 0.9354767 -0.3141994
-0.5342748 0.9463043 -0.3111782
-0.524439 0.9443156 -0.3182276
-0.4790199 0.94078 -0.3111782
-0.4415504 0.9478511 -0.3152064
-0.4237587 0.9469672 -0.3131923
-0.525067 0.9571318 -0.3111782
-0.4970188 0.9535963 -0.3111782
-0.5801167 0.9684013 -0.3121853
-0.6351665 0.9743675 -0.3101712
-0.8593426 0.9973484 -0.3121853
0.5014123 0.6362833 -0.3081571
0.5495547 0.6641255 -0.306143
0.4982726 0.6868854 -0.3091641
0.4252218 0.7129599 -0.3031219
0.3938246 0.7231245 -0.305136
0.4243845 0.7253342 -0.30715
0.362846 0.7352779 -0.3011078
0.3739376 0.7328472 -0.3021148
0.3929873 0.7357198 -0.3001007
0.3320746 0.741907 -0.306143
0.3115639 0.7514087 -0.3081571
0.1912079 0.7628991 -0.3091641
0.1903707 0.7754944 -0.3011078
0.2198841 0.7735057 -0.30715
0.1323905 0.7816816 -0.3021148
0.1598107 0.8022318 -0.3031219
0.01663947 0.8181416 -0.3011078
0.07315445 0.8159319 -0.305136
0.1022492 0.8115125 -0.3001007
-0.04092207 0.8364822 -0.3081571
-0.02292101 0.8367031 -0.3081571
0.005336479 0.8386918 -0.305136
-0.02354895 0.8490775 -0.3091641
-0.01308322 0.8488565 -0.3021148
-0.0813219 0.8678599 -0.30715
-0.1099959 0.8727213 -0.306143
-0.1284177 0.8802342 -0.3021148
-0.1106239 0.8853166 -0.3001007
-0.2529579 0.9054248 -0.30715
-0.1968615 0.9074135 -0.3041289
-0.4116184 0.9129378 -0.3091641
-0.3385676 0.9200088 -0.3021148
-0.3287298 0.9219975 -0.3021148
-0.5886987 0.9387913 -0.3031219
-0.3576152 0.9354767 -0.305136
-0.6064904 0.9469672 -0.305136
-0.4515975 0.9474092 -0.3031219
-0.3959198 0.9498398 -0.3001007
-0.6071184 0.9593415 -0.305136
-0.5792795 0.955806 -0.3081571
-0.5518593 0.9509447 -0.306143
-0.5349048 0.9588996 -0.306143
-0.4695986 0.9573528 -0.3081571
-0.4241794 0.9597834 -0.3041289
-0.4419691 0.9606673 -0.3041289
-0.5355327 0.9710529 -0.3041289
-0.5639995 0.9871837 -0.3091641
-0.6464716 0.9971274 -0.3081571
-0.6186307 0.9922661 -0.3091641
0.5593946 0.6687659 -0.2950655
0.5895339 0.6674401 -0.2970796
0.5788588 0.6709756 -0.2950655
0.5585552 0.6813612 -0.2990937
0.3021447 0.72666 -0.2950655
0.2414435 0.7399182 -0.2970796
0.3013075 0.7392553 -0.2970796
0.2699103 0.7520716 -0.2970796
0.2207213 0.7611313 -0.2980866
0.2692803 0.7648879 -0.2940584
0.2799574 0.7662137 -0.2960725
0.3109381 0.7644459 -0.2920443
0.2496067 0.7701911 -0.2990937
0.1897427 0.7883107 -0.2950655
0.04489696 0.8192465 -0.2990937
0.09178346 0.8168158 -0.2900302
0.0909462 0.8291901 -0.2900302
0.01517636 0.8433322 -0.2990937
0.03359606 0.8406806 -0.2920443
0.04343176 0.8446581 -0.2940584
-0.09827431 0.8512871 -0.2970796
-0.05222507 0.8546017 -0.2960725
0.00449922 0.8512871 -0.2980866
-0.05306233 0.867197 -0.2970796
-0.04218005 0.8618937 -0.2900302
0.03191945 0.8658712 -0.2910373
-0.1851399 0.8910618 -0.2990937
-0.2707496 0.9012264 -0.2970796
-0.2253304 0.9122749 -0.2980866
-0.2148647 0.9111701 -0.2930514
-0.4220842 0.9222186 -0.2950655
-0.3846168 0.9297315 -0.2910373
-0.3004723 0.9244282 -0.2990937
-0.3391955 0.933046 -0.2960725
-0.3854541 0.9421058 -0.2980866
-0.3398235 0.9454204 -0.2930514
-0.386082 0.9547011 -0.2910373
-0.5524852 0.9637609 -0.2950655
-0.4522255 0.9602254 -0.2950655
-0.5083218 0.9723787 -0.2910373
-0.4248053 0.9725997 -0.2940584
-0.6357945 0.9874047 -0.2940584
-0.6177955 0.9801127 -0.2910373
-0.608165 0.9845321 -0.2910373
-0.5537431 0.9885095 -0.2930514
-0.5811654 0.9935918 -0.2990937
-0.481741 0.9909402 -0.2970796
0.5780194 0.6837919 -0.2890232
0.4055462 0.7171583 -0.2870091
0.2816319 0.741465 -0.2809668
0.3622181 0.7483151 -0.2829809
0.3733118 0.7458844 -0.2819738
0.2506554 0.7580378 -0.2839879
0.2807947 0.7536184 -0.2890232
0.3314488 0.7549442 -0.2809668
0.1807422 0.7675395 -0.2839879
0.2998423 0.7644459 -0.2829809
0.3306116 0.7675395 -0.2839879
0.3613808 0.7606894 -0.2870091
0.239141 0.7779251 -0.2809668
0.2684451 0.7774832 -0.2829809
0.2793294 0.778809 -0.2829809
0.1319719 0.7947188 -0.2819738
0.06331666 0.8165948 -0.2870091
0.1208782 0.8159319 -0.2890232
0.1776004 0.8174787 -0.2839879
0.1016233 0.8243288 -0.284995
0.04426692 0.8322837 -0.284995
0.003871276 0.8641034 -0.286002
-0.07085617 0.8716164 -0.2829809
-0.05369027 0.8797923 -0.284995
-0.1001581 0.889073 -0.284995
-0.1390886 0.8921666 -0.2809668
-0.1290436 0.8934925 -0.2829809
-0.4120371 0.9257541 -0.286002
-0.2154905 0.9237653 -0.2870091
-0.1872331 0.9288477 -0.2819738
-0.300891 0.9374655 -0.2819738
-0.244376 0.9328251 -0.286002
-0.2161185 0.9365816 -0.2819738
-0.6157003 0.9427688 -0.2890232
-0.4685541 0.9451994 -0.286002
-0.4794364 0.9535963 -0.286002
-0.644165 0.9602254 -0.2809668
-0.562325 0.9626561 -0.284995
-0.4141302 0.963098 -0.2890232
-0.3965478 0.9626561 -0.2829809
-0.6075349 0.9723787 -0.2829809
-0.5629508 0.9750304 -0.2870091
-0.5531152 0.9761353 -0.2870091
-0.5254856 0.9701691 -0.286002
-0.4528555 0.9728207 -0.2870091
-0.5359514 0.9840901 -0.284995
-0.5261157 0.9825433 -0.2839879
-0.5089498 0.984974 -0.2839879
-0.4534814 0.985416 -0.2829809
-0.5267415 0.9949177 -0.286002
-0.5095777 0.9975693 -0.2809668
-0.4712752 0.9949177 -0.2890232
-0.4541093 0.9977903 -0.2829809
-0.636211 1 -0.286002
0.5489289 0.6773837 -0.2799597
0.6194658 0.6793724 -0.2739174
0.5480895 0.689979 -0.2769386
0.3423353 0.7558281 -0.2759315
0.209209 0.7834494 -0.2789527
0.2077438 0.8086399 -0.2719033
0.1305046 0.8199094 -0.2799597
0.149345 0.81549 -0.2729104
0.1591849 0.81549 -0.2789527
0.0624773 0.8294111 -0.2789527
0.07273791 0.8291901 -0.2779456
0.1202503 0.8287482 -0.2739174
0.01622084 0.8313999 -0.2759315
0.06185145 0.8420064 -0.2749245
0.01475564 0.8561485 -0.2789527
0.03296602 0.8537178 -0.2719033
-0.09869293 0.8643244 -0.2719033
-0.02396549 0.8623357 -0.2759315
0.003243332 0.8769197 -0.2769386
-0.08173844 0.8811181 -0.2729104
-0.07148203 0.8842117 -0.2769386
-0.1112518 0.8987957 -0.2708963
-0.1681854 0.9087394 -0.2759315
-0.1397186 0.9047619 -0.2789527
-0.2996351 0.9124959 -0.2779456
-0.2711683 0.9142636 -0.2789527
-0.2535858 0.918683 -0.2789527
-0.1583476 0.9142636 -0.2719033
-0.1118798 0.911391 -0.2749245
-0.2820526 0.9211137 -0.2789527
-0.2435408 0.9204508 -0.2769386
-0.2259563 0.9253121 -0.2789527
-0.1974895 0.9204508 -0.2789527
-0.366823 0.9352558 -0.2708963
-0.3291484 0.9350348 -0.2729104
-0.1981174 0.9328251 -0.2789527
-0.3676623 0.9474092 -0.2789527
-0.3580339 0.948514 -0.2759315
-0.2835178 0.9460833 -0.2789527
-0.3404535 0.9582366 -0.2719033
-0.5074846 0.9602254 -0.2739174
-0.4974396 0.9670755 -0.2799597
-0.4800643 0.9666335 -0.2708963
-0.3682903 0.9600044 -0.2789527
-0.4698079 0.970611 -0.2749245
-0.4147581 0.9761353 -0.2739174
-0.3689182 0.9728207 -0.2719033
-0.3592898 0.9737046 -0.2708963
-0.6087929 0.9975693 -0.2729104
-0.5365814 0.9969064 -0.2708963
0.6123492 0.6239089 -0.2688822
0.6211404 0.6544029 -0.264854
0.6098374 0.6616948 -0.2668681
0.6397694 0.675174 -0.2638469
0.5464171 0.7156115 -0.264854
0.5562528 0.720031 -0.2638469
0.1801164 0.7803558 -0.2668681
0.2196748 0.7872058 -0.2628399
0.2491881 0.7836703 -0.2608258
0.1508102 0.7907414 -0.2678751
0.2085811 0.7962656 -0.2668681
0.2385131 0.7909623 -0.265861
0.2483488 0.7960446 -0.2638469
0.1893241 0.8015689 -0.265861
0.1585549 0.8283063 -0.2618328
0.07210787 0.8417854 -0.2698892
0.09031826 0.8422274 -0.264854
0.04280381 0.8576953 -0.2678751
0.06101419 0.8548227 -0.2688822
0.08969031 0.8548227 -0.2688822
-0.01349975 0.8621147 -0.2668681
0.0141277 0.8689647 -0.2698892
-0.04259659 0.8749309 -0.2698892
-0.02480484 0.8751519 -0.264854
-0.01412979 0.874489 -0.2678751
0.03150082 0.8791294 -0.2688822
0.07001472 0.8797923 -0.2638469
-0.04343385 0.8875262 -0.2678751
0.01349975 0.88156 -0.2638469
-0.1007861 0.9021103 -0.2638469
-0.08383159 0.918904 -0.2618328
-0.3103101 0.9231024 -0.2698892
-0.2717962 0.9273009 -0.264854
-0.1688134 0.9213347 -0.2688822
-0.1127191 0.9239863 -0.265861
-0.412665 0.9387913 -0.2698892
-0.2540065 0.9314993 -0.264854
-0.2265842 0.9379074 -0.2698892
-0.1694413 0.9341509 -0.2668681
-0.3297764 0.9478511 -0.2628399
-0.3115681 0.948514 -0.2628399
-0.5891152 0.9520495 -0.2698892
-0.4132929 0.9513866 -0.264854
-0.5897453 0.9646448 -0.2668681
-0.3865007 0.9677384 -0.264854
-0.3586639 0.9613302 -0.265861
-0.3304043 0.9602254 -0.2678751
-0.3124033 0.9608883 -0.2668681
-0.644795 0.9730417 -0.2678751
-0.4423898 0.9739255 -0.2668681
-0.3130312 0.9734836 -0.2608258
-0.3027748 0.9752514 -0.2638469
-0.5910012 0.9898354 -0.2618328
-0.5803261 0.9818804 -0.2698892
-0.4704359 0.9832063 -0.2618328
-0.4252239 0.9858579 -0.2618328
-0.4153861 0.9889515 -0.264854
-0.3871286 0.9801127 -0.2678751
-0.3318695 0.985195 -0.2668681
-0.3136591 0.9858579 -0.2618328
-0.4986933 0.9922661 -0.2618328
-0.4260612 0.9980113 -0.2668681
-0.3703834 0.9977903 -0.2668681
0.5872314 0.7063308 -0.2537764
0.6380928 0.7003646 -0.2598187
0.2376779 0.8037786 -0.2578046
0.2780735 0.8044415 -0.2557905
0.1487191 0.8285272 -0.2557905
0.1012026 0.837587 -0.2557905
0.1298787 0.8327256 -0.2598187
0.1196223 0.8420064 -0.2517623
0.1005747 0.8501823 -0.2517623
0.08885305 0.867418 -0.2598187
0.09973741 0.8625566 -0.2527694
-0.09932088 0.8771406 -0.2567976
-0.02543278 0.8877472 -0.2547835
-0.01475773 0.8873053 -0.2557905
0.002615387 0.8899569 -0.2537764
-0.08236638 0.8939344 -0.2567976
-0.07190065 0.8972489 -0.2557905
-0.0541089 0.8930505 -0.2588117
0.01266459 0.8943763 -0.2557905
0.03087497 0.8919457 -0.2557905
-0.1855585 0.9047619 -0.2537764
-0.1575083 0.9021103 -0.2567976
-0.08299433 0.9065297 -0.2517623
-0.07273791 0.9096233 -0.2527694
-0.1861844 0.9173572 -0.2588117
-0.101414 0.9149265 -0.2547835
-0.04469183 0.9127168 -0.2598187
-0.1587663 0.9273009 -0.2537764
-0.102042 0.9275218 -0.2537764
-0.3109381 0.9359187 -0.2598187
-0.2826806 0.93393 -0.2588117
-0.2724262 0.9398962 -0.2537764
-0.1131357 0.9368026 -0.2517623
-0.08445954 0.9314993 -0.2517623
-0.2546324 0.9440946 -0.2527694
-0.1876517 0.9418849 -0.2598187
-0.08529679 0.9440946 -0.2547835
-0.2554697 0.9566899 -0.2537764
-0.2270029 0.9507236 -0.2517623
-0.1424397 0.9549221 -0.2537764
-0.2171651 0.9619932 -0.2598187
-0.5903732 0.9772401 -0.2588117
-0.4978561 0.9798917 -0.2588117
-0.4806923 0.9794498 -0.2598187
-0.3310323 0.9730417 -0.2578046
-0.2284681 0.9759142 -0.2517623
-0.2180023 0.9748094 -0.2547835
-0.3695462 0.9858579 -0.2517623
-0.3599177 0.9865208 -0.2557905
-0.3877545 0.9933709 -0.2507553
-0.3605456 0.9991161 -0.2527694
-0.3322881 0.9977903 -0.2557905
-0.30424 1 -0.2547835
0.5891152 0.6818031 -0.2406848
0.2994237 0.7779251 -0.2487412
0.2680264 0.7909623 -0.2477341
0.1315532 0.8084189 -0.244713
0.1788584 0.8057673 -0.2426989
0.07147993 0.8550436 -0.2467271
0.1189944 0.8543807 -0.2467271
0.04238518 0.8711745 -0.2416918
0.0882251 0.8802342 -0.2497482
-0.01538568 0.8999006 -0.2467271
0.05913036 0.8926085 -0.2426989
-0.1292529 0.9069716 -0.2467271
-0.05473685 0.9060877 -0.2426989
-0.02606073 0.9003425 -0.2467271
-0.07336585 0.9224395 -0.2467271
-0.04594563 0.9385703 -0.2416918
-0.2445853 0.9465252 -0.2416918
-0.2165371 0.9496188 -0.2497482
-0.1139729 0.9496188 -0.2416918
-0.1026699 0.9403381 -0.2406848
-0.05682999 0.9432107 -0.2426989
-0.2452132 0.9588996 -0.2437059
-0.1321833 0.9569108 -0.244713
-0.2278422 0.9633189 -0.2487412
-0.229096 0.9887305 -0.2477341
-0.2008385 0.9838692 -0.2477341
-0.1895355 0.9801127 -0.24572
-0.1721624 0.9845321 -0.24572
-0.1903728 0.992487 -0.244713
-0.1727903 0.9971274 -0.2426989
0.6092115 0.674953 -0.2336355
0.6083722 0.6873274 -0.2396777
0.1796956 0.793393 -0.2376636
0.2190468 0.8002431 -0.2396777
0.1886962 0.8148271 -0.2356495
0.2473043 0.8216771 -0.2326284
0.06059556 0.8678599 -0.2376636
0.07085198 0.8680809 -0.2376636
0.05996552 0.8804552 -0.2356495
-0.1032979 0.9527124 -0.2386707
-0.05766725 0.955806 -0.2396777
-0.3019375 0.9633189 -0.2356495
-0.1328112 0.9697271 -0.2316214
-0.07524969 0.9602254 -0.2306143
-0.3406587 0.9714949 -0.2376636
-0.2458412 0.9717158 -0.2316214
-0.1614874 0.977682 -0.2306143
-0.4428063 0.9871837 -0.2326284
-0.3975943 0.9885095 -0.2396777
-0.218421 0.9878467 -0.2346425
-0.1621153 0.9898354 -0.2346425
-0.1334392 0.9823224 -0.2316214
-0.342126 0.9964645 -0.2386707
-0.2012571 0.9964645 -0.2346425
-0.1443214 0.9931499 -0.2316214
0.1294601 0.8462048 -0.2275932
0.187231 0.8402386 -0.2275932
0.04175724 0.8837698 -0.2286002
0.04112929 0.896586 -0.2225579
0.002198851 0.9029942 -0.223565
-0.1399279 0.9182411 -0.2255791
-0.01601572 0.9127168 -0.2255791
-0.04510837 0.925975 -0.223565
-0.1407652 0.9308364 -0.2265861
-0.1305088 0.9321622 -0.2296073
-0.1983267 0.9467462 -0.2225579
-0.1039258 0.9657496 -0.2205438
-0.3967571 0.9763562 -0.224572
-0.1997919 0.9717158 -0.2255791
-0.1152288 0.9750304 -0.2265861
-0.3140778 0.9988952 -0.2296073
0.2987957 0.7911833 -0.2185297
0.0695961 0.8937134 -0.2114804
-0.05599273 0.9314993 -0.2124874
-0.3011024 0.9513866 -0.2195368
-0.1143915 0.9626561 -0.2175227
-0.3412887 0.9845321 -0.2185297
-0.1340671 0.9951386 -0.2185297
-0.443225 1 -0.2175227
0.2981678 0.8042206 -0.2024169
-0.04343385 0.9014474 -0.2064451
-0.1296715 0.9202298 -0.2084592
-0.07357726 0.9356977 -0.203424
-0.07441243 0.948293 -0.2084592
-0.0855061 0.9575738 -0.2024169
-0.01852749 0.963098 -0.203424
-0.1434863 0.9812176 -0.204431
-0.04636426 0.9520495 -0.1963746
-0.1424397 0.9690642 -0.1812689
