# .PCD v.7 - Point Cloud Data file format
VERSION .7
FIELDS x y z
SIZE 4 4 4
TYPE F F F
COUNT 1 1 1
WIDTH 134
HEIGHT 1
VIEWPOINT 0 0 0 1 0 0 0
POINTS 134
DATA ascii
0.5338562 -0.9487349 -0.3252769
0.5330189 -0.9368026 -0.3293051
0.5037148 -0.8451 -0.3202417
0.5411842 -0.948514 -0.3141994
0.4756687 -0.8921666 -0.3182276
0.5349027 -0.9604464 -0.305136
0.4966002 -0.8517291 -0.3011078
0.5422287 -0.9606673 -0.2990937
0.5106222 -0.9456413 -0.2769386
0.5026683 -0.9350348 -0.2306143
0.5141805 -0.9951386 -0.2225579
0.5315537 -0.8948182 -0.2145015
0.5104129 -0.9292896 -0.1973817
0.5392983 -0.8897359 -0.1490433
0.5074825 -0.992487 -0.1299094
0.5386683 -0.8755938 -0.1208459
0.3825216 -0.9869628 -0.1117825
0.5068545 -0.9796708 -0.1188318
0.4670847 -0.8439952 -0.1148036
0.4723176 -0.8062093 -0.1107754
0.5307185 -0.8654292 -0.101712
0.4132909 -0.8590211 -0.1007049
0.5382518 -0.9754723 -0.08459215
0.5104129 -0.9111701 -0.081571
0.4666661 -0.830516 -0.0835851
0.3804284 -0.948514 -0.07049345
0.531763 -0.8764777 -0.07452165
0.4059649 -0.8627776 -0.06445116
0.4735735 -0.8163739 -0.05035247
0.3869151 -0.9297315 -0.04229607
0.385452 -0.904099 -0.04431017
0.5148085 -0.9739255 -0.03323263
0.3800098 -0.9348139 -0.03625378
0.4754573 -0.8411225 -0.03121853
0.4746201 -0.8285272 -0.03726083
0.3862893 -0.9162524 -0.02517623
0.5068545 -0.9624351 -0.008056395
0.3881731 -0.94078 -0.005035247
0.5135526 -0.9463043 -2.88658e-15
0.5307185 -0.8486355 -0.001007049
0.4664568 -0.8148271 -0.007049345
0.5143899 -0.9586786 0.01611279
0.4122443 -0.9447575 0.02618328
0.509787 -0.9964645 0.05538771
0.5064359 -0.9474092 0.05337362
0.4551538 -0.9902773 0.1127895
0.4781784 -0.8605679 0.1168177
0.4698058 -0.8462048 0.1178248
0.3835682 -0.9637609 0.1389728
0.5047593 -0.9065297 0.1399799
0.5114595 -0.8886311 0.1480363
0.4457346 -0.8351563 0.1450151
0.4708524 -0.8572533 0.1520645
0.4777598 -0.845542 0.1661631
0.4873883 -0.9993371 0.1711984
0.4086859 -0.8643244 0.1822759
0.4798529 -0.9904983 0.1913394
0.5068545 -0.9288477 0.1963746
0.3864986 -0.8811181 0.1953676
0.4172678 -0.8718374 0.1983887
0.5102035 -0.8612308 0.1983887
0.5043427 -0.8915037 0.2024169
0.5012031 -0.8420064 0.2094663
0.5028775 -0.8663131 0.2175227
0.5020382 -0.8539388 0.2195368
0.4469926 -0.8451 0.2114804
0.5095756 -0.8477516 0.2124874
0.4390387 -0.8349354 0.223565
0.3906849 -0.9432107 0.2346425
0.5039241 -0.8775826 0.2366566
0.4398738 -0.8468677 0.2316214
0.5112501 -0.8720583 0.2416918
0.3837775 -0.9465252 0.2547835
0.4513861 -0.9067506 0.2578046
0.3917314 -0.9544802 0.2628399
0.4172678 -0.9829853 0.2708963
0.4250125 -0.9838692 0.2739174
0.4725269 -0.8638824 0.2799597
0.392778 -0.9664125 0.2870091
0.4172678 -0.8550436 0.2940584
0.3936153 -0.9783449 0.30715
0.4243845 -0.9692852 0.3131923
0.411407 -0.8833278 0.3141994
0.4421763 -0.8678599 0.3131923
0.4839346 -0.9759142 0.326284
0.452642 -0.9166943 0.3282981
0.4430135 -0.8795713 0.326284
0.4503396 -0.8784665 0.3232628
0.4495044 -0.8656502 0.3282981
0.4214541 -0.9171363 0.3353474
0.4122443 -0.8945973 0.3323263
0.4488744 -0.852392 0.3363545
0.4415483 -0.8541598 0.3454179
0.4139188 -0.9180201 0.3544814
0.4107791 -0.8691857 0.3554884
0.4164306 -0.9542592 0.3655589
0.4132909 -0.9056458 0.3605237
0.4172678 -0.9661916 0.3716012
0.4873883 -0.9646448 0.3766364
0.486551 -0.9520495 0.3736153
0.4210334 -0.9023312 0.3826787
0.4834113 -0.9001215 0.3816717
0.4499209 -0.9743675 0.3967775
0.4243845 -0.9527124 0.3987916
0.4490837 -0.9617722 0.407855
0.416012 -0.9401171 0.407855
0.4852951 -0.9246492 0.407855
0.456619 -0.9637609 0.4179255
0.4800622 -0.955806 0.4169184
0.4762946 -0.8932714 0.4410876
0.4231286 -0.9246492 0.4572004
0.4208283 -0.8855375 0.469285
0.483202 -0.8835488 0.4632427
0.4748294 -0.8678599 0.469285
0.4448974 -0.8855375 0.4753273
0.4201982 -0.8722793 0.4783484
0.2820526 -0.72666 0.4763343
0.4488744 -0.9463043 0.4833837
0.4241752 -0.9361396 0.4823766
0.4758739 -0.8789084 0.4964753
0.4564097 -0.9467462 0.5085599
0.4476185 -0.9206718 0.5085599
0.445944 -0.896365 0.5065458
0.4467812 -0.9082974 0.5125881
0.452642 -0.8826649 0.5196375
0.4557818 -0.9332671 0.530715
0.4869696 -0.9317203 0.5397785
0.478595 -0.9138217 0.5397785
0.4855044 -0.9067506 0.5317221
0.4802716 -0.9379074 0.5458208
0.4486651 -0.9310573 0.550856
0.4779691 -0.9003425 0.5639476
0.4798529 -0.9235443 0.593152
0.4559911 -0.9155895 0.6414905
