# .PCD v.7 - Point Cloud Data file format
VERSION .7
FIELDS x y z
SIZE 4 4 4
TYPE F F F
COUNT 1 1 1
WIDTH 1482
HEIGHT 1
VIEWPOINT 0 0 0 1 0 0 0
POINTS 1482
DATA ascii
-0.6688662 0.5459065 -0.4743202
-0.6142351 0.5459065 -0.4773414
-0.5596039 0.549884 -0.4773414
-0.4306661 0.542371 -0.470292
-0.78378 0.5503259 -0.4723061
-0.7488223 0.550105 -0.4793555
-0.5420194 0.557176 -0.4773414
-0.8813207 0.5620373 -0.4783484
-0.7318699 0.5680035 -0.4783484
-0.560234 0.5627003 -0.4743202
-0.5426494 0.5695503 -0.4743202
-0.4777619 0.5607115 -0.470292
-0.7850359 0.5752956 -0.4783484
-0.7237067 0.579715 -0.4723061
-0.697333 0.5775052 -0.4773414
-0.6795413 0.5799359 -0.4733132
-0.5608598 0.5752956 -0.4773414
-0.7549982 0.5866755 -0.4712991
-0.5981178 0.5876698 -0.4723061
-0.5432774 0.5821456 -0.4723061
-0.8832045 0.5993813 -0.4783484
-0.7774985 0.5931941 -0.4773414
-0.5441146 0.5945199 -0.4783484
-0.5346955 0.5949619 -0.4793555
-0.5162758 0.5914264 -0.4763343
-0.7865011 0.6004862 -0.470292
-0.5447405 0.6073362 -0.4723061
-0.7787564 0.6186057 -0.470292
-0.7077988 0.6128604 -0.4733132
-0.7877591 0.6254557 -0.4712991
-0.7084267 0.6252348 -0.4712991
-0.5361607 0.6205944 -0.4743202
-0.8940889 0.6316429 -0.470292
-0.7883849 0.638051 -0.4712991
-0.481741 0.6358414 -0.4773414
-0.8949261 0.6440172 -0.4723061
-0.8593426 0.6471108 -0.4733132
-0.7802196 0.6435753 -0.4733132
-0.7270557 0.6426914 -0.4723061
-0.6828903 0.6424704 -0.470292
-0.6740991 0.6462269 -0.470292
-0.5468357 0.6449011 -0.4753273
-0.5192062 0.6418076 -0.4783484
-0.8423881 0.6550657 -0.4773414
-0.7366842 0.6559496 -0.4773414
-0.6475161 0.6568335 -0.4743202
-0.5380445 0.6581593 -0.4783484
-0.869599 0.6696498 -0.4753273
-0.7105199 0.6627997 -0.4733132
-0.8076419 0.6711966 -0.4712991
-0.5212994 0.6793724 -0.4753273
-0.4940884 0.6798144 -0.4733132
-0.6309782 0.6802563 -0.4783484
-0.8708549 0.6948404 -0.470292
-0.5219273 0.6919677 -0.4723061
-0.8716901 0.7072147 -0.4733132
-0.8626916 0.7098663 -0.470292
-0.8451092 0.7052259 -0.4773414
-0.8185262 0.7008066 -0.4712991
-0.9256954 0.719368 -0.4753273
-0.6508651 0.719589 -0.4793555
-0.6328641 0.7180422 -0.4773414
-0.3287298 0.7158325 -0.4723061
-0.9164855 0.7277649 -0.4712991
-0.836946 0.7297536 -0.4773414
-0.5413936 0.7209148 -0.4753273
-0.514392 0.7273229 -0.4723061
-0.2445853 0.7262181 -0.4733132
-0.2349568 0.7275439 -0.4733132
-0.9700701 0.7350569 -0.4723061
-0.899531 0.7315214 -0.4723061
-0.8729481 0.7321843 -0.4753273
-0.8641568 0.7348359 -0.4763343
-0.8465744 0.7306375 -0.4763343
-0.6336992 0.7306375 -0.4763343
-0.6242822 0.733952 -0.4712991
-0.5966526 0.7301956 -0.4783484
-0.55165 0.7328472 -0.4773414
-0.487179 0.7366037 -0.4773414
-0.4693893 0.7368246 -0.4723061
-0.4411318 0.7304165 -0.4712991
-0.3201479 0.7313004 -0.4753273
-0.9706981 0.7472103 -0.4753273
-0.9269512 0.7445586 -0.4723061
-0.9003704 0.7443376 -0.4712991
-0.8647848 0.7476522 -0.4743202
-0.5426494 0.7463264 -0.470292
-0.5246484 0.742128 -0.470292
-0.4700172 0.749199 -0.4743202
-0.4595515 0.7401392 -0.470292
-0.4419691 0.7430118 -0.4743202
-0.4139188 0.741465 -0.4733132
-0.4045017 0.7456635 -0.4763343
-0.3768722 0.7496409 -0.470292
-0.3582432 0.7427909 -0.4753273
-0.348824 0.7430118 -0.4743202
-0.3207758 0.7436748 -0.4733132
-0.6349573 0.7556071 -0.470292
-0.5158551 0.7525135 -0.4753273
-0.4603887 0.7527345 -0.4763343
-0.4145488 0.7540603 -0.470292
-0.4051297 0.7580378 -0.4783484
-0.3871286 0.7573749 -0.4773414
-0.3496613 0.7556071 -0.4773414
-0.3308229 0.7533974 -0.4733132
-0.2745173 0.7536184 -0.4723061
-0.971326 0.7600265 -0.4733132
-0.9183694 0.7651088 -0.4723061
-0.9016242 0.7695282 -0.4753273
-0.5987458 0.7679814 -0.4712991
-0.5164851 0.7651088 -0.4783484
-0.4989027 0.7673185 -0.4753273
-0.4708545 0.7615733 -0.4753273
-0.4610146 0.7653298 -0.4743202
-0.443225 0.7679814 -0.4723061
-0.4335965 0.7688653 -0.4773414
-0.3775001 0.7620152 -0.4783484
-0.3502892 0.7679814 -0.4773414
-0.9189973 0.7777041 -0.4773414
-0.4997399 0.7796928 -0.4783484
-0.4616446 0.7779251 -0.4753273
-0.2937742 0.7706331 -0.470292
-0.2653075 0.7717379 -0.4712991
-0.3603363 0.7803558 -0.4733132
-0.5550011 0.7953817 -0.4712991
-0.5273694 0.7920672 -0.4743202
-0.3609643 0.792951 -0.4723061
-0.3515451 0.793393 -0.4712991
-0.3329161 0.7909623 -0.4712991
-0.2383079 0.7905204 -0.470292
-0.5282067 0.8046625 -0.4723061
-0.5009958 0.8051044 -0.4733132
-0.4174792 0.8046625 -0.4733132
-0.3898497 0.8077561 -0.4783484
-0.502461 0.830074 -0.4753273
-0.3913149 0.8331676 -0.4733132
0.07168924 -0.7706331 -0.4602216
-0.09408801 -0.7626781 -0.4622357
-0.04385248 -0.7662137 -0.4672709
0.09994673 -0.7686443 -0.469285
0.2818412 -0.7648879 -0.4682779
-0.1236014 -0.7547233 -0.4642498
-0.06645847 -0.7520716 -0.4672709
0.1064355 -0.7573749 -0.469285
-0.1313439 -0.7456635 -0.4662639
-0.04531768 -0.741465 -0.4652568
-0.01643225 -0.749199 -0.4642498
0.04489696 -0.7448901 -0.4647533
0.1924638 -0.741465 -0.4672709
-0.1602315 -0.7399182 -0.469285
-0.1537427 -0.7321843 -0.4602216
-0.07441243 -0.7370456 -0.469285
-0.06729573 -0.7390344 -0.4682779
-0.01726951 -0.7368246 -0.469285
0.04803668 -0.7363827 -0.4652568
-0.2468878 -0.7248923 -0.4632427
-0.1826281 -0.7262181 -0.4622357
-0.1039258 -0.7255552 -0.4672709
-0.06792367 -0.7262181 -0.4672709
-0.01015281 -0.7262181 -0.4662639
-0.1614874 -0.7149487 -0.4682779
0.01444062 -0.7176002 -0.4622357
-0.241029 -0.7094244 -0.4662639
-0.105391 -0.7005855 -0.4622357
-0.04761805 -0.7041211 -0.4642498
0.03861752 -0.7032372 -0.4642498
-0.2981699 -0.69705 -0.4682779
-0.2129788 -0.6963871 -0.4602216
-0.04824809 -0.6915258 -0.4642498
-0.01936266 -0.6990388 -0.4652568
0.01663947 -0.6926306 -0.4602216
0.03798958 -0.6908629 -0.4632427
0.06729364 -0.6961662 -0.4622357
0.1028771 -0.6926306 -0.4622357
-0.2990071 -0.6840128 -0.4682779
-0.2709589 -0.6860015 -0.4672709
-0.2491902 -0.6875483 -0.4652568
-0.1060189 -0.6879902 -0.4612286
-0.09848362 -0.6860015 -0.4652568
-0.0199906 -0.6866645 -0.4652568
0.07378239 -0.6820241 -0.4652568
0.09492318 -0.6809192 -0.4602216
0.2108835 -0.6800354 -0.4662639
-0.3065403 -0.6736272 -0.469285
-0.2996351 -0.6709756 -0.4612286
-0.04908535 -0.6791515 -0.4652568
-0.02082786 -0.6740692 -0.4622357
0.01601153 -0.6798144 -0.4622357
0.04426692 -0.6731853 -0.4642498
0.1886962 -0.6776047 -0.4672709
-0.3071704 -0.66059 -0.4612286
-0.2504461 -0.6627997 -0.4672709
-0.1286228 -0.6645675 -0.4632427
-0.07881013 -0.6623577 -0.4662639
-0.04971329 -0.6665562 -0.4612286
-0.02166512 -0.6616948 -0.469285
0.01517636 -0.6669981 -0.4622357
0.04364107 -0.660369 -0.4652568
-0.300263 -0.6583803 -0.4632427
-0.2150698 -0.6583803 -0.4612286
-0.157929 -0.6552867 -0.4662639
-0.1292529 -0.6519722 -0.4652568
0.007010996 -0.6550657 -0.4652568
0.09324866 -0.6563916 -0.4612286
0.1005747 -0.6539609 -0.4622357
-0.3044493 -0.6468898 -0.4652568
-0.1369975 -0.6462269 -0.469285
-0.1005768 -0.6462269 -0.4602216
-0.02229306 -0.6486576 -0.4622357
0.01370907 -0.6415865 -0.4632427
0.04280381 -0.6471108 -0.4632427
0.09262072 -0.6440172 -0.4672709
0.1499729 -0.6418076 -0.469285
0.1577176 -0.6466689 -0.4642498
-0.04448042 -0.6323058 -0.4602216
-0.02313032 -0.6360623 -0.4612286
0.07085198 -0.63098 -0.4682779
0.1277877 -0.6307591 -0.4672709
0.2368385 -0.6314219 -0.4652568
-0.2242818 -0.6230251 -0.4652568
0.1562524 -0.6208154 -0.4612286
0.2435366 -0.6219202 -0.4632427
-0.02459553 -0.6106508 -0.4602216
0.01224386 -0.6157331 -0.469285
0.2140253 -0.6179428 -0.4672709
0.265096 -0.616396 -0.4652568
-0.3946639 -0.6046846 -0.4622357
-0.1390886 -0.6084411 -0.4612286
0.2133953 -0.6046846 -0.4632427
0.2426994 -0.6093249 -0.469285
0.2642588 -0.6040217 -0.4672709
-0.4986933 -0.5918683 -0.4632427
-0.4438529 -0.5905425 -0.4602216
-0.225747 -0.5982764 -0.4652568
0.003243332 -0.5918683 -0.4632427
0.1470425 -0.5916473 -0.4632427
0.175928 -0.5923102 -0.469285
0.2420714 -0.5965087 -0.4642498
-0.4790199 -0.5830295 -0.469285
-0.4511789 -0.586565 -0.4632427
-0.4237587 -0.5861231 -0.4632427
-0.01810677 -0.5850182 -0.4642498
0.1175271 -0.5803779 -0.4682779
0.2048134 -0.5801569 -0.4632427
0.2709568 -0.5854602 -0.469285
-0.4993213 -0.579273 -0.4642498
-0.08383159 -0.5750746 -0.4682779
-0.05473685 -0.579052 -0.4612286
0.01014862 -0.5772843 -0.4672709
0.1462032 -0.579273 -0.4672709
0.2403948 -0.5708761 -0.4612286
-0.5072753 -0.5686665 -0.4672709
0.009313459 -0.564689 -0.4682779
0.03045424 -0.5662358 -0.4642498
0.06729364 -0.5671197 -0.4682779
0.08801579 -0.5688874 -0.4602216
0.1455773 -0.5666777 -0.4662639
0.153322 -0.5695503 -0.4612286
0.2110928 -0.5662358 -0.4602216
0.3297743 -0.5660148 -0.4612286
-0.480483 -0.5578389 -0.4662639
-0.473157 -0.5585018 -0.4602216
-0.445946 -0.5523146 -0.4652568
-0.1139729 -0.5509889 -0.4602216
0.06645638 -0.5543034 -0.4612286
0.1524847 -0.556955 -0.4622357
0.2102556 -0.5538614 -0.469285
0.2322336 -0.5565131 -0.469285
0.2611212 -0.5538614 -0.4682779
-0.5087405 -0.5436968 -0.4612286
-0.4532721 -0.5492211 -0.4652568
0.2096276 -0.5410452 -0.4662639
0.2686544 -0.5467904 -0.4642498
0.2985864 -0.5485582 -0.469285
0.3586597 -0.5401613 -0.4682779
-0.6184214 -0.5359629 -0.4662639
-0.4746222 -0.5333112 -0.469285
0.1510195 -0.5313225 -0.4652568
0.2678171 -0.5341951 -0.469285
0.3496592 -0.5315435 -0.469285
-0.6391435 -0.5255773 -0.4652568
0.1432749 -0.5293338 -0.4652568
0.1794863 -0.5211579 -0.4612286
0.2087925 -0.528008 -0.4662639
0.2374665 -0.520053 -0.469285
0.4428042 -0.5233676 -0.4642498
-0.5579294 -0.5154127 -0.4632427
-0.3645226 -0.5103304 -0.4622357
0.08508538 -0.5191692 -0.4602216
0.0924114 -0.5136449 -0.4602216
0.2299291 -0.5191692 -0.4682779
-0.5859776 -0.5065739 -0.4642498
-0.5106222 -0.5063529 -0.4632427
0.08445744 -0.5067948 -0.4632427
0.2366292 -0.5067948 -0.4662639
0.266354 -0.5085626 -0.4652568
0.28833 -0.5090045 -0.4602216
-0.6475161 -0.4937576 -0.469285
-0.5866035 -0.4939786 -0.4672709
-0.5315537 -0.4959673 -0.4672709
0.1487191 -0.4926527 -0.4612286
0.1993712 -0.4930947 -0.4672709
-0.6412387 -0.4871285 -0.4662639
-0.6144444 -0.4809413 -0.4642498
-0.5321837 -0.483151 -0.4642498
0.1773953 -0.4849188 -0.4632427
0.1987433 -0.4804994 -0.4682779
0.2276287 -0.4813833 -0.4672709
-0.6418646 -0.4743122 -0.4682779
-0.5949781 -0.4745332 -0.4602216
-0.5637902 -0.4749751 -0.4657604
0.1189944 -0.4767429 -0.4602216
0.2640474 -0.4701138 -0.4662639
-0.5956061 -0.4621589 -0.4642498
-0.5878614 -0.4681251 -0.4622357
-0.5606505 -0.4643686 -0.4612286
-0.5401376 -0.4652525 -0.4672709
0.2267914 -0.468788 -0.4652568
0.2343268 -0.468567 -0.4652568
0.3538455 -0.4637057 -0.4672709
-0.6690755 -0.4592863 -0.4642498
-0.6159096 -0.4553088 -0.4612286
0.1757187 -0.4595072 -0.4632427
0.1972781 -0.4553088 -0.4602216
0.2259542 -0.4561927 -0.469285
0.2931442 -0.4590653 -0.4602216
0.3226576 -0.4504475 -0.4642498
0.4775505 -0.4524362 -0.4652568
-0.7228694 -0.4455861 -0.4682779
-0.5688138 -0.4475749 -0.4622357
0.2251169 -0.4435974 -0.4672709
0.2328616 -0.4427135 -0.4622357
0.284353 -0.44647 -0.4682779
0.344217 -0.4442603 -0.4682779
0.3749863 -0.4440393 -0.4642498
-0.696705 -0.4382941 -0.4652568
-0.6737841 -0.4343166 -0.4677744
-0.5899546 -0.4301182 -0.4602216
-0.487179 -0.4329908 -0.4612286
0.1956035 -0.4303392 -0.4602216
0.2033482 -0.4385151 -0.4652568
0.2835157 -0.4334328 -0.4602216
0.291679 -0.4338747 -0.4662639
0.3218203 -0.4378522 -0.4652568
-0.697333 -0.4254779 -0.4682779
-0.6171655 -0.4296763 -0.4602216
-0.570279 -0.4228262 -0.469285
0.351543 -0.4254779 -0.4612286
0.4055462 -0.4283504 -0.4632427
0.4446881 -0.4234891 -0.4612286
0.4758739 -0.4256988 -0.469285
-0.7243346 -0.4197326 -0.4652568
-0.6253288 -0.4111148 -0.4652568
-0.6177955 -0.41686 -0.4632427
-0.5154386 -0.4186278 -0.4602216
0.1947663 -0.4181858 -0.4672709
0.3128198 -0.4199536 -0.4672709
0.3425404 -0.4188488 -0.4642498
0.3735211 -0.4192907 -0.4672709
0.5058079 -0.4161971 -0.4662639
-0.7770819 -0.4084632 -0.4662639
-0.6717966 -0.4080212 -0.4672709
-0.6521211 -0.4058115 -0.4602216
-0.5162758 -0.4064744 -0.4652568
-0.4886462 -0.4078003 -0.4612286
0.2600725 -0.4058115 -0.4652568
0.4744107 -0.401834 -0.4632427
0.4970167 -0.4078003 -0.4622357
0.5049707 -0.4031599 -0.4602216
-0.7061242 -0.3925533 -0.4682779
-0.5989551 -0.3998453 -0.4662639
-0.5717442 -0.3978566 -0.4652568
0.2221844 -0.3936582 -0.4612286
0.4122443 -0.3996243 -0.4632427
0.465203 -0.3978566 -0.4672709
0.4961795 -0.395205 -0.4642498
-0.7262185 -0.3817258 -0.4682779
-0.6730525 -0.3823887 -0.4672709
-0.5095777 -0.387471 -0.4652568
0.3105173 -0.3821677 -0.4602216
0.411407 -0.3870291 -0.4642498
0.4338058 -0.3859242 -0.4662639
0.4643636 -0.3850403 -0.4612286
0.4953422 -0.3826097 -0.4602216
-0.6274219 -0.3735499 -0.4612286
-0.5926757 -0.3795161 -0.4662639
-0.5730001 -0.372887 -0.4672709
-0.5654668 -0.3755386 -0.4652568
-0.4629005 -0.3742128 -0.4652568
0.3484033 -0.3746547 -0.4602216
0.3795912 -0.3755386 -0.4622357
0.4727362 -0.3773064 -0.4652568
-0.7339631 -0.365374 -0.4682779
-0.6542142 -0.3684676 -0.4672709
0.3394028 -0.3693514 -0.469285
0.4099418 -0.3613965 -0.4682779
0.4721083 -0.3647111 -0.4622357
-0.6743084 -0.3567562 -0.4602216
0.2787015 -0.357861 -0.4602216
0.3695441 -0.3563142 -0.4612286
0.4407111 -0.3598498 -0.4632427
0.5330189 -0.3532206 -0.4642498
-0.6751457 -0.3439399 -0.4642498
-0.6556794 -0.343056 -0.4602216
-0.6219797 -0.3406253 -0.4682779
0.3469381 -0.3494641 -0.4632427
0.431294 -0.3481383 -0.4612286
-0.6757736 -0.3311236 -0.4672709
-0.5202528 -0.3317865 -0.4622357
0.4392438 -0.3342172 -0.4612286
-0.7027752 -0.3231687 -0.4662639
-0.5953968 -0.328251 -0.4622357
-0.5478823 -0.32803 -0.4672709
-0.6764016 -0.3185284 -0.4632427
-0.6039786 -0.3121202 -0.4682779
-0.5409749 -0.3174235 -0.4602216
0.336263 -0.3187493 -0.4612286
0.5305071 -0.3147719 -0.4602216
0.5531131 -0.3156557 -0.4602216
-0.6238636 -0.3021766 -0.4612286
-0.521718 -0.3068169 -0.4672709
-0.4940884 -0.3079218 -0.4622357
-0.4867624 -0.3035024 -0.4602216
-0.7115664 -0.2920119 -0.4622357
-0.6313989 -0.2984201 -0.4642498
-0.5974899 -0.2904651 -0.469285
-0.5497682 -0.2902442 -0.4672709
-0.5141826 -0.2984201 -0.4662639
-0.4595515 -0.2968733 -0.4602216
-0.6854021 -0.284278 -0.4642498
-0.6784947 -0.2805215 -0.4672709
-0.6590284 -0.2803005 -0.4612286
-0.6322361 -0.2860457 -0.469285
-0.6052346 -0.2871506 -0.4652568
0.4888556 -0.2827312 -0.4612286
-0.7580343 -0.276544 -0.4612286
-0.7121923 -0.2794167 -0.4612286
-0.6860279 -0.2716827 -0.4622357
-0.6525397 -0.2701359 -0.4632427
-0.6058625 -0.2745553 -0.4662639
-0.5506034 -0.2776489 -0.469285
-0.5156499 -0.2727875 -0.4632427
-0.4961816 -0.2705778 -0.4642498
-0.5987458 -0.2648326 -0.4622357
-0.5715349 -0.2612971 -0.469285
-0.543696 -0.2668214 -0.4672709
-0.523809 -0.269252 -0.4662639
-0.6797506 -0.2551099 -0.4682779
0.5880687 -0.2579826 -0.4642498
-0.6803785 -0.2425146 -0.4652568
-0.6617495 -0.2303613 -0.469285
-0.6546307 -0.2321291 -0.4652568
0.8231291 -0.2308032 -0.469285
-0.6812158 -0.2296984 -0.4682779
-0.6355852 -0.2228483 -0.4652568
-0.5734166 -0.2228483 -0.4662639
-0.6552607 -0.2195338 -0.469285
-0.6286778 -0.2133466 -0.4612286
-0.5740467 -0.210253 -0.4642498
-0.5539525 -0.2148934 -0.4602216
-0.6293057 -0.2005303 -0.4622357
-0.4997399 -0.2080433 -0.4672709
-0.6902163 -0.1967738 -0.4652568
-0.5196248 -0.1965529 -0.4652568
0.3375189 -0.1969948 -0.4612286
-0.6376783 -0.1852834 -0.4642498
-0.6914722 -0.1715833 -0.4602216
-0.5560456 -0.1773285 -0.4622357
-0.6039786 -0.1634074 -0.4602216
0.3574038 -0.1687106 -0.4672709
-0.6923094 -0.1592089 -0.4632427
-0.5300906 -0.1558944 -0.4642498
0.3661951 -0.1596509 -0.4642498
-0.6358992 -0.1486024 -0.4632427
-0.5853496 -0.1474975 -0.4632427
0.3559386 -0.1432991 -0.4602216
0.3655671 -0.1468346 -0.4662639
-0.6598636 -0.1300409 -0.4642498
-0.6054438 -0.1382168 -0.469285
-0.5229738 -0.1326925 -0.4612286
0.3243321 -0.1304828 -0.4632427
0.3551014 -0.1307038 -0.4632427
-0.5587667 -0.1271683 -0.4602216
0.8465723 -0.1295989 -0.4622357
-0.6066998 -0.1128052 -0.4622357
0.3320746 -0.1081648 -0.4602216
-0.6073298 -0.09998895 -0.4602216
0.3525896 -0.09335985 -0.4652568
-0.5889101 -0.08496299 -0.4642498
-0.5531152 -0.08849851 -0.4652568
-0.525695 -0.08186941 -0.4602216
-0.5066473 -0.08275329 -0.4682779
0.3519616 -0.08098552 -0.4672709
0.3615901 -0.08341619 -0.4612286
-0.6437485 -0.07303061 -0.469285
-0.585559 -0.0715943 -0.4642497
-0.5614878 -0.07722904 -0.4622357
-0.4989027 -0.07391448 -0.4612286
-0.6094208 -0.06242404 -0.4682779
0.3511244 -0.06839024 -0.4672709
0.3601249 -0.05800464 -0.4642498
0.3814771 -0.05248039 -0.4612286
-0.6646799 -0.04165285 -0.4682779
0.8400835 -0.04165285 -0.4642498
-0.61884 -0.03634958 -0.4652568
-0.5558363 -0.03811733 -0.4672709
-0.6196772 -0.02397525 -0.469285
-0.5102057 -0.01999779 -0.4682779
0.3477733 -0.01800906 -0.4672709
-0.5382538 -0.005413766 -0.4622357
0.3260066 -0.007402497 -0.4602216
0.3471474 -0.005192796 -0.4602216
0.3567759 -0.007402497 -0.4662639
0.3783353 -0.002541156 -0.4652568
-0.4758781 0.008286377 -0.4602216
0.4486651 0.005413766 -0.4682779
0.9692307 0.007844437 -0.469285
-0.6408181 0.01535742 -0.469285
-0.5861869 0.01756712 -0.4612286
0.377498 0.01005414 -0.4672709
0.3860799 0.01977682 -0.4682779
0.4478278 0.01800906 -0.4632427
0.8982731 0.01292675 -0.4672709
-0.5671393 0.0228704 -0.4672709
-0.457877 0.0272898 -0.4662639
0.3766608 0.0228704 -0.4622357
-0.5049728 0.0398851 -0.4632427
-0.4302475 0.0339189 -0.4612286
0.3758235 0.03524473 -0.4682779
0.8658272 0.0339189 -0.4632427
0.9363663 0.03590763 -0.4652568
-0.5683951 0.04761905 -0.469285
-0.532393 0.04474644 -0.4602216
0.3749863 0.04784002 -0.4682779
0.3846147 0.04518838 -0.4632427
0.4151747 0.04761905 -0.4612286
0.4365269 0.04098995 -0.4672709
0.9964437 0.04960778 -0.4672709
-0.5880708 0.055353 -0.4602216
-0.5418143 0.05712076 -0.4622357
0.4455253 0.05601591 -0.4652568
-0.5970692 0.06595957 -0.4612286
-0.487179 0.06485471 -0.4622357
0.9346938 0.06109822 -0.4662639
0.9863945 0.0664015 -0.4682779
-0.6251194 0.07678709 -0.4672709
-0.5976992 0.07833388 -0.4602216
-0.5698603 0.07303061 -0.4632427
0.3829402 0.07037897 -0.4662639
0.4038717 0.07833388 -0.4602216
-0.5704883 0.08562589 -0.4672709
0.3726838 0.08562589 -0.4612286
0.9024572 0.08430008 -0.4672709
0.9328099 0.08650978 -0.4642498
0.9637886 0.08407911 -0.4612286
-0.5985365 0.09092918 -0.4652568
-0.3214038 0.09026627 -0.4662639
0.4028251 0.09070821 -0.4682779
0.4430135 0.09402276 -0.4642498
-0.618212 0.1021987 -0.4652568
-0.61884 0.1147939 -0.4652568
-0.5719535 0.1110375 -0.4672709
-0.4899021 0.1150149 -0.4642498
-0.6194679 0.1273892 -0.4622357
0.9210883 0.121644 -0.4642498
0.9510204 0.1282731 -0.4632427
-0.6243868 0.1396531 -0.4652568
-0.5732115 0.1360071 -0.4662639
-0.4825761 0.1353442 -0.4602216
-0.4553652 0.144183 -0.4662639
-0.6018855 0.1534637 -0.4682779
-0.5658834 0.1519169 -0.4632427
-0.5472523 0.1574412 -0.4622357
0.4909466 0.1592089 -0.4632427
-0.594143 0.1691526 -0.4612286
0.4591308 0.1693736 -0.4682779
0.9482993 0.166059 -0.4622357
-0.622189 0.1779914 -0.4682779
0.9778126 0.1795382 -0.4682779
-0.5679786 0.1894818 -0.4662639
-0.5399284 0.1841785 -0.4652568
0.4582935 0.1819688 -0.469285
0.9564626 0.1852834 -0.4642498
-0.6039786 0.1912496 -0.4682779
-0.5405563 0.1967738 -0.4662639
-0.4861345 0.1980997 -0.4652568
0.426687 0.1916915 -0.4662639
0.4884349 0.1965529 -0.4682779
-0.6508651 0.2049497 -0.469285
-0.5686045 0.2022981 -0.4652568
-0.4949236 0.20274 -0.469285
0.4878069 0.2093691 -0.4612286
-0.6052346 0.2166611 -0.4602216
-0.596864 0.2193128 -0.4642498
0.4252218 0.2171031 -0.4602216
0.4557818 0.2193128 -0.469285
-0.6249101 0.2283726 -0.469285
-0.4407132 0.2221854 -0.4622357
0.9227629 0.2261629 -0.4652568
0.9436944 0.2288145 -0.4662639
0.9535322 0.2230693 -0.4652568
0.9836735 0.2266048 -0.4672709
-0.5788609 0.2367694 -0.4602216
-0.5514407 0.2330129 -0.4652568
0.4955515 0.2305823 -0.4672709
-0.5158551 0.2425146 -0.4662639
0.4852951 0.247376 -0.4632427
0.9518597 0.2487018 -0.4632427
-0.626166 0.2540051 -0.4652568
-0.5713255 0.2529002 -0.4642498
0.45327 0.2573196 -0.4622357
0.4631078 0.2573196 -0.4622357
0.4842485 0.2595293 -0.4682779
0.9210883 0.2513534 -0.4632427
0.9418105 0.2542261 -0.4622357
0.9200418 0.2637278 -0.4682779
0.950811 0.2612971 -0.4622357
-0.6087929 0.2789747 -0.4652568
-0.5807447 0.2745553 -0.4602216
-0.4716918 0.2785328 -0.4682779
0.4319199 0.2710198 -0.4682779
0.9192045 0.276544 -0.4602216
-0.600211 0.2825102 -0.4662639
-0.5453705 0.2851619 -0.4652568
-0.5732115 0.2909071 -0.4632427
-0.4358989 0.2993039 -0.4672709
0.4507582 0.2948845 -0.4672709
0.4915725 0.2940007 -0.4602216
-0.6014669 0.3077008 -0.4612286
-0.5738373 0.3032814 -0.4662639
0.4597587 0.3079218 -0.4602216
-0.610886 0.3167606 -0.4672709
-0.5466264 0.3107944 -0.4632427
-0.5198342 0.3180864 -0.4682779
0.9164834 0.3141089 -0.4662639
-0.611514 0.3293559 -0.4662639
-0.5836772 0.3242736 -0.4642498
-0.4744129 0.3289139 -0.4602216
0.5106222 0.3240526 -0.4612286
0.9361611 0.3291349 -0.469285
-0.6029321 0.3326704 -0.4642498
-0.5843031 0.3368689 -0.4662639
-0.60356 0.3454867 -0.4672709
-0.5759326 0.3406253 -0.4672709
-0.5487196 0.3485803 -0.4612286
-0.5583481 0.358082 -0.4652568
0.9137623 0.3518948 -0.4672709
0.9342752 0.3541045 -0.4672709
0.912923 0.3647111 -0.4652568
-0.6142351 0.3795161 -0.4642498
-0.6048138 0.3704563 -0.4672709
-0.5591853 0.3706773 -0.4672709
-0.5499734 0.3737709 -0.4602216
0.9118785 0.3773064 -0.4642498
-0.6054438 0.3832726 -0.4612286
-0.4681334 0.3843774 -0.4602216
0.9018314 0.3857032 -0.4602216
-0.5512313 0.3991824 -0.4602216
-0.4687593 0.3971937 -0.4632427
-0.4968095 0.4002873 -0.4622357
0.9305075 0.4042647 -0.4652568
0.9610674 0.4055905 -0.4602216
-0.5066473 0.4161971 -0.469285
-0.5891152 0.424594 -0.4652568
-0.4800643 0.4290134 -0.469285
-0.4702266 0.4226052 -0.4612286
-0.4243845 0.4294553 -0.4672709
0.9390873 0.4252569 -0.4622357
-0.5533245 0.4367473 -0.4622357
-0.5349048 0.4321069 -0.4602216
-0.5259042 0.431665 -0.4602216
-0.3687089 0.431444 -0.4662639
-0.6087929 0.4458071 -0.4672709
-0.5813706 0.4418296 -0.4672709
-0.5631623 0.446249 -0.4602216
-0.4714803 0.4477958 -0.4622357
-0.4250146 0.4422716 -0.4602216
-0.5820006 0.4546459 -0.4632427
-0.5826285 0.4667993 -0.4662639
-0.5547897 0.4619379 -0.4612286
-0.5001565 0.4632637 -0.4612286
-0.6196772 0.4800574 -0.4622357
-0.5652554 0.4838139 -0.4672709
-0.5660927 0.4966302 -0.4652568
-0.5566735 0.4997238 -0.4652568
-0.6121419 0.5085626 -0.4632427
-0.5933036 0.5003867 -0.4642498
-0.4842527 0.5043641 -0.4662639
-0.5573015 0.5123191 -0.4632427
-0.5399284 0.5198321 -0.469285
-0.4848786 0.5169594 -0.4672709
-0.4568304 0.5112143 -0.4622357
-0.4009434 0.5145288 -0.4642498
-0.3172175 0.5151917 -0.4612286
-0.6127678 0.5211579 -0.4652568
-0.5673486 0.5215998 -0.4652568
-0.4857158 0.5295547 -0.4682779
-0.4754594 0.5231466 -0.4602216
-0.420619 0.5297757 -0.4652568
-0.5405563 0.5322064 -0.4682779
-0.5043448 0.5388355 -0.4672709
-0.4762967 0.5357419 -0.4642498
-0.836318 0.542592 -0.4662639
-0.5411842 0.5448017 -0.4672709
-0.5319744 0.5450227 -0.469285
-0.5135547 0.5417081 -0.4622357
-0.4863438 0.54215 -0.4612286
-0.4589235 0.5487791 -0.4602216
-0.7224529 0.5549663 -0.469285
-0.5326023 0.557618 -0.4662639
-0.5049728 0.5516518 -0.4622357
-0.4869738 0.5547453 -0.4642498
-0.7050776 0.5627003 -0.4672709
-0.6789133 0.5675616 -0.469285
-0.3948733 0.5699922 -0.4652568
-0.8819507 0.5746326 -0.4682779
-0.802409 0.5706552 -0.469285
-0.7586622 0.5730858 -0.4642498
-0.5974899 0.5752956 -0.4672709
-0.5700697 0.57176 -0.4612286
-0.5156499 0.579052 -0.469285
-0.5062287 0.5768424 -0.4632427
-0.4884369 0.579494 -0.4672709
-0.3672437 0.5739697 -0.4602216
-0.5709049 0.5843553 -0.4662639
-0.5338582 0.5830295 -0.4622357
-0.4513882 0.5894376 -0.4602216
-0.4616446 0.5987183 -0.469285
-0.8128747 0.6007071 -0.4602216
-0.7071708 0.6002651 -0.4672709
-0.644795 0.6066733 -0.4682779
-0.5621157 0.6007071 -0.4622357
-0.5353234 0.6079991 -0.469285
-0.5169038 0.6042426 -0.4672709
-0.5076939 0.6018119 -0.4662639
-0.4059649 0.6029168 -0.4622357
-0.3967571 0.6077781 -0.4642498
-0.7607554 0.6104298 -0.469285
-0.7519642 0.6133024 -0.4662639
-0.5905825 0.6177218 -0.469285
-0.5627457 0.6133024 -0.4622357
-0.517741 0.6170589 -0.4612286
-0.5083218 0.6146282 -0.4602216
-0.4802737 0.6108717 -0.4672709
-0.4622726 0.6113136 -0.4652568
-0.4068042 0.6155121 -0.4652568
-0.7613833 0.6232461 -0.4662639
-0.672636 0.6212573 -0.4602216
-0.5633716 0.6258977 -0.4612286
-0.4631099 0.6239089 -0.4672709
-0.397385 0.6201525 -0.4612286
-0.8055487 0.6336316 -0.4632427
-0.7620113 0.6356204 -0.469285
-0.6734712 0.6336316 -0.4642498
-0.5365814 0.6331897 -0.4622357
-0.509787 0.6393769 -0.4682779
-0.7360563 0.6437963 -0.4662639
-0.8070139 0.6588222 -0.4612286
-0.7892222 0.6508673 -0.4672709
-0.5474637 0.6579384 -0.4612286
-0.5151256 0.653298 -0.4657604
-0.7634765 0.66059 -0.4682779
-0.7373121 0.6687659 -0.4662639
-0.7283116 0.6683239 -0.4622357
-0.5204621 0.6669981 -0.4642498
-0.4932512 0.6674401 -0.4672709
-0.6209332 0.6714175 -0.4672709
-0.3266367 0.6784886 -0.4632427
-0.817689 0.6884322 -0.4642498
-0.8082698 0.6835709 -0.4672709
-0.5487196 0.682687 -0.4652568
-0.8620637 0.697492 -0.4682779
-0.5769771 0.69705 -0.4632427
-0.4947185 0.6926306 -0.469285
-0.3178454 0.6937355 -0.4622357
-0.2895879 0.6957242 -0.4602216
-0.8354807 0.704784 -0.4632427
-0.8095257 0.7089824 -0.4612286
-0.791734 0.7012485 -0.4602216
-0.7833614 0.7069937 -0.4612286
-0.5225552 0.704563 -0.4682779
-0.3186827 0.7061098 -0.4672709
-0.2715869 0.7039001 -0.4632427
-0.8361087 0.7171583 -0.4642498
-0.8191563 0.7136228 -0.4612286
-0.5960247 0.7178212 -0.469285
-0.5231832 0.7173793 -0.4622357
-0.4857158 0.7118551 -0.4632427
-0.1206731 0.7131808 -0.4602216
-0.8896933 0.7253342 -0.4622357
-0.8721108 0.720031 -0.4612286
-0.5688138 0.7262181 -0.4672709
-0.4863438 0.7242294 -0.4602216
-0.4587142 0.7275439 -0.4612286
-0.2730521 0.7290907 -0.4652568
-0.8903212 0.7379295 -0.4612286
-0.6064904 0.7383714 -0.4672709
-0.2916811 0.7330682 -0.4612286
-0.2632143 0.733952 -0.4672709
-0.8472024 0.7432328 -0.469285
-0.487809 0.7494199 -0.4622357
-0.4321292 0.7436748 -0.4672709
-0.9275792 0.7573749 -0.4662639
-0.8909491 0.7505248 -0.4632427
-0.8742061 0.7575958 -0.469285
-0.821038 0.7509667 -0.4602216
-0.5700697 0.7516297 -0.4602216
-0.5252763 0.7547233 -0.4612286
-0.4982747 0.7551652 -0.4652568
-0.4425949 0.7558281 -0.4622357
-0.4327592 0.756712 -0.4642498
-0.358869 0.7556071 -0.4662639
-0.3214038 0.756491 -0.4632427
-0.3027748 0.756049 -0.4612286
-0.2646774 0.7591426 -0.4632427
-0.2362127 0.7529555 -0.4602216
-0.1610687 0.7542813 -0.4602216
-0.8915771 0.7631201 -0.4642498
-0.8654127 0.7604685 -0.4672709
-0.5259042 0.7673185 -0.4642498
-0.2751431 0.7664347 -0.4612286
-0.9282072 0.7701911 -0.4612286
-0.8924164 0.7752734 -0.4652568
-0.626166 0.771075 -0.4662639
-0.5441146 0.771296 -0.4682779
-0.5267415 0.7794719 -0.469285
-0.4158047 0.7794719 -0.4652568
-0.4055483 0.7708541 -0.4612286
-0.3875493 0.7704121 -0.4612286
-0.3781281 0.7750525 -0.4612286
-0.3322881 0.778588 -0.4672709
-0.1912121 0.778367 -0.4642498
-0.5820006 0.7847751 -0.4672709
-0.4342244 0.7814606 -0.4662639
-0.378756 0.7876478 -0.4682779
-0.3509192 0.7810187 -0.4672709
-0.30424 0.7810187 -0.469285
-0.2944022 0.7830074 -0.469285
-0.5453705 0.7967076 -0.4622357
-0.3890125 0.7956027 -0.4622357
-0.4078508 0.8086399 -0.469285
-0.3615901 0.8055463 -0.4682779
-0.3521731 0.8059883 -0.4662639
-0.3241249 0.8062093 -0.4642498
-0.5016237 0.8176997 -0.4652568
-0.491158 0.8119545 -0.4682779
-0.3624295 0.8181416 -0.4662639
-0.3343813 0.8159319 -0.4652568
-0.4091066 0.8340515 -0.4682779
-0.09262281 -0.7883107 -0.4572004
-0.1514402 -0.7708541 -0.4592145
0.01370907 -0.7666556 -0.4572004
0.1072727 -0.7697492 -0.4572004
-0.04448042 -0.7533974 -0.4501511
-0.1529054 -0.7450005 -0.4582075
-0.09471386 -0.7496409 -0.4521652
0.01224386 -0.741465 -0.4551863
0.1060169 -0.7441167 -0.4531722
-0.1817909 -0.7388134 -0.4592145
-0.2115136 -0.7217987 -0.4561934
-0.09618115 -0.7244503 -0.4551863
-0.07504037 -0.7240084 -0.4531722
0.04740874 -0.7231245 -0.4531722
-0.2694937 -0.7109712 -0.4521652
-0.1256945 -0.7156115 -0.4561934
-0.1045537 -0.7127389 -0.4541793
-0.07566831 -0.7116341 -0.4521652
-0.01465517 -0.7118551 -0.4516616
0.1043402 -0.7180422 -0.4501511
-0.2121436 -0.7087615 -0.4521652
-0.1621153 -0.7021323 -0.4582075
-0.1334392 -0.7078776 -0.4541793
-0.04008481 -0.7089824 -0.4561934
-0.01161801 -0.7001436 -0.4561934
0.01747673 -0.705005 -0.4501511
0.06792158 -0.7085405 -0.4582075
-0.248353 -0.6997017 -0.4541793
-0.2198862 -0.697492 -0.4592145
-0.07650557 -0.6994807 -0.4561934
0.09555112 -0.6935145 -0.4582075
0.1531127 -0.6910838 -0.4551863
-0.184512 -0.6873274 -0.4511581
-0.1629526 -0.689537 -0.4551863
-0.1271597 -0.6897581 -0.4541793
-0.07713352 -0.6866645 -0.4501511
-0.0413407 -0.683129 -0.4501511
-0.278285 -0.6727433 -0.4511581
-0.2496088 -0.6747321 -0.4521652
-0.1277877 -0.6771628 -0.4582075
-0.07797078 -0.6745111 -0.4582075
-0.04218005 -0.6703126 -0.4561934
0.1524847 -0.6787095 -0.4572004
-0.3350092 -0.6616948 -0.4531722
-0.07148203 -0.6616948 -0.4572004
-0.01371116 -0.6619158 -0.4582075
0.2755618 -0.6616948 -0.4561934
-0.356778 -0.6508673 -0.4521652
-0.1361603 -0.6579384 -0.4521652
-0.09994673 -0.6594852 -0.4561934
-0.05034123 -0.6537399 -0.4561934
-0.04280591 -0.6577174 -0.4521652
0.1221341 -0.6541818 -0.4541793
-0.2730521 -0.6473318 -0.4572004
-0.251074 -0.6495415 -0.4501511
-0.2228145 -0.6473318 -0.4511581
-0.1941383 -0.6493205 -0.4561934
-0.07943598 -0.6495415 -0.4561934
-0.05117849 -0.6411446 -0.4561934
-0.04364317 -0.6451221 -0.4572004
0.1790677 -0.6413656 -0.4511581
-0.3576152 -0.638272 -0.4572004
-0.3015189 -0.6323058 -0.4541793
-0.2519113 -0.6373881 -0.4541793
-0.1947684 -0.6369462 -0.4561934
-0.1298808 -0.638714 -0.4582075
0.06352597 -0.6336316 -0.4551863
0.09199277 -0.63098 -0.4501511
-0.3582432 -0.6254557 -0.4531722
-0.08069187 -0.6243509 -0.4541793
-0.01580431 -0.623467 -0.4572004
0.03443122 -0.6283284 -0.4541793
0.09910738 -0.6283284 -0.4521652
-0.4141302 -0.6194896 -0.4572004
-0.3023562 -0.6194896 -0.4561934
-0.2249097 -0.6104298 -0.4592145
-0.1962336 -0.6119766 -0.4572004
-0.1600201 -0.616175 -0.4561934
-0.1313439 -0.6128604 -0.4531722
-0.07441243 -0.6106508 -0.4551863
-0.04510837 -0.6190476 -0.4511581
0.004915756 -0.6170589 -0.4561934
0.07022613 -0.6179428 -0.4582075
0.2071159 -0.6175008 -0.4582075
-0.246467 -0.6062313 -0.4501511
-0.1606501 -0.6035797 -0.4551863
-0.131974 -0.6000442 -0.4501511
-0.1028792 -0.6068943 -0.4572004
-0.04573631 -0.6064523 -0.4572004
0.09764427 -0.6026958 -0.4511581
-0.2757732 -0.5962877 -0.4551863
-0.2473064 -0.593636 -0.4531722
-0.1968615 -0.5991603 -0.4511581
-0.1895355 -0.5973926 -0.4531722
-0.1614874 -0.5907634 -0.4521652
-0.1397186 -0.5954039 -0.4501511
-0.07504037 -0.5978345 -0.4592145
0.06122351 -0.5962877 -0.4572004
0.09701633 -0.5901005 -0.4521652
0.2056507 -0.5923102 -0.4551863
0.2127674 -0.5914264 -0.4521652
-0.2764011 -0.5834714 -0.4561934
-0.1940358 -0.5856811 -0.4556898
-0.168604 -0.5898796 -0.4561934
-0.1118798 -0.5881118 -0.4541793
-0.08299433 -0.587007 -0.4541793
-0.02585141 -0.5852392 -0.4541793
0.06059556 -0.5839134 -0.4592145
0.08885305 -0.5812618 -0.4561934
0.2339081 -0.5810407 -0.4572004
0.3230762 -0.5821456 -0.4582075
-0.4723197 -0.5708761 -0.4521652
-0.4444808 -0.5777262 -0.4582075
-0.3400328 -0.5739697 -0.4561934
-0.1983267 -0.5744117 -0.4521652
-0.07650557 -0.571539 -0.4501511
0.002615387 -0.579494 -0.4551863
0.2703289 -0.571981 -0.4501511
-0.445316 -0.564468 -0.4541793
-0.3967571 -0.5664567 -0.4521652
-0.2845644 -0.5607115 -0.4592145
-0.2560976 -0.5627003 -0.4551863
-0.2276308 -0.5600486 -0.4501511
-0.1991661 -0.5618164 -0.4501511
-0.08445954 -0.5620373 -0.4531722
-0.0555741 -0.5666777 -0.4572004
0.0384082 -0.5688874 -0.4592145
0.1242272 -0.5657938 -0.4561934
0.1744628 -0.5668987 -0.4592145
-0.397385 -0.5538614 -0.4501511
-0.2778642 -0.5578389 -0.4531722
-0.1706972 -0.5525357 -0.4551863
-0.07734283 -0.5589437 -0.4551863
-0.04866672 -0.5547453 -0.4561934
0.008685514 -0.5512098 -0.4572004
0.03778026 -0.556955 -0.4572004
-0.4811109 -0.5452436 -0.4551863
-0.4183165 -0.5430339 -0.4592145
-0.334172 -0.5463485 -0.4521652
-0.2567276 -0.549884 -0.4501511
-0.1997919 -0.5494421 -0.4531722
-0.07797078 -0.5463485 -0.4561934
0.0003129255 -0.5417081 -0.4531722
0.0582931 -0.5463485 -0.4511581
0.1441121 -0.5414872 -0.4551863
0.1729976 -0.5419291 -0.4592145
0.1811608 -0.5476743 -0.4521652
0.2027203 -0.54215 -0.4511581
-0.5292533 -0.5344161 -0.4561934
-0.481741 -0.5326483 -0.4541793
-0.4539 -0.5361838 -0.4551863
-0.446574 -0.5392774 -0.4592145
-0.3703834 -0.5353 -0.4531722
-0.342126 -0.5357419 -0.4501511
-0.1434863 -0.5333112 -0.4551863
0.00805757 -0.5381726 -0.4521652
0.3280998 -0.5392774 -0.4501511
-0.4271077 -0.5233676 -0.4561934
-0.4189465 -0.5299967 -0.4521652
-0.3988502 -0.5291128 -0.4521652
-0.3712207 -0.5229256 -0.4541793
-0.314915 -0.5224837 -0.4511581
-0.2299333 -0.5224837 -0.4521652
-0.1937218 -0.520716 -0.4541793
-0.05012983 -0.5291128 -0.4521652
-0.02961908 -0.5220417 -0.4521652
0.007220311 -0.5253563 -0.4521652
0.02836319 -0.5284499 -0.4521652
0.1219248 -0.527787 -0.4561934
-0.5851403 -0.5189482 -0.4521652
-0.5026724 -0.5151917 -0.4561934
-0.4551559 -0.5112143 -0.4521652
-0.3077983 -0.5174014 -0.4572004
-0.05096918 -0.5162966 -0.4511581
-0.001152277 -0.5169594 -0.4561934
0.1501823 -0.5180643 -0.4561934
0.2081624 -0.5147498 -0.4511581
0.2590259 -0.5160756 -0.4511581
0.3571945 -0.5143078 -0.4582075
-0.5585573 -0.5021545 -0.4541793
-0.4756687 -0.5070158 -0.4531722
-0.03045634 -0.5096675 -0.4572004
-0.001780222 -0.5041432 -0.4511581
0.02689589 -0.5032593 -0.4521652
0.05619995 -0.5087836 -0.4501511
0.1131336 -0.5048061 -0.4561934
0.1204596 -0.5019335 -0.4531722
0.1788584 -0.5087836 -0.4592145
0.2581887 -0.5039222 -0.4592145
-0.5935129 -0.4992819 -0.4592145
-0.4765081 -0.4944205 -0.4541793
-0.4557818 -0.4986189 -0.4531722
-0.4248053 -0.4949729 -0.4572004
-0.3724766 -0.498177 -0.4572004
0.1698557 -0.4919898 -0.4592145
0.228466 -0.4933157 -0.4541793
0.2573514 -0.4913269 -0.4561934
-0.6479347 -0.4807204 -0.4521652
-0.594143 -0.4866866 -0.4572004
-0.5593946 -0.4895592 -0.4582075
-0.5120895 -0.4809413 -0.4531722
-0.4771339 -0.4816042 -0.4582075
-0.3733138 -0.4855817 -0.4572004
-0.195815 -0.4820462 -0.4501511
0.08299224 -0.4816042 -0.4582075
0.2648867 -0.4822671 -0.4531722
0.2948187 -0.4842559 -0.4531722
-0.457249 -0.4736493 -0.4501511
-0.4015713 -0.4791736 -0.4511581
-0.3739418 -0.4729864 -0.4541793
0.02543069 -0.4785106 -0.4501511
0.1442168 -0.479284 -0.4551863
0.1767652 -0.4721025 -0.4511581
0.2858182 -0.4712186 -0.4592145
-0.4543186 -0.4618274 -0.4561934
0.089481 -0.4619379 -0.4501511
0.1144941 -0.465363 -0.4531722
0.1472519 -0.4663573 -0.4531722
0.197906 -0.4676831 -0.4551863
-0.5612785 -0.4513313 -0.4531722
-0.5133433 -0.4561927 -0.4521652
-0.3672437 -0.4588443 -0.4501511
-0.1974895 -0.4568556 -0.4561934
-0.004710628 -0.4544249 -0.4582075
0.1099938 -0.4546459 -0.4572004
0.1466239 -0.453762 -0.4501511
0.2550489 -0.453541 -0.4551863
0.2632122 -0.4568556 -0.4551863
0.3151222 -0.4572975 -0.4582075
-0.6165375 -0.4420506 -0.4551863
-0.596234 -0.4493426 -0.4521652
-0.5416028 -0.4400619 -0.4592145
-0.479225 -0.4429345 -0.4521652
-0.4587142 -0.4486797 -0.4511581
-0.3678716 -0.4460281 -0.4511581
-0.3469402 -0.4473539 -0.4501511
0.2925183 -0.4460281 -0.4531722
0.43799 -0.4480168 -0.4582075
-0.6508651 -0.4310021 -0.4592145
-0.596864 -0.4369683 -0.4531722
-0.5346955 -0.431444 -0.4521652
-0.5066473 -0.4382941 -0.4531722
-0.431924 -0.4356425 -0.4541793
0.07985251 -0.431444 -0.4541793
0.1166919 -0.4380731 -0.4541793
0.2244911 -0.4310021 -0.4592145
-0.6709594 -0.4206165 -0.4582075
-0.5072753 -0.4252569 -0.4511581
-0.4599701 -0.4234891 -0.4511581
-0.4327592 -0.4234891 -0.4592145
-0.3205665 -0.4223843 -0.4551863
-0.149975 -0.4206165 -0.4541793
-0.1127191 -0.4287924 -0.4511581
0.2535816 -0.4285714 -0.4551863
0.2910511 -0.4206165 -0.4501511
-0.5944548 -0.4146503 -0.4577039
-0.5355327 -0.4186278 -0.4551863
-0.5081104 -0.4124406 -0.4511581
-0.487809 -0.4197326 -0.4501511
-0.4333872 -0.4108938 -0.4582075
-0.4252239 -0.4150923 -0.4551863
-0.3975943 -0.4115567 -0.4501511
0.1152267 -0.4124406 -0.4541793
0.1365768 -0.4164181 -0.4521652
0.223861 -0.4181858 -0.4511581
0.3203551 -0.4124406 -0.4501511
0.497854 -0.4199536 -0.4582075
-0.6184214 -0.4033808 -0.4511581
-0.4811109 -0.4049276 -0.4531722
-0.3490333 -0.409568 -0.4501511
0.2230238 -0.4060325 -0.4521652
0.2902117 -0.4080212 -0.4572004
0.3121918 -0.4066954 -0.4501511
0.3419145 -0.4060325 -0.4561934
0.3812657 -0.4009502 -0.4572004
-0.7777098 -0.3954259 -0.4511581
-0.6190493 -0.3910065 -0.4541793
-0.544324 -0.3903436 -0.4582075
-0.5169038 -0.3934372 -0.4511581
-0.4614353 -0.3987405 -0.4521652
-0.4541093 -0.3985195 -0.4501511
-0.4340151 -0.3982985 -0.4561934
-0.3498706 -0.3971937 -0.4572004
0.1349023 -0.3914485 -0.4531722
0.1637877 -0.3918904 -0.4531722
0.1721624 -0.3960888 -0.4582075
0.251072 -0.3907855 -0.4541793
0.3195179 -0.3996243 -0.4511581
0.5043427 -0.3903436 -0.4551863
-0.5995809 -0.3868081 -0.4541793
-0.5175317 -0.3810629 -0.4511581
-0.4547373 -0.3857032 -0.4531722
-0.4346451 -0.3857032 -0.4531722
-0.2659354 -0.387471 -0.4531722
0.04866463 -0.3839355 -0.4551863
0.171323 -0.3826097 -0.4582075
0.280376 -0.3830516 -0.4582075
0.3710114 -0.3810629 -0.4592145
0.4735735 -0.3892387 -0.4551863
-0.6470975 -0.3720031 -0.4592145
-0.6198866 -0.3784112 -0.4541793
-0.6004203 -0.3742128 -0.4551863
-0.5449519 -0.3777483 -0.4551863
-0.5102057 -0.3744338 -0.4572004
0.1629505 -0.3792951 -0.4592145
0.279746 -0.3702353 -0.4521652
0.3180526 -0.3742128 -0.4582075
0.4329664 -0.372887 -0.4582075
0.4415483 -0.3722241 -0.4541793
0.4635264 -0.372445 -0.4582075
0.494505 -0.3700144 -0.4572004
-0.6010482 -0.3618385 -0.4582075
-0.5380445 -0.3680256 -0.4511581
-0.5181596 -0.3686886 -0.4511581
-0.4832041 -0.3666998 -0.4561934
0.3172154 -0.3611756 -0.4592145
0.3477733 -0.3618385 -0.4541793
0.3746733 -0.365595 -0.4536757
0.5026683 -0.3644901 -0.4531722
0.5259022 -0.3669208 -0.4511581
-0.5462078 -0.3523368 -0.4511581
-0.5386724 -0.3552094 -0.4501511
-0.5189969 -0.3563142 -0.4572004
-0.4913673 -0.357861 -0.4551863
-0.4285729 -0.3510109 -0.4541793
0.3387748 -0.3563142 -0.4582075
0.5018331 -0.3516738 -0.4521652
-0.708636 -0.3421721 -0.4541793
-0.6016762 -0.3492432 -0.4531722
-0.5742559 -0.3472545 -0.4501511
0.3163761 -0.3481383 -0.4521652
0.378126 -0.3499061 -0.4531722
-0.7287302 -0.3300188 -0.4541793
-0.5750932 -0.3348801 -0.4551863
0.3157502 -0.3348801 -0.4501511
0.3678696 -0.3311236 -0.4572004
0.4084766 -0.3353221 -0.4501511
0.430664 -0.3351011 -0.4501511
0.4922025 -0.3324495 -0.4501511
-0.6498186 -0.32118 -0.4592145
-0.6031414 -0.3240526 -0.4521652
-0.5679786 -0.3242736 -0.4531722
-0.5127174 -0.3236107 -0.4551863
-0.4300381 -0.3255994 -0.4541793
-0.3823165 -0.3225058 -0.4511581
0.4384086 -0.32118 -0.4521652
0.4913673 -0.3200751 -0.4592145
0.5001565 -0.3262623 -0.4501511
-0.6569374 -0.3178654 -0.4561934
-0.630773 -0.3103524 -0.4501511
-0.5686045 -0.3112363 -0.4501511
-0.5483009 -0.3145509 -0.4521652
-0.5210879 -0.3189703 -0.4582075
-0.4662475 -0.3112363 -0.4531722
-0.4388293 -0.3107944 -0.4531722
0.5225531 -0.3169816 -0.4531722
-0.6839369 -0.3092476 -0.4561934
-0.6575632 -0.3050492 -0.4531722
-0.4114091 -0.3041653 -0.4561934
-0.6845648 -0.2966523 -0.4521652
-0.6776574 -0.2926748 -0.4592145
-0.5422308 -0.291349 -0.4501511
-0.5223459 -0.2937797 -0.4551863
-0.4947185 -0.2951055 -0.4531722
-0.4120371 -0.291349 -0.4501511
0.3050751 -0.2942216 -0.4521652
0.436732 -0.2959894 -0.4592145
0.4587122 -0.2970943 -0.4531722
-0.5700697 -0.2856038 -0.4501511
-0.5229738 -0.2814054 -0.4561934
-0.5148106 -0.2851619 -0.4551863
-0.4677148 -0.2862667 -0.4541793
-0.3561521 -0.2829522 -0.4521652
0.2740966 -0.2818473 -0.4531722
0.3042379 -0.2816263 -0.4551863
-0.574572 -0.2726771 -0.4551863
-0.4610146 -0.2712407 -0.4572004
0.3423353 -0.2730085 -0.4541793
-0.6596584 -0.2677052 -0.4572004
-0.6064904 -0.261739 -0.4551863
-0.5512313 -0.2648326 -0.4572004
-0.6531676 -0.2573196 -0.4592145
-0.5993758 -0.2517954 -0.4521652
-0.5790702 -0.2595293 -0.4551863
-0.5518593 -0.2522373 -0.4551863
-0.544324 -0.2535631 -0.4561934
-0.524439 -0.2559938 -0.4521652
-0.4892742 -0.2520164 -0.4551863
-0.4141302 -0.2542261 -0.4521652
0.3025634 -0.2562148 -0.4521652
0.3322861 -0.2559938 -0.4551863
-0.7140782 -0.2414098 -0.4501511
-0.7065428 -0.2464921 -0.4572004
-0.63412 -0.2478179 -0.4572004
-0.6071184 -0.2491437 -0.4551863
-0.5449519 -0.2407469 -0.4551863
-0.4976447 -0.2451663 -0.4551863
-0.4423898 -0.2480389 -0.4582075
-0.3584525 -0.2453873 -0.4561934
0.3017261 -0.2438405 -0.4541793
-0.6881232 -0.2341178 -0.4541793
-0.6079556 -0.2365485 -0.4561934
-0.5805354 -0.2345597 -0.4531722
-0.5727907 -0.2352226 -0.4541793
-0.5524852 -0.239642 -0.4521652
-0.525695 -0.2308032 -0.4511581
-0.5175317 -0.2345597 -0.4592145
-0.4941931 -0.2358855 -0.4526687
0.3308209 -0.2308032 -0.4582075
0.3710114 -0.2350017 -0.4511581
-0.7080081 -0.2210805 -0.4521652
-0.6278405 -0.2254999 -0.4501511
-0.6085836 -0.2239532 -0.4592145
-0.5455799 -0.2281516 -0.4561934
-0.5181596 -0.2219644 -0.4572004
-0.4710638 -0.2230693 -0.4501511
-0.6623754 -0.2171031 -0.4541793
-0.6092115 -0.2113579 -0.4582075
-0.5462078 -0.2153353 -0.4531722
-0.4913673 -0.2133466 -0.4521652
-0.4078508 -0.2199757 -0.4501511
0.3002609 -0.2186499 -0.4572004
-0.4643658 -0.2071594 -0.4531722
0.2692803 -0.2062756 -0.4511581
0.2994237 -0.2060546 -0.4531722
0.3383562 -0.2095901 -0.4592145
-0.6831017 -0.1910286 -0.4531722
-0.6368411 -0.1974367 -0.4531722
-0.5279974 -0.1932383 -0.4592145
-0.4649937 -0.1947851 -0.4582075
0.3071683 -0.1943432 -0.4501511
0.3590783 -0.1934593 -0.4592145
-0.6106767 -0.1863882 -0.4521652
-0.5286254 -0.180643 -0.4582075
-0.4928325 -0.188377 -0.4582075
-0.4656216 -0.1817479 -0.4521652
0.2678171 -0.181085 -0.4531722
0.2977512 -0.180864 -0.4551863
0.306331 -0.1817479 -0.4561934
0.3276811 -0.1804221 -0.4521652
0.336891 -0.1843995 -0.4582075
-0.5016237 -0.1700365 -0.4551863
-0.4934605 -0.1751188 -0.4531722
-0.473787 -0.17313 -0.4511581
0.2761897 -0.1779914 -0.4501511
-0.6311896 -0.1620815 -0.4572004
-0.5292533 -0.1680477 -0.4531722
-0.4940884 -0.1627444 -0.4531722
0.2755618 -0.1656171 -0.4511581
0.2969119 -0.1687106 -0.4592145
0.3268418 -0.1678268 -0.4511581
-0.6849834 -0.1528008 -0.4541793
-0.6586098 -0.1552315 -0.4572004
-0.5845124 -0.1594299 -0.4511581
-0.5215086 -0.1578831 -0.4501511
0.3046565 -0.1563363 -0.4541793
0.3260066 -0.1556734 -0.4592145
-0.6665637 -0.1417523 -0.4592145
-0.5773957 -0.1466136 -0.4541793
-0.5305092 -0.1428571 -0.4501511
-0.5223459 -0.1452878 -0.4521652
0.3040286 -0.1435201 -0.4511581
0.3251694 -0.1428571 -0.4551863
-0.5780236 -0.1337974 -0.4501511
-0.5501848 -0.1386587 -0.4501511
0.3031892 -0.1307038 -0.4511581
-0.3934081 -0.1223069 -0.4541793
0.332914 -0.1209811 -0.4561934
0.3641019 -0.1212021 -0.4551863
-0.6416553 -0.1101536 -0.4511581
-0.6339107 -0.1108165 -0.4531722
-0.5319744 -0.1178875 -0.4531722
0.3237042 -0.1176666 -0.4531722
-0.6611215 -0.1041874 -0.4501511
-0.5874428 -0.1099326 -0.4572004
-0.5794888 -0.1081648 -0.4541793
-0.524439 -0.107281 -0.4592145
-0.5051842 -0.107281 -0.4501511
-0.3865007 -0.1019777 -0.4541793
0.3228669 -0.1052922 -0.4531722
0.3536362 -0.1055132 -0.4541793
-0.6422833 -0.09777925 -0.4541793
-0.5840937 -0.09634295 -0.4541793
-0.5248577 -0.0944647 -0.4521652
0.3220297 -0.09291791 -0.4561934
0.3314488 -0.09556955 -0.4572004
0.3624274 -0.09556955 -0.4501511
-0.6431205 -0.08496299 -0.4541793
-0.5340697 -0.08032262 -0.4521652
0.2914697 -0.08032262 -0.4531722
0.3306116 -0.08297426 -0.4551863
0.3925687 -0.08120649 -0.4561934
-0.4237587 -0.07833388 -0.4501511
0.3297743 -0.070158 -0.4592145
0.8524352 -0.07745001 -0.4531722
-0.6173748 -0.06087725 -0.4511581
0.8513865 -0.06485471 -0.4582075
-0.5901639 -0.05955143 -0.4592145
-0.5627457 -0.05181748 -0.4531722
-0.5269508 -0.05623688 -0.4501511
-0.3892218 -0.05137554 -0.4521652
-0.3410794 -0.05822561 -0.4531722
0.3504964 -0.05513203 -0.4521652
-0.6372597 -0.04761905 -0.4501511
-0.5828379 -0.04518838 -0.4572004
-0.5361607 -0.04297868 -0.4511581
0.3592876 -0.04474644 -0.4501511
-0.6458416 -0.03480278 -0.4561934
-0.5914198 -0.03436084 -0.4582075
-0.5635809 -0.03922218 -0.4572004
-0.5367866 -0.03038338 -0.4511581
-0.528416 -0.03104629 -0.4511581
-0.5009958 -0.03590763 -0.4592145
-0.4541093 -0.03480278 -0.4521652
0.3584504 -0.03215114 -0.4531722
-0.6650965 -0.02817368 -0.4521652
-0.6464716 -0.02220749 -0.4551863
-0.6113046 -0.02375428 -0.4561934
-0.5920477 -0.02176555 -0.4531722
-0.4821575 -0.0228704 -0.4541793
-0.4549466 -0.02220749 -0.4531722
-0.3904777 -0.02596398 -0.4561934
-0.5290419 -0.01823003 -0.4511581
-0.4827854 -0.01005414 -0.4511581
-0.4463647 -0.01999779 -0.4501511
-0.6393529 -0.009612198 -0.4511581
-0.5847217 -0.006960557 -0.4501511
-0.565672 -0.001878246 -0.4582075
-0.4469926 -0.007623467 -0.4541793
-0.3996875 -0.009170257 -0.4501511
-0.3718507 -0.004529886 -0.4521652
-0.6399808 0.002983096 -0.4572004
-0.6127678 0.001436305 -0.4551863
-0.5935129 0.003425036 -0.4561934
-0.557718 0.0005524252 -0.4511581
-0.5345908 0.007071042 -0.4551863
-0.6485627 0.01557839 -0.4541793
-0.6133978 0.0140316 -0.4511581
-0.5120895 0.01800906 -0.4592145
-0.4842527 0.01491548 -0.4521652
-0.4484578 0.018451 -0.4511581
-0.4011527 0.01579936 -0.4541793
-0.6140258 0.02662689 -0.4541793
-0.5949781 0.02839465 -0.4572004
-0.3733138 0.02043973 -0.4582075
0.4375714 0.02883659 -0.4561934
-0.6761922 0.03480278 -0.4511581
-0.6686569 0.03524473 -0.4592145
-0.5868148 0.03060435 -0.4501511
-0.5127174 0.03082532 -0.4501511
-0.4490858 0.03104629 -0.4541793
0.3140757 0.03259308 -0.4582075
0.3446356 0.03281405 -0.4582075
0.385452 0.03281405 -0.4521652
-0.6692848 0.04828196 -0.4511581
-0.6498186 0.04076898 -0.4561934
-0.5956061 0.04121092 -0.4551863
-0.5874428 0.04297868 -0.4551863
-0.3383583 0.04364159 -0.4531722
0.3538455 0.04342062 -0.4572004
-0.6506558 0.0531433 -0.4592145
-0.6427019 0.05380621 -0.4551863
-0.6236542 0.05159651 -0.4592145
-0.6152796 0.05203845 -0.4531722
-0.533021 0.0575627 -0.4561934
-0.375407 0.05888852 -0.4561934
-0.2908418 0.05115457 -0.4511581
0.3530061 0.05601591 -0.4541793
-0.6433298 0.06662247 -0.4511581
-0.5650461 0.06220307 -0.4531722
-0.5424401 0.06993702 -0.4572004
-0.395294 0.06242404 -0.4582075
0.3523803 0.0686112 -0.4551863
-0.507066 0.07855485 -0.4551863
-0.4605981 0.07789195 -0.4582075
0.3423353 0.07037897 -0.4531722
-0.6257453 0.08982433 -0.4511581
-0.6173748 0.08982433 -0.4501511
-0.5156499 0.08076455 -0.4582075
-0.4518068 0.08142747 -0.4551863
0.351543 0.08142747 -0.4501511
0.3823123 0.08363717 -0.4551863
-0.6445857 0.09137112 -0.4592145
-0.5711163 0.09866313 -0.4582075
0.3718466 0.09822119 -0.4572004
-0.6263753 0.1019777 -0.4582075
-0.5907918 0.1061761 -0.4521652
-0.5631623 0.1015357 -0.4582075
-0.5445353 0.1075019 -0.4582075
-0.4890649 0.1026406 -0.4541793
-0.4344337 0.1097116 -0.4582075
-0.3783374 0.1094907 -0.4592145
0.3806378 0.1090487 -0.4531722
-0.6270033 0.1150149 -0.4511581
-0.5956061 0.1174456 -0.4556898
-0.6004203 0.1287151 -0.4541793
-0.5725815 0.1240747 -0.4531722
-0.4350617 0.1225279 -0.4541793
0.9300889 0.1249586 -0.4531722
-0.5650461 0.1393216 -0.4551863
-0.518371 0.1313667 -0.4521652
-0.4356896 0.1346813 -0.4592145
-0.3994782 0.1386587 -0.4541793
0.3695441 0.1360071 -0.4541793
0.9600188 0.1351232 -0.4582075
-0.6010482 0.1413103 -0.4551863
-0.5378352 0.1461717 -0.4582075
0.3783353 0.1470556 -0.4511581
0.9807451 0.1424152 -0.4572004
-0.6207238 0.1530218 -0.4511581
0.377498 0.1596509 -0.4541793
-0.6213518 0.1656171 -0.4551863
-0.5665113 0.1649542 -0.4521652
-0.5204621 0.1687106 -0.4592145
-0.5116709 0.1667219 -0.4541793
-0.3538476 0.1678268 -0.4592145
0.9583464 0.1605348 -0.4511581
0.9788592 0.1673848 -0.4561934
-0.6031414 0.1786543 -0.4592145
-0.5753025 0.1740139 -0.4582075
-0.5671393 0.1773285 -0.4531722
-0.5478823 0.1702574 -0.4561934
-0.5393025 0.1718042 -0.4572004
-0.5122988 0.1793172 -0.4521652
-0.4932512 0.1779914 -0.4551863
-0.4660423 0.1784333 -0.4561934
-0.5947688 0.1821898 -0.4511581
-0.5759326 0.1868302 -0.4511581
-0.5487196 0.1828527 -0.4572004
-0.4296174 0.1857253 -0.4551863
0.9256954 0.1885979 -0.4521652
0.9863945 0.1892609 -0.4551863
-0.622817 0.1908076 -0.4582075
