# .PCD v.7 - Point Cloud Data file format
VERSION .7
FIELDS x y z
SIZE 4 4 4
TYPE F F F
COUNT 1 1 1
WIDTH 1382
HEIGHT 1
VIEWPOINT 0 0 0 1 0 0 0
POINTS 1382
DATA ascii
574998.875 4178527 293.100006104
574999.25 4178527.25 293.149993896
574999.25 4178527.25 293.170013428
575001.6875 4178527 293.399993896
575001.6875 4178527 293.429992676
575002.875 4178527.25 293.299987793
575002.875 4178527.25 293.290008545
575003.625 4178527.25 293.470001221
575003.625 4178527.25 293.429992676
575004.0625 4178527 293.510009766
575004.0625 4178527 293.489990234
575004.8125 4178527.25 293.519989014
575004.8125 4178527.25 293.510009766
575005.1875 4178527 293.450012207
575005.1875 4178527 293.410003662
575006 4178527.25 293.519989014
575006 4178527.25 293.540008545
575006.3125 4178527.25 293.779998779
575006.3125 4178527.25 293.790008545
575007.125 4178527.25 293.959991455
575007.125 4178527.25 293.989990234
575007.4375 4178527 293.989990234
575007.4375 4178527 293.980010986
575008.1875 4178527.25 294.040008545
575008.1875 4178527.25 294.049987793
575008.5625 4178527 293.940002441
575008.5625 4178527 293.920013428
575009.25 4178527 294.489990234
575009.25 4178527 294.459991455
575009.625 4178527 294.459991455
575009.625 4178527 294.440002441
575010.375 4178527 294.170013428
575010.375 4178527 294.140014648
575012.875 4178527.25 294.630004883
575012.875 4178527.25 294.609985352
575013.625 4178527 294.700012207
575013.625 4178527 294.720001221
575014.6875 4178527.25 294.950012207
575014.6875 4178527.25 294.929992676
575015 4178527.25 295.049987793
575015 4178527.25 295.019989014
575015.75 4178527 295.100006104
575015.75 4178527 295.109985352
575016.0625 4178527 295.109985352
575016.0625 4178527 295.089996338
575016.8125 4178527 295.230010986
575016.8125 4178527 295.209991455
575017.125 4178527.25 295.260009766
575017.125 4178527.25 295.239990234
575017.8125 4178527 295.160003662
575017.8125 4178527 295.200012207
575018.1875 4178527.25 295.290008545
575018.1875 4178527.25 295.279998779
575019.1875 4178527.25 295.489990234
575019.1875 4178527.25 295.510009766
575019.875 4178527 295.519989014
575019.875 4178527 295.540008545
575020.1875 4178527 295.450012207
575020.1875 4178527 295.480010986
575021.875 4178527.25 295.600006104
575021.875 4178527.25 295.589996338
575022.1875 4178527 295.790008545
574998.875 4178527.5 293.160003662
574998.875 4178527.5 293.149993896
575000.125 4178527.5 293.149993896
575000.125 4178527.5 293.119995117
575000.5 4178527.5 293.420013428
575000.5 4178527.5 293.450012207
575001.3125 4178527.25 293.470001221
575001.3125 4178527.25 293.489990234
575001.6875 4178527.5 293.549987793
575001.6875 4178527.5 293.559997559
575002.5 4178527.25 293.679992676
575002.5 4178527.25 293.690002441
575004.0625 4178527.5 293.570007324
575004.0625 4178527.5 293.600006104
575005.1875 4178527.75 293.679992676
575005.1875 4178527.75 293.670013428
575007.5 4178527.5 293.899993896
575007.5 4178527.5 293.869995117
575008.5625 4178527.75 294.200012207
575008.5625 4178527.75 294.170013428
575010.375 4178527.5 294.339996338
575010.375 4178527.5 294.329986572
575010.75 4178527.25 294.279998779
575010.75 4178527.25 294.239990234
575011.4375 4178527.5 294.579986572
575011.4375 4178527.5 294.609985352
575011.8125 4178527.5 294.369995117
575011.8125 4178527.5 294.350006104
575012.5625 4178527.5 294.589996338
575012.5625 4178527.5 294.559997559
575013.625 4178527.5 294.820007324
575013.625 4178527.5 294.790008545
575014 4178527.5 294.880004883
575014 4178527.5 294.899993896
575016.125 4178527.75 294.970001221
575016.125 4178527.75 294.929992676
575016.8125 4178527.5 295.190002441
575016.8125 4178527.5 295.170013428
575017.875 4178527.5 295.149993896
575017.875 4178527.5 295.119995117
575018.8125 4178527.5 295.519989014
575018.8125 4178527.5 295.540008545
575019.875 4178527.5 295.600006104
575019.875 4178527.5 295.579986572
575020.25 4178527.75 295.559997559
575020.25 4178527.75 295.540008545
575021.1875 4178527.25 295.769989014
574998.0625 4178527.75 293.170013428
574998.0625 4178527.75 293.190002441
574999.25 4178527.75 293.410003662
574999.25 4178527.75 293.390014648
575000.0625 4178528 293.760009766
575000.125 4178528 293.739990234
575000.5 4178528 293.630004883
575000.5 4178528 293.640014648
575001.3125 4178528 293.600006104
575001.3125 4178528 293.609985352
575002.5 4178528 293.679992676
575002.5 4178528 293.660003662
575002.875 4178527.75 293.649993896
575002.875 4178527.75 293.630004883
575003.6875 4178527.75 293.730010986
575003.6875 4178527.75 293.760009766
575004.875 4178527.75 293.5
575004.875 4178527.75 293.529998779
575006 4178527.75 293.679992676
575006 4178527.75 293.649993896
575006.375 4178527.75 293.809997559
575006.375 4178527.75 293.779998779
575007.125 4178527.75 293.940002441
575007.125 4178527.75 293.910003662
575007.5 4178528 294.109985352
575007.5 4178528 294.100006104
575008.25 4178527.75 294.130004883
575008.25 4178527.75 294.140014648
575009.3125 4178527.75 294.179992676
575009.3125 4178527.75 294.200012207
575009.6875 4178527.75 294.119995117
575009.6875 4178527.75 294.100006104
575010.75 4178528 294.399993896
575010.75 4178528 294.359985352
575011.875 4178528 294.420013428
575011.875 4178528 294.390014648
575012.625 4178528 294.380004883
575012.625 4178528 294.359985352
575012.9375 4178527.75 294.570007324
575012.9375 4178527.75 294.549987793
575014 4178528 294.769989014
575014 4178528 294.760009766
575014.75 4178527.75 294.859985352
575014.75 4178527.75 294.890014648
575015.0625 4178527.75 295.040008545
575015.0625 4178527.75 295.019989014
575015.75 4178527.75 294.950012207
575015.75 4178527.75 294.929992676
575017.1875 4178527.75 295.239990234
575017.1875 4178527.75 295.209991455
575017.875 4178528 295.450012207
575017.875 4178528 295.470001221
575018.1875 4178527.75 295.279998779
575018.1875 4178527.75 295.260009766
575018.875 4178528 295.470001221
575018.875 4178528 295.5
575019.25 4178527.75 295.5
575019.25 4178527.75 295.470001221
575021.25 4178528 295.75
575021.25 4178528 295.730010986
575021.875 4178527.75 295.730010986
575021.875 4178527.75 295.760009766
574997.6875 4178528.25 293.279998779
574997.6875 4178528.25 293.309997559
574998.0625 4178528.5 293.350006104
574998.0625 4178528.5 293.339996338
574998.875 4178528 293.399993896
574998.875 4178528 293.420013428
574999.3125 4178528.5 293.380004883
574999.3125 4178528.5 293.399993896
575000.125 4178528.5 294.019989014
575000.125 4178528.5 293.989990234
575001.75 4178528.25 293.720001221
575001.75 4178528.25 293.690002441
575002.875 4178528.5 293.709991455
575002.875 4178528.25 293.730010986
575003.6875 4178528.5 293.739990234
575003.6875 4178528.5 293.720001221
575004.0625 4178528.25 293.720001221
575004.0625 4178528.25 293.690002441
575004.875 4178528.25 293.739990234
575004.875 4178528.25 293.720001221
575005.1875 4178528.25 293.989990234
575005.25 4178528.25 293.959991455
575006 4178528.25 293.820007324
575006 4178528.25 293.790008545
575006.375 4178528.5 293.899993896
575006.375 4178528.25 293.929992676
575007.125 4178528.5 294.190002441
575007.125 4178528.5 294.220001221
575008.3125 4178528.5 293.809997559
575008.3125 4178528.5 293.799987793
575008.625 4178528.25 293.989990234
575008.625 4178528.25 293.970001221
575009.375 4178528.25 293.989990234
575009.375 4178528.25 293.970001221
575009.6875 4178528.25 294.290008545
575009.6875 4178528.25 294.320007324
575010.4375 4178528.25 294.279998779
575010.4375 4178528.25 294.309997559
575011.5 4178528 294.329986572
575011.5 4178528 294.309997559
575013 4178528.25 294.459991455
575013 4178528.25 294.480010986
575013.6875 4178528.25 294.739990234
575013.6875 4178528.25 294.779998779
575014.75 4178528.25 294.739990234
575014.75 4178528.25 294.769989014
575015.0625 4178528.25 295.109985352
575015.0625 4178528.25 295.089996338
575015.8125 4178528.25 294.950012207
575015.8125 4178528.25 294.929992676
575016.125 4178528.25 295.059997559
575016.125 4178528.25 295.040008545
575016.875 4178528.25 295.140014648
575016.875 4178528.25 295.109985352
575017.1875 4178528.25 295.350006104
575017.1875 4178528.25 295.329986572
575018.25 4178528.25 295.329986572
575018.25 4178528.25 295.299987793
575019.25 4178528.5 295.309997559
575019.25 4178528.5 295.299987793
575019.9375 4178528.25 295.5
575019.9375 4178528.25 295.5
574997.6875 4178528.75 293.429992676
574997.6875 4178528.75 293.399993896
574998.9375 4178528.75 293.420013428
574998.9375 4178528.75 293.390014648
575000.5625 4178528.5 293.510009766
575000.5625 4178528.5 293.519989014
575001.375 4178528.5 293.619995117
575001.375 4178528.5 293.600006104
575001.75 4178528.75 293.470001221
575001.75 4178528.75 293.450012207
575002.5625 4178528.5 293.549987793
575002.5625 4178528.5 293.519989014
575004.125 4178528.75 293.920013428
575004.125 4178528.75 293.890014648
575005.25 4178528.75 293.970001221
575005.25 4178528.75 293.950012207
575006.0625 4178528.75 293.929992676
575006.0625 4178528.75 293.940002441
575007.5 4178528.75 294.160003662
575007.5 4178528.75 294.190002441
575008.6875 4178528.75 293.899993896
575008.6875 4178528.75 293.920013428
575009.375 4178528.75 294.380004883
575009.375 4178528.75 294.350006104
575009.75 4178529 294.359985352
575009.75 4178528.75 294.380004883
575010.4375 4178528.75 294.279998779
575010.5 4178528.75 294.260009766
575010.8125 4178528.5 294.160003662
575010.8125 4178528.5 294.140014648
575011.5625 4178528.75 294.239990234
575011.5625 4178528.75 294.220001221
575011.875 4178528.5 294.529998779
575011.875 4178528.5 294.570007324
575012.625 4178528.5 294.510009766
575012.625 4178528.5 294.5
575013.75 4178528.75 294.589996338
575013.75 4178528.75 294.630004883
575014.0625 4178528.75 294.709991455
575014.0625 4178528.75 294.709991455
575016.1875 4178528.75 295.140014648
575016.1875 4178528.75 295.109985352
575016.9375 4178528.75 295.079986572
575016.9375 4178528.75 295.089996338
575017.9375 4178528.75 295.399993896
575017.9375 4178528.75 295.399993896
575018.875 4178528.5 295.660003662
575018.875 4178528.5 295.640014648
575019.9375 4178528.75 295.440002441
575019.9375 4178528.75 295.470001221
575020.25 4178528.75 295.690002441
575020.25 4178528.75 295.709991455
574998.0625 4178529 293.579986572
574998.0625 4178529 293.549987793
574998.9375 4178529.25 293.670013428
574998.9375 4178529.25 293.640014648
574999.3125 4178529 293.519989014
574999.3125 4178529 293.510009766
575000.125 4178529 294.190002441
575000.125 4178529 294.209991455
575000.5625 4178529.25 293.890014648
575000.5625 4178529.25 293.869995117
575001.375 4178529 293.679992676
575001.375 4178529 293.649993896
575002.5625 4178529 293.950012207
575002.5625 4178529 293.929992676
575002.9375 4178529 293.769989014
575002.9375 4178529 293.760009766
575003.75 4178529 293.799987793
575003.75 4178529 293.769989014
575004.875 4178529 294.079986572
575004.875 4178529 294.049987793
575006.375 4178529 294.070007324
575006.375 4178529 294.079986572
575007.1875 4178529 294.089996338
575007.1875 4178529 294.100006104
575007.5 4178529.25 294.329986572
575007.5 4178529.25 294.359985352
575008.3125 4178529 294.119995117
575008.3125 4178529 294.089996338
575010.8125 4178529.25 294.209991455
575010.875 4178529.25 294.190002441
575011.5625 4178529.25 294.519989014
575011.5625 4178529.25 294.5
575011.875 4178529.25 294.679992676
575011.875 4178529.25 294.640014648
575012.625 4178529.25 294.670013428
575012.625 4178529.25 294.640014648
575013 4178529 294.559997559
575013 4178529 294.540008545
575014.0625 4178529.25 294.670013428
575014.0625 4178529.25 294.670013428
575014.75 4178529 295.029998779
575014.75 4178529 295.010009766
575015.125 4178529 294.670013428
575015.125 4178529 294.649993896
575015.875 4178529 294.820007324
575015.875 4178529 294.839996338
575017.25 4178529 295.339996338
575017.25 4178529 295.309997559
575017.9375 4178529.25 295.309997559
575017.9375 4178529.25 295.329986572
575018.25 4178529 295.489990234
575018.25 4178529 295.459991455
575018.9375 4178529.25 295.399993896
575018.9375 4178529.25 295.420013428
575019.25 4178529 295.5
575019.25 4178529 295.510009766
575021.3125 4178529.25 295.690002441
575021.3125 4178529.25 295.670013428
574996.9375 4178529.5 293.149993896
574996.9375 4178529.5 293.179992676
574997.75 4178529.5 293.619995117
574997.75 4178529.5 293.589996338
574998.125 4178529.5 293.579986572
574998.125 4178529.5 293.589996338
574999.3125 4178529.5 293.779998779
574999.3125 4178529.5 293.799987793
575001.75 4178529.25 293.709991455
575001.75 4178529.25 293.679992676
575002.5625 4178529.75 293.989990234
575002.5625 4178529.75 293.970001221
575002.9375 4178529.5 293.760009766
575002.9375 4178529.5 293.75
575003.75 4178529.5 293.970001221
575003.75 4178529.5 293.950012207
575004.125 4178529.25 293.959991455
575004.125 4178529.25 293.980010986
575004.9375 4178529.5 293.950012207
575004.9375 4178529.5 293.929992676
575005.25 4178529.5 294.040008545
575005.25 4178529.5 294.010009766
575006.0625 4178529.5 294.329986572
575006.0625 4178529.5 294.350006104
575006.4375 4178529.5 294.260009766
575006.4375 4178529.5 294.220001221
575007.25 4178529.5 294.079986572
575007.25 4178529.5 294.049987793
575008.3125 4178529.5 294.290008545
575008.3125 4178529.5 294.269989014
575008.6875 4178529.5 294.220001221
575008.6875 4178529.5 294.200012207
575009.375 4178529.5 294.339996338
575009.375 4178529.5 294.350006104
575009.75 4178529.5 294.399993896
575009.75 4178529.5 294.380004883
575010.5 4178529.25 294.320007324
575010.5 4178529.25 294.359985352
575013 4178529.5 294.690002441
575013 4178529.5 294.709991455
575013.75 4178529.5 294.529998779
575013.75 4178529.5 294.510009766
575014.8125 4178529.5 294.829986572
575014.8125 4178529.5 294.809997559
575015.1875 4178529.5 294.600006104
575015.1875 4178529.5 294.619995117
575015.875 4178529.5 294.929992676
575015.875 4178529.5 294.910003662
575016.1875 4178529.5 295.029998779
575016.1875 4178529.5 295.019989014
575016.9375 4178529.5 295.429992676
575016.9375 4178529.25 295.440002441
575017.25 4178529.5 295.420013428
575017.25 4178529.5 295.440002441
575018.3125 4178529.5 295.170013428
575018.3125 4178529.5 295.160003662
575019.3125 4178529.75 295.410003662
575019.3125 4178529.75 295.429992676
575020 4178529.5 295.489990234
575020 4178529.5 295.470001221
575021 4178529.5 295.630004883
575021 4178529.5 295.660003662
575022.3125 4178529.5 295.760009766
575022.3125 4178529.5 295.739990234
574997.75 4178530 293.709991455
574997.75 4178530 293.739990234
574998.9375 4178529.75 293.760009766
574998.9375 4178529.75 293.730010986
575000.1875 4178529.75 293.619995117
575000.1875 4178529.75 293.600006104
575000.5625 4178529.75 293.839996338
575000.5625 4178529.75 293.880004883
575001.375 4178529.75 293.709991455
575001.375 4178529.75 293.739990234
575001.8125 4178530 293.720001221
575001.8125 4178530 293.690002441
575004.125 4178530 294.170013428
575004.125 4178530 294.190002441
575005.3125 4178530 294.100006104
575005.3125 4178530 294.079986572
575006.0625 4178530 294.179992676
575006.125 4178530 294.140014648
575007.5625 4178529.75 294.540008545
575007.5625 4178529.75 294.570007324
575008.6875 4178530 294.260009766
575008.6875 4178530 294.25
575009.75 4178530 294.720001221
575009.75 4178530 294.75
575010.5 4178530 294.339996338
575010.5 4178530 294.309997559
575010.875 4178529.75 294.339996338
575010.875 4178529.75 294.309997559
575011.625 4178530 294.429992676
575011.625 4178530 294.459991455
575011.9375 4178529.75 294.679992676
575011.9375 4178529.75 294.660003662
575012.6875 4178529.75 294.559997559
575012.6875 4178529.75 294.540008545
575013.75 4178530 295.010009766
575013.75 4178530 294.970001221
575014.125 4178529.75 294.700012207
575014.125 4178529.75 294.660003662
575015.875 4178530 295.200012207
575015.875 4178530 295.170013428
575016.25 4178530 295.029998779
575016.25 4178530 295.049987793
575017 4178530 295.089996338
575017 4178530 295.070007324
575017.3125 4178530 295.290008545
575017.3125 4178530 295.329986572
575018 4178530 294.940002441
575018 4178530 294.959991455
575019 4178529.75 295.200012207
575019 4178529.75 295.230010986
575020.375 4178530 295.420013428
575020.375 4178530 295.450012207
575021.3125 4178529.75 295.739990234
575021.3125 4178529.75 295.75
575022.3125 4178530 295.769989014
575022.3125 4178530 295.799987793
574996.5625 4178530.25 293.320007324
574996.5625 4178530.25 293.299987793
574996.9375 4178530 293.459991455
574996.9375 4178530 293.429992676
574998.125 4178530.25 293.660003662
574998.125 4178530.25 293.679992676
574999 4178530.5 293.660003662
574999 4178530.5 293.679992676
574999.375 4178530 294.070007324
574999.375 4178530 294.049987793
575000.1875 4178530.25 294.040008545
575000.1875 4178530.25 294.010009766
575000.625 4178530.25 293.799987793
575000.625 4178530.25 293.829986572
575001.4375 4178530.25 293.869995117
575001.4375 4178530.25 293.839996338
575002.625 4178530.25 293.929992676
575002.625 4178530.25 293.950012207
575003 4178530 293.890014648
575003 4178530.25 293.869995117
575003.75 4178530.25 294.119995117
575003.75 4178530.25 294.100006104
575004.9375 4178530 294.209991455
575004.9375 4178530 294.230010986
575006.4375 4178530 294.420013428
575006.4375 4178530 294.440002441
575007.25 4178530.25 294.279998779
575007.25 4178530.25 294.25
575007.5625 4178530.5 294.609985352
575007.5625 4178530.5 294.630004883
575008.375 4178530.25 294.200012207
575008.375 4178530.25 294.170013428
575009.4375 4178530 294.25
575009.4375 4178530 294.209991455
575010.875 4178530.25 294.730010986
575010.875 4178530.25 294.690002441
575011.625 4178530.5 294.799987793
575011.625 4178530.5 294.769989014
575011.9375 4178530.25 294.720001221
575011.9375 4178530.25 294.739990234
575012.6875 4178530.25 294.600006104
575012.75 4178530.25 294.570007324
575013 4178530 294.859985352
575013 4178530 294.880004883
575014.125 4178530.5 294.880004883
575014.125 4178530.5 294.850006104
575014.875 4178530 294.829986572
575014.875 4178530 294.820007324
575015.1875 4178530.25 294.700012207
575015.1875 4178530.25 294.679992676
575018 4178530.5 295.339996338
575018 4178530.5 295.309997559
575018.3125 4178530.25 295.160003662
575018.3125 4178530.25 295.140014648
575019 4178530.5 295.299987793
575019 4178530.5 295.260009766
575019.375 4178530.25 295.359985352
575019.375 4178530.25 295.329986572
575021.0625 4178530 295.690002441
575021.0625 4178530 295.660003662
575021.375 4178530.25 295.679992676
575021.375 4178530.25 295.649993896
575022.0625 4178530 295.720001221
575022.0625 4178530 295.720001221
574996.5625 4178530.75 293.519989014
574996.5625 4178530.75 293.5
574997 4178530.75 293.619995117
574997 4178530.75 293.640014648
574997.8125 4178530.5 293.5
574997.8125 4178530.5 293.519989014
574998.1875 4178530.75 293.809997559
574998.1875 4178530.75 293.839996338
574999.375 4178530.75 293.829986572
574999.375 4178530.75 293.839996338
575000.25 4178530.75 294.160003662
575000.25 4178530.75 294.130004883
575001.4375 4178530.75 294.260009766
575001.4375 4178530.75 294.239990234
575001.8125 4178530.5 294.059997559
575001.8125 4178530.5 294.040008545
575002.625 4178530.75 294.109985352
575002.625 4178530.75 294.089996338
575003 4178530.75 294.25
575003 4178530.75 294.279998779
575003.8125 4178530.75 294.029998779
575003.8125 4178530.75 294.040008545
575004.1875 4178530.5 294.269989014
575004.1875 4178530.5 294.25
575004.9375 4178530.75 294.200012207
575004.9375 4178530.75 294.179992676
575005.3125 4178530.5 294.149993896
575005.3125 4178530.5 294.170013428
575006.125 4178530.75 294.149993896
575006.125 4178530.75 294.140014648
575006.5 4178530.75 294.290008545
575006.5 4178530.75 294.299987793
575007.25 4178530.75 294.279998779
575007.25 4178530.75 294.309997559
575008.375 4178530.75 294.350006104
575008.375 4178530.75 294.329986572
575008.6875 4178530.5 294.589996338
575008.6875 4178530.5 294.609985352
575009.4375 4178530.75 294.519989014
575009.4375 4178530.75 294.489990234
575009.8125 4178530.75 294.540008545
575009.8125 4178530.75 294.510009766
575010.5625 4178530.5 294.519989014
575010.5625 4178530.5 294.529998779
575010.875 4178530.75 294.799987793
575010.875 4178530.75 294.820007324
575013.0625 4178530.75 294.890014648
575013.0625 4178530.75 294.899993896
575013.8125 4178530.5 294.929992676
575013.8125 4178530.5 294.910003662
575014.875 4178530.75 295.149993896
575014.875 4178530.75 295.119995117
575015.25 4178530.75 295.010009766
575015.25 4178530.75 294.989990234
575015.9375 4178530.75 295.160003662
575015.9375 4178530.75 295.179992676
575016.25 4178530.5 295.170013428
575016.25 4178530.5 295.190002441
575017 4178530.5 295.059997559
575017 4178530.5 295.040008545
575017.3125 4178530.75 295.230010986
575017.3125 4178530.75 295.209991455
575018.375 4178530.75 295.220001221
575018.375 4178530.75 295.230010986
575019.375 4178530.75 295.420013428
575019.375 4178530.75 295.390014648
575020.0625 4178530.5 295.700012207
575020.0625 4178530.5 295.720001221
575020.375 4178530.5 295.540008545
575020.375 4178530.5 295.559997559
575021.0625 4178530.75 295.5
575021.0625 4178530.75 295.540008545
575022.0625 4178530.75 295.75
575022.0625 4178530.75 295.760009766
574997 4178531.25 293.660003662
574997 4178531.25 293.640014648
574997.8125 4178531.25 293.760009766
574997.8125 4178531.25 293.769989014
574999 4178531 293.829986572
574999 4178531 293.850006104
575000.625 4178531 293.899993896
575000.625 4178531 293.880004883
575001.8125 4178531 294.390014648
575001.8125 4178531 294.369995117
575004.1875 4178531 294.359985352
575004.1875 4178531 294.380004883
575005 4178531.25 294.239990234
575005.3125 4178531 294.549987793
575005.3125 4178531 294.540008545
575006.125 4178531.25 294.260009766
575006.125 4178531.25 294.239990234
575007.625 4178531 294.390014648
575007.625 4178531 294.399993896
575008.6875 4178531 294.769989014
575008.6875 4178531 294.760009766
575009.5 4178531.25 294.510009766
575009.5 4178531.25 294.529998779
575009.8125 4178531.25 294.880004883
575009.8125 4178531.25 294.850006104
575010.5625 4178531 294.630004883
575010.5625 4178531 294.660003662
575011.625 4178531 294.660003662
575011.625 4178531 294.700012207
575012 4178531 294.589996338
575012 4178531 294.609985352
575012.75 4178531 294.880004883
575012.75 4178531 294.859985352
575013.8125 4178531.25 294.890014648
575013.8125 4178531.25 294.859985352
575014.1875 4178531 294.799987793
575014.1875 4178531 294.829986572
575014.875 4178531.25 295.380004883
575014.875 4178531.25 295.359985352
575015.25 4178531.25 295.230010986
575015.25 4178531.25 295.239990234
575016.3125 4178531.25 295.089996338
575016.3125 4178531.25 295.109985352
575017 4178531.25 295.160003662
575017.0625 4178531.25 295.140014648
575017.375 4178531.25 295.369995117
575017.375 4178531.25 295.390014648
575018.0625 4178531 295.209991455
575018.0625 4178531 295.239990234
575019 4178531 295.630004883
575019 4178531 295.609985352
575020.0625 4178531.25 295.640014648
575020.0625 4178531 295.670013428
575020.4375 4178531.25 295.609985352
575020.4375 4178531.25 295.589996338
575021.375 4178531 295.679992676
575021.375 4178531 295.649993896
575022.375 4178531.25 295.809997559
575022.375 4178531.25 295.790008545
574996.5625 4178531.25 293.769989014
574996.5625 4178531.25 293.790008545
574998.1875 4178531.25 294.140014648
574998.1875 4178531.25 294.119995117
574999.0625 4178531.5 293.859985352
574999.0625 4178531.5 293.839996338
574999.4375 4178531.25 293.890014648
574999.4375 4178531.25 293.869995117
575000.25 4178531.5 294.070007324
575000.25 4178531.5 294.049987793
575000.625 4178531.5 294.049987793
575000.625 4178531.5 294.019989014
575001.4375 4178531.5 294.559997559
575001.4375 4178531.5 294.540008545
575002.625 4178531.5 294.170013428
575002.625 4178531.5 294.200012207
575003 4178531.25 293.970001221
575003 4178531.25 293.950012207
575003.8125 4178531.25 294.209991455
575003.8125 4178531.25 294.190002441
575004.1875 4178531.75 294.459991455
575004.1875 4178531.75 294.440002441
575005 4178531.25 294.239990234
575006.5 4178531.25 294.25
575006.5 4178531.25 294.239990234
575007.3125 4178531.25 294.359985352
575007.3125 4178531.25 294.339996338
575007.625 4178531.5 294.459991455
575007.625 4178531.5 294.429992676
575008.375 4178531.25 294.450012207
575008.375 4178531.25 294.459991455
575010.9375 4178531.5 294.970001221
575010.9375 4178531.5 294.989990234
575011.6875 4178531.5 294.790008545
575011.6875 4178531.5 294.769989014
575012 4178531.5 294.799987793
575012 4178531.5 294.820007324
575012.75 4178531.5 295.040008545
575012.75 4178531.5 295.019989014
575013.125 4178531.25 294.829986572
575013.125 4178531.25 294.799987793
575014.1875 4178531.5 294.959991455
575014.1875 4178531.5 294.950012207
575016 4178531.25 294.869995117
575016 4178531.25 294.890014648
575018.0625 4178531.75 295.540008545
575018.0625 4178531.75 295.519989014
575018.375 4178531.25 295.290008545
575018.375 4178531.25 295.25
575019.0625 4178531.5 295.579986572
575019.0625 4178531.5 295.549987793
575019.4375 4178531.5 295.459991455
575019.4375 4178531.5 295.489990234
575021.125 4178531.25 295.369995117
575021.125 4178531.25 295.399993896
575022.125 4178531.25 295.649993896
575022.125 4178531.25 295.670013428
574995.375 4178532 293.640014648
574995.375 4178532 293.649993896
574995.75 4178531.75 294.070007324
574995.75 4178531.75 294.059997559
574996.625 4178532 293.929992676
574996.625 4178532 293.910003662
574997 4178531.75 293.850006104
574997 4178531.75 293.829986572
574997.8125 4178531.75 293.929992676
574997.8125 4178531.75 293.899993896
574998.1875 4178532 293.899993896
574998.1875 4178532 293.920013428
574999.4375 4178531.75 294.010009766
574999.4375 4178531.75 294.040008545
575000.3125 4178532 294.059997559
575000.3125 4178532 294.070007324
575001.5 4178532 294.329986572
575001.5 4178532 294.320007324
575001.875 4178531.75 294.179992676
575001.875 4178531.75 294.200012207
575002.6875 4178532 294.309997559
575002.6875 4178532 294.279998779
575003.0625 4178531.75 294.239990234
575003.0625 4178531.75 294.260009766
575003.8125 4178532 294.489990234
575003.8125 4178532 294.470001221
575005 4178531.75 294.429992676
575005 4178531.75 294.399993896
575005.3125 4178531.75 294.760009766
575005.3125 4178531.75 294.739990234
575006.1875 4178531.75 294.470001221
575006.1875 4178531.75 294.5
575006.5 4178531.75 294.420013428
575006.5 4178531.75 294.399993896
575007.3125 4178532 294.739990234
575007.3125 4178532 294.709991455
575008.375 4178532 294.739990234
575008.375 4178532 294.75
575008.75 4178531.75 294.859985352
575008.75 4178531.75 294.890014648
575009.5 4178531.75 294.779998779
575009.5 4178531.75 294.809997559
575009.8125 4178531.75 294.890014648
575009.8125 4178531.75 294.910003662
575010.5625 4178531.75 294.829986572
575010.5625 4178531.75 294.799987793
575010.9375 4178532 295.019989014
575010.9375 4178532 294.989990234
575013.125 4178531.75 295.049987793
575013.125 4178531.75 295.070007324
575013.875 4178531.75 294.940002441
575013.875 4178531.75 294.920013428
575014.9375 4178531.75 295.109985352
575014.9375 4178531.75 295.079986572
575015.25 4178531.75 295.130004883
575015.25 4178531.75 295.149993896
575016 4178531.75 295.269989014
575016 4178531.75 295.25
575016.3125 4178531.75 295.429992676
575016.3125 4178531.75 295.410003662
575017.0625 4178531.75 295.230010986
575017.0625 4178531.75 295.200012207
575017.375 4178531.75 295.440002441
575017.375 4178531.75 295.420013428
575018.4375 4178532 295.380004883
575018.4375 4178532 295.359985352
575020.125 4178531.75 295.75
575020.4375 4178531.75 295.5
575020.4375 4178531.75 295.480010986
575022.125 4178531.75 295.720001221
575022.125 4178531.75 295.739990234
575023.125 4178532 295.859985352
574995.8125 4178532.25 294.019989014
574995.8125 4178532.25 294.049987793
574997 4178532.5 294.059997559
574997 4178532.5 294.070007324
574997.875 4178532.25 293.829986572
574997.875 4178532.25 293.799987793
574999.0625 4178532.25 294.119995117
574999.0625 4178532.25 294.130004883
575000.6875 4178532 294.160003662
575000.6875 4178532 294.190002441
575001.875 4178532.25 294.350006104
575001.875 4178532.25 294.329986572
575003.0625 4178532.5 294.179992676
575003.0625 4178532.5 294.200012207
575004.25 4178532.25 294.609985352
575004.25 4178532.25 294.589996338
575005 4178532.5 294.709991455
575005 4178532.5 294.739990234
575005.375 4178532.25 294.649993896
575005.375 4178532.25 294.679992676
575006.1875 4178532.25 294.660003662
575006.1875 4178532.25 294.640014648
575006.5 4178532.5 294.779998779
575006.5 4178532.5 294.769989014
575007.625 4178532.25 294.730010986
575007.625 4178532.25 294.739990234
575008.75 4178532.25 294.799987793
575008.75 4178532.25 294.820007324
575009.5 4178532.25 295.049987793
575009.5 4178532.25 295.070007324
575009.8125 4178532.25 295.100006104
575009.875 4178532.25 295.070007324
575010.625 4178532.25 294.950012207
575010.625 4178532.25 294.959991455
575011.6875 4178532.25 294.910003662
575011.6875 4178532.25 294.929992676
575012 4178532 295.100006104
575012 4178532 295.119995117
575012.75 4178532 295.010009766
575012.75 4178532 294.980010986
575013.125 4178532.5 295.220001221
575013.125 4178532.5 295.200012207
575013.875 4178532.25 295.070007324
575013.875 4178532.25 295.040008545
575014.1875 4178532 295.179992676
575014.1875 4178532.25 295.160003662
575014.9375 4178532.5 295.410003662
575014.9375 4178532.5 295.420013428
575015.3125 4178532.5 295.220001221
575015.3125 4178532.5 295.25
575016 4178532.5 295.350006104
575016 4178532.5 295.309997559
575016.375 4178532.25 295.220001221
575016.375 4178532.25 295.190002441
575017.0625 4178532.25 295.529998779
575017.0625 4178532.25 295.510009766
575017.4375 4178532.5 295.410003662
575017.4375 4178532.5 295.429992676
575018.4375 4178532.5 295.690002441
575019.0625 4178532 295.619995117
575019.0625 4178532 295.600006104
575020.125 4178532.25 295.600006104
575020.125 4178532.25 295.570007324
575021.1875 4178532.5 295.730010986
575021.1875 4178532.5 295.720001221
575021.4375 4178532 295.679992676
575021.4375 4178532 295.700012207
574995.375 4178532.5 293.980010986
574995.375 4178532.5 294
574996.625 4178532.5 294.040008545
574996.625 4178532.5 294.019989014
574998.25 4178532.5 294.049987793
574998.25 4178532.5 294.029998779
574999.0625 4178532.75 294.309997559
574999.0625 4178532.75 294.290008545
574999.4375 4178532.5 294.119995117
574999.4375 4178532.5 294.109985352
575000.3125 4178532.5 294.369995117
575000.3125 4178532.5 294.350006104
575000.6875 4178532.75 294.149993896
575000.6875 4178532.75 294.119995117
575001.5 4178532.75 294.160003662
575001.5 4178532.75 294.140014648
575001.875 4178532.75 294.399993896
575001.875 4178532.75 294.410003662
575002.6875 4178532.5 294.470001221
575002.6875 4178532.5 294.489990234
575003.8125 4178532.5 294.720001221
575003.8125 4178532.5 294.739990234
575004.25 4178532.75 294.660003662
575004.25 4178532.75 294.679992676
575007.3125 4178532.5 294.829986572
575007.3125 4178532.5 294.799987793
575007.6875 4178532.75 294.899993896
575007.6875 4178532.75 294.929992676
575008.4375 4178532.5 294.899993896
575008.4375 4178532.5 294.920013428
575010.625 4178532.75 295.109985352
575011 4178532.5 295
575011 4178532.5 295.019989014
575011.75 4178532.75 294.980010986
575011.75 4178532.75 294.989990234
575012.0625 4178532.75 295.130004883
575012.0625 4178532.75 295.089996338
575012.8125 4178532.75 295.230010986
575012.8125 4178532.75 295.220001221
575014.25 4178532.75 295.359985352
575014.25 4178532.75 295.329986572
575018.125 4178532.75 295.540008545
575018.125 4178532.75 295.510009766
575018.4375 4178532.5 295.649993896
575019.125 4178532.75 295.600006104
575019.125 4178532.75 295.579986572
575019.4375 4178532.5 295.709991455
575019.4375 4178532.5 295.679992676
574995.375 4178533 294.359985352
574995.375 4178533 294.350006104
574995.8125 4178533 294.230010986
574995.8125 4178533 294.220001221
574996.625 4178533 294.070007324
574996.6875 4178533 294.029998779
574997.0625 4178533 293.970001221
574997.0625 4178533 293.950012207
574997.875 4178533 294.260009766
574997.875 4178532.75 294.290008545
574998.25 4178533 294.339996338
574998.25 4178533 294.320007324
574999.5 4178533 294.119995117
574999.5 4178533 294.119995117
575000.3125 4178533.25 294.420013428
575000.3125 4178533.25 294.390014648
575000.6875 4178533.25 294.380004883
575000.6875 4178533.25 294.399993896
575001.5 4178533.25 294.600006104
575001.5 4178533.25 294.630004883
575002.75 4178533.25 294.429992676
575002.75 4178533.25 294.450012207
575003.0625 4178533 294.320007324
575003.0625 4178533 294.309997559
575005 4178533 294.899993896
575005 4178533 294.910003662
575005.4375 4178533 294.440002441
575005.4375 4178533 294.429992676
575006.1875 4178533 294.899993896
575006.1875 4178533 294.920013428
575006.5625 4178533 294.619995117
575006.5625 4178533 294.640014648
575007.375 4178533 294.799987793
575007.375 4178533 294.760009766
575008.4375 4178533 294.989990234
575008.4375 4178533 294.970001221
575008.8125 4178532.75 294.75
575008.8125 4178532.75 294.779998779
575009.5 4178533 295.179992676
575009.5 4178533 295.170013428
575009.875 4178533 295.130004883
575009.875 4178533 295.149993896
575010.625 4178532.75 295.089996338
575011 4178533.25 295.279998779
575011 4178533 295.299987793
575012.0625 4178533.25 295.440002441
575012.0625 4178533.25 295.459991455
575013.125 4178533 295.420013428
575013.125 4178533 295.399993896
575013.875 4178533 295.25
575013.9375 4178533 295.230010986
575015 4178533 295.290008545
575015 4178533 295.269989014
575015.3125 4178533 295.299987793
575015.3125 4178533 295.279998779
575016.0625 4178533 295.299987793
575016.0625 4178533 295.269989014
575016.375 4178533 295.380004883
575016.375 4178533 295.359985352
575017.4375 4178533 295.329986572
575017.4375 4178533 295.309997559
575019.5 4178533.25 295.679992676
575019.5 4178533.25 295.700012207
575020.1875 4178533 295.609985352
575020.1875 4178533 295.579986572
575022.5 4178533 295.829986572
574995.8125 4178533.5 294.230010986
574995.8125 4178533.5 294.200012207
574996.6875 4178533.5 294.190002441
574996.6875 4178533.5 294.160003662
574997.0625 4178533.5 294.230010986
574997.0625 4178533.5 294.209991455
574997.875 4178533.5 294.279998779
574997.875 4178533.5 294.299987793
574998.25 4178533.5 294.380004883
574998.25 4178533.5 294.410003662
574999.125 4178533.25 294.359985352
574999.125 4178533.25 294.339996338
574999.5 4178533.75 294.190002441
574999.5 4178533.5 294.220001221
575001.9375 4178533.5 294.410003662
575001.9375 4178533.5 294.390014648
575003.125 4178533.5 294.579986572
575003.125 4178533.5 294.549987793
575004.25 4178533.5 294.660003662
575004.25 4178533.5 294.640014648
575005.0625 4178533.5 294.890014648
575005.0625 4178533.5 294.869995117
575005.4375 4178533.5 294.769989014
575005.4375 4178533.5 294.739990234
575006.25 4178533.5 294.980010986
575006.25 4178533.5 295
575006.5625 4178533.5 294.739990234
575006.5625 4178533.5 294.720001221
575007.75 4178533.25 294.679992676
575007.75 4178533.25 294.700012207
575008.8125 4178533.5 295.040008545
575008.8125 4178533.5 295.019989014
575009.5625 4178533.5 294.950012207
575009.5625 4178533.5 294.929992676
575009.875 4178533.5 295.170013428
575009.875 4178533.5 295.140014648
575010.6875 4178533.5 295.029998779
575010.6875 4178533.5 295
575011.75 4178533.25 295.059997559
575011.75 4178533.25 295.040008545
575012.8125 4178533.25 295.119995117
575012.8125 4178533.25 295.109985352
575013.1875 4178533.5 295.279998779
575013.1875 4178533.5 295.269989014
575013.9375 4178533.5 295.450012207
575013.9375 4178533.5 295.459991455
575014.25 4178533.25 295.470001221
575014.25 4178533.25 295.450012207
575015 4178533.5 295.410003662
575015 4178533.5 295.380004883
575015.375 4178533.5 295.190002441
575015.375 4178533.5 295.209991455
575016.0625 4178533.5 295.320007324
575016.0625 4178533.5 295.339996338
575016.4375 4178533.5 295.059997559
575016.4375 4178533.5 295.079986572
575017.125 4178533.5 295.420013428
575017.125 4178533.5 295.399993896
575017.4375 4178533.5 295.619995117
575017.4375 4178533.5 295.600006104
575018.1875 4178533.5 295.510009766
575018.1875 4178533.5 295.5
575021.5 4178533.25 295.779998779
575021.5 4178533.25 295.769989014
574994.625 4178534 294.089996338
574994.625 4178534 294.119995117
574995.4375 4178533.75 294.209991455
574995.4375 4178533.75 294.200012207
574999.125 4178534 294.369995117
574999.125 4178534 294.350006104
575000.375 4178533.75 294.440002441
575000.375 4178533.75 294.410003662
575000.75 4178533.75 294.600006104
575000.75 4178533.75 294.570007324
575001.5625 4178533.75 294.570007324
575001.5625 4178533.75 294.600006104
575001.9375 4178534 294.619995117
575001.9375 4178534 294.649993896
575002.75 4178533.75 294.570007324
575002.75 4178533.75 294.540008545
575004.3125 4178534 294.640014648
575004.3125 4178534 294.609985352
575005.4375 4178534 294.989990234
575005.4375 4178534 294.970001221
575007.375 4178533.75 294.829986572
575007.375 4178533.75 294.820007324
575007.75 4178534 294.820007324
575007.75 4178534 294.829986572
575008.5 4178533.75 294.709991455
575008.5 4178533.75 294.730010986
575008.875 4178534 295
575008.875 4178534 295.029998779
575010.6875 4178534 295.109985352
575010.6875 4178534 295.100006104
575011 4178533.75 294.940002441
575011 4178533.75 294.950012207
575011.75 4178534 295.179992676
575011.75 4178534 295.209991455
575012.0625 4178533.75 295.269989014
575012.125 4178533.75 295.260009766
575012.8125 4178533.75 295.450012207
575012.8125 4178533.75 295.440002441
575014.25 4178533.75 295.489990234
575014.25 4178533.75 295.470001221
575019.5 4178533.75 295.649993896
575019.5 4178533.75 295.630004883
574994.25 4178534.25 294.260009766
574994.25 4178534.25 294.230010986
574995.4375 4178534.25 294.410003662
574995.4375 4178534.25 294.399993896
574995.875 4178534.25 294.100006104
574995.875 4178534.25 294.109985352
574996.6875 4178534.25 294.260009766
574996.6875 4178534.25 294.279998779
574997.0625 4178534 294.350006104
574997.0625 4178534 294.380004883
574997.9375 4178534 294.230010986
574997.9375 4178534 294.209991455
574998.3125 4178534.25 294.429992676
574998.3125 4178534.25 294.420013428
574999.5625 4178534.25 294.239990234
574999.5625 4178534.25 294.25
575000.375 4178534.25 294.5
575000.375 4178534.25 294.480010986
575000.75 4178534.5 294.470001221
575000.75 4178534.5 294.450012207
575001.5625 4178534.25 294.549987793
575001.5625 4178534.25 294.529998779
575002.75 4178534.25 294.809997559
575002.75 4178534.25 294.779998779
575003.125 4178534 294.929992676
575003.125 4178534 294.920013428
575003.875 4178534.25 294.989990234
575003.875 4178534.25 295.010009766
575005.0625 4178534.25 294.940002441
575005.0625 4178534.25 294.920013428
575006.25 4178534 295.100006104
575006.25 4178534 295.070007324
575006.625 4178534.25 294.820007324
575006.625 4178534.25 294.850006104
575007.375 4178534.25 294.959991455
575007.375 4178534.25 294.950012207
575008.5 4178534.25 295.089996338
575008.5 4178534.25 295.109985352
575009.625 4178534 295
575009.625 4178534 294.970001221
575009.9375 4178534 294.980010986
575009.9375 4178534 294.959991455
575011.0625 4178534.25 295.279998779
575011.0625 4178534.25 295.25
575012.125 4178534.5 295.440002441
575012.125 4178534.5 295.459991455
575013.9375 4178534 295.429992676
575013.9375 4178534 295.410003662
575015.375 4178534.25 295.470001221
575015.375 4178534.25 295.450012207
575016.125 4178534.25 295.440002441
575016.125 4178534.25 295.480010986
575016.4375 4178534 295.429992676
575016.4375 4178534 295.410003662
575017.1875 4178534 295.480010986
575017.1875 4178534 295.5
575017.5 4178534.25 295.649993896
575017.5 4178534.25 295.649993896
575020.25 4178534 295.760009766
574994.625 4178534.5 294.339996338
574994.625 4178534.5 294.359985352
574995.875 4178534.75 294.540008545
574995.875 4178534.75 294.529998779
574996.75 4178534.75 294.209991455
574996.75 4178534.75 294.190002441
574997.125 4178534.75 294.470001221
574997.125 4178534.75 294.440002441
574997.9375 4178534.75 294.290008545
574997.9375 4178534.75 294.320007324
574998.3125 4178534.75 294.380004883
574998.3125 4178534.75 294.399993896
574999.125 4178534.5 294.489990234
574999.125 4178534.5 294.470001221
574999.5625 4178534.75 294.700012207
574999.5625 4178534.75 294.679992676
575002 4178534.5 294.559997559
575002 4178534.5 294.589996338
575003.125 4178534.75 294.709991455
575003.125 4178534.75 294.739990234
575003.9375 4178534.75 295.109985352
575003.9375 4178534.75 295.079986572
575004.3125 4178534.5 294.730010986
575004.3125 4178534.5 294.760009766
575005.125 4178534.75 294.899993896
575005.125 4178534.75 294.869995117
575005.5 4178534.75 294.820007324
575005.5 4178534.75 294.790008545
575006.25 4178534.75 295.070007324
575006.25 4178534.75 295.079986572
575006.625 4178534.75 295.010009766
575006.625 4178534.75 295.029998779
575007.4375 4178534.75 295.100006104
575007.4375 4178534.75 295.079986572
575007.75 4178534.5 294.910003662
575007.75 4178534.5 294.940002441
575008.875 4178534.5 295.019989014
575008.875 4178534.5 294.989990234
575009.625 4178534.75 295.119995117
575009.625 4178534.75 295.100006104
575009.9375 4178534.75 295.109985352
575010 4178534.75 295.070007324
575010.6875 4178534.5 295.160003662
575010.75 4178534.5 295.140014648
575011.8125 4178534.5 295.200012207
575011.8125 4178534.5 295.239990234
575014 4178534.75 295.299987793
575014 4178534.75 295.329986572
575014.3125 4178534.5 295.339996338
575014.3125 4178534.5 295.320007324
575015.0625 4178534.75 295.529998779
575015.0625 4178534.75 295.549987793
575016.125 4178534.75 295.480010986
575016.125 4178534.75 295.450012207
575017.1875 4178534.75 295.399993896
575017.1875 4178534.75 295.420013428
575017.5 4178534.75 295.649993896
575017.5 4178534.75 295.609985352
575018.5625 4178534.75 295.679992676
574994.25 4178534.75 294.290008545
574994.25 4178534.75 294.269989014
574994.6875 4178535 294.309997559
574994.6875 4178535 294.329986572
574995.5 4178535 294.429992676
574995.5 4178535 294.399993896
574999.1875 4178535 294.529998779
574999.1875 4178535 294.549987793
575000.375 4178535 294.609985352
575000.375 4178535 294.579986572
575000.8125 4178535 294.589996338
575000.8125 4178535 294.570007324
575001.5625 4178535 294.839996338
575001.625 4178535 294.799987793
575002 4178535 294.779998779
575002 4178535 294.820007324
575002.8125 4178535 294.769989014
575002.8125 4178535 294.799987793
575004.375 4178535 294.859985352
575004.375 4178535 294.880004883
575005.5 4178535.25 294.929992676
575005.5 4178535.25 294.959991455
575007.8125 4178535 294.910003662
575007.8125 4178535 294.910003662
575008.5625 4178534.75 294.850006104
575008.5625 4178534.75 294.869995117
575008.875 4178535.25 295.200012207
575008.875 4178535.25 295.230010986
575010.75 4178535.25 295.25
575010.75 4178535.25 295.230010986
575011.8125 4178535 295.390014648
575011.8125 4178535 295.369995117
575012.1875 4178535 295.239990234
575012.1875 4178535 295.260009766
574994.3125 4178535.5 294.239990234
574994.3125 4178535.5 294.260009766
574994.6875 4178535.5 294.489990234
574994.6875 4178535.5 294.459991455
574995.5 4178535.5 294.5
574995.5 4178535.5 294.510009766
574995.9375 4178535.25 294.339996338
574995.9375 4178535.25 294.359985352
574996.75 4178535.25 294.399993896
574996.75 4178535.25 294.380004883
574997.125 4178535.25 294.679992676
574997.125 4178535.25 294.709991455
574997.9375 4178535.25 294.589996338
574997.9375 4178535.25 294.589996338
574998.3125 4178535.25 294.630004883
574998.3125 4178535.25 294.600006104
574999.5625 4178535.25 294.690002441
574999.5625 4178535.25 294.660003662
575000.4375 4178535.5 294.859985352
575000.4375 4178535.5 294.890014648
575000.8125 4178535.5 294.670013428
575000.8125 4178535.5 294.700012207
575001.625 4178535.5 294.640014648
575001.625 4178535.5 294.609985352
575002.8125 4178535.5 294.779998779
575002.8125 4178535.5 294.799987793
575003.1875 4178535.25 294.700012207
575003.1875 4178535.25 294.679992676
575004 4178535.5 294.760009766
575004 4178535.5 294.739990234
575005.125 4178535.25 294.940002441
575005.125 4178535.25 294.920013428
575006.3125 4178535.25 295.029998779
575006.3125 4178535.25 295
575007.4375 4178535.5 295.049987793
575007.4375 4178535.5 295.029998779
575010 4178535.25 295.059997559
575010 4178535.25 295.089996338
575012.1875 4178535.5 295.290008545
575012.1875 4178535.5 295.320007324
575012.9375 4178535.5 295.489990234
575016.1875 4178535.25 295.510009766
575016.1875 4178535.25 295.480010986
574993.125 4178535.75 294.339996338
574993.125 4178535.75 294.320007324
574993.4375 4178535.75 294.549987793
574993.4375 4178535.75 294.519989014
574995.9375 4178535.75 294.489990234
574995.9375 4178535.75 294.470001221
574996.75 4178536 294.380004883
574996.75 4178536 294.399993896
574997.125 4178535.75 294.709991455
574997.125 4178535.75 294.75
574998 4178535.75 294.720001221
574998 4178535.75 294.75
574998.375 4178536 294.489990234
574998.375 4178536 294.470001221
574999.1875 4178535.75 294.700012207
574999.1875 4178535.75 294.720001221
574999.625 4178536 294.670013428
574999.625 4178536 294.649993896
575002 4178535.75 295.019989014
575002 4178535.75 294.980010986
575003.1875 4178535.75 294.989990234
575003.1875 4178535.75 295.010009766
575004 4178536 294.899993896
575004 4178536 294.880004883
575004.375 4178535.75 295.119995117
575004.375 4178535.75 295.089996338
575005.1875 4178536 295.130004883
575005.1875 4178536 295.149993896
575005.5625 4178535.75 294.790008545
575005.5625 4178535.75 294.769989014
575006.375 4178536 294.950012207
575006.375 4178536 294.970001221
575006.6875 4178536 295.200012207
575006.6875 4178536 295.170013428
575007.8125 4178535.75 295.119995117
575007.8125 4178535.75 295.089996338
575008.5625 4178536 295.25
575008.5625 4178536 295.220001221
575008.9375 4178535.75 295.309997559
575008.9375 4178535.75 295.290008545
575009.6875 4178536 295.220001221
575009.6875 4178536 295.200012207
575010 4178535.75 295.109985352
575010 4178535.75 295.079986572
575010.75 4178535.75 295.369995117
575010.75 4178535.75 295.390014648
575016.1875 4178536 295.589996338
575016.1875 4178536 295.570007324
574994.3125 4178536 294.320007324
574994.3125 4178536 294.290008545
574994.6875 4178536.25 294.609985352
574994.6875 4178536.25 294.589996338
574995.5 4178536 294.630004883
574995.5 4178536 294.600006104
574997.1875 4178536.5 294.920013428
574997.1875 4178536.5 294.899993896
574998 4178536.5 294.809997559
574998 4178536.5 294.829986572
575000.4375 4178536 294.980010986
575000.4375 4178536 294.950012207
575000.8125 4178536 294.809997559
575000.8125 4178536 294.799987793
575001.625 4178536 295.049987793
575001.625 4178536 295.070007324
575002.0625 4178536.25 294.829986572
575002.0625 4178536.25 294.850006104
575002.8125 4178536 294.989990234
575002.8125 4178536 294.980010986
575004.375 4178536.25 295.109985352
575004.375 4178536.25 295.079986572
575005.5625 4178536.25 295.049987793
575005.5625 4178536.25 295.019989014
575007.5 4178536 295.029998779
575007.5 4178536 295.019989014
575007.8125 4178536.25 295.190002441
575007.8125 4178536.25 295.179992676
575008.9375 4178536.25 295.350006104
575011.125 4178536 295.239990234
575011.125 4178536 295.260009766
575012.1875 4178536.25 295.329986572
575012.1875 4178536.25 295.359985352
575013 4178536.25 295.420013428
575013 4178536.25 295.380004883
574993.125 4178536.5 294.390014648
574993.125 4178536.5 294.359985352
574993.5 4178536.5 294.489990234
574993.5 4178536.5 294.519989014
574994.375 4178536.75 294.320007324
574994.375 4178536.75 294.329986572
574994.75 4178536.75 294.429992676
574994.75 4178536.75 294.410003662
574995.9375 4178536.5 294.670013428
574995.9375 4178536.5 294.640014648
574996.75 4178536.5 294.739990234
574996.8125 4178536.5 294.730010986
574998.375 4178536.5 294.809997559
574998.375 4178536.5 294.829986572
574999.625 4178536.5 294.730010986
574999.625 4178536.5 294.760009766
575000.4375 4178536.75 294.970001221
575000.5 4178536.75 294.950012207
575000.8125 4178536.75 295.019989014
575000.8125 4178536.75 295.040008545
575001.6875 4178536.75 294.790008545
575001.6875 4178536.75 294.820007324
575002.875 4178536.75 294.769989014
575002.875 4178536.75 294.760009766
575003.25 4178536.5 294.779998779
575003.25 4178536.5 294.760009766
575004 4178536.5 295.149993896
575004 4178536.5 295.119995117
