# .PCD v.7 - Point Cloud Data file format
VERSION .7
FIELDS x y z
SIZE 4 4 4
TYPE F F F
COUNT 1 1 1
WIDTH 1383
HEIGHT 1
VIEWPOINT 0 0 0 1 0 0 0
POINTS 1383
DATA ascii
575079.6875 4178465.25 301.549987793
575079.6875 4178465.25 301.540008545
575080.1875 4178465.5 301.559997559
575079 4178465.5 301.5
575079 4178465.5 301.519989014
575077.4375 4178466.25 301.450012207
575077.9375 4178466.25 301.510009766
575069.0625 4178466.5 301.149993896
575069.0625 4178466.5 301.170013428
575072.0625 4178466.75 301.260009766
575076.8125 4178466.75 301.459991455
575076.8125 4178466.75 301.440002441
575078 4178466.75 301.470001221
575066.5 4178466.75 301.049987793
575071.5625 4178467.25 301.239990234
575077.5 4178467 301.450012207
575077.5 4178467 301.459991455
575066.5625 4178467.5 301.049987793
575072.8125 4178467.5 301.429992676
575076.375 4178467.5 301.5
575076.375 4178467.5 301.489990234
575068.4375 4178468 301.339996338
575068.4375 4178468 301.369995117
575070.9375 4178468 301.209991455
575073.375 4178467.75 301.329986572
575073.375 4178467.75 301.309997559
575075.75 4178468 301.450012207
575075.75 4178468 301.429992676
575067.1875 4178468 301.109985352
575067.1875 4178468 301.140014648
575069.1875 4178468 301.190002441
575069.1875 4178468.25 301.160003662
575072.875 4178468 301.359985352
575072.875 4178468 301.380004883
575073.375 4178468.25 301.309997559
575073.375 4178468.25 301.329986572
575070.4375 4178468.5 301.279998779
575070.4375 4178468.5 301.25
575070.9375 4178468.5 301.369995117
575070.9375 4178468.5 301.339996338
575064.0625 4178469 301.059997559
575064.0625 4178469 301.019989014
575065.375 4178469 301.160003662
575065.375 4178469 301.130004883
575070.5 4178469 301.239990234
575070.5 4178469 301.220001221
575071.6875 4178469 301.380004883
575071.6875 4178469 301.359985352
575074.125 4178468.75 301.369995117
575074.125 4178468.75 301.350006104
575075.875 4178469 301.450012207
575075.875 4178469 301.429992676
575064.125 4178469.5 300.970001221
575064.6875 4178469.5 301
575067.25 4178469.25 301.079986572
575067.25 4178469.25 301.100006104
575068 4178469.5 301.190002441
575068 4178469.5 301.160003662
575069.25 4178469.25 301.269989014
575069.25 4178469.25 301.290008545
575069.75 4178469.5 301.269989014
575069.75 4178469.5 301.239990234
575071.75 4178469.5 301.399993896
575072.9375 4178469.25 301.359985352
575072.9375 4178469.25 301.369995117
575074.6875 4178469.5 301.410003662
575074.6875 4178469.5 301.440002441
575076.5625 4178469.25 301.470001221
575076.5625 4178469.25 301.459991455
575065.4375 4178469.75 301.140014648
575065.4375 4178469.75 301.149993896
575066 4178469.75 301.040008545
575067.3125 4178469.75 301.149993896
575067.3125 4178469.75 301.170013428
575068.5625 4178469.75 301.369995117
575068.5625 4178469.75 301.339996338
575071.0625 4178469.75 301.309997559
575071.0625 4178469.75 301.279998779
575072.25 4178469.5 301.369995117
575072.25 4178469.5 301.359985352
575073 4178469.75 301.410003662
575073 4178469.75 301.440002441
575064.1875 4178470 300.970001221
575064.6875 4178470 301.059997559
575064.6875 4178470 301.040008545
575065.5 4178470.25 301.149993896
575065.5 4178470.25 301.119995117
575066 4178470.25 301.100006104
575066 4178470.25 301.130004883
575068.0625 4178470 301.119995117
575068.0625 4178470 301.140014648
575068.5625 4178470.25 301.359985352
575068.5625 4178470.25 301.329986572
575069.8125 4178470 301.380004883
575069.8125 4178470.25 301.350006104
575070.5625 4178470 301.339996338
575070.5625 4178470 301.339996338
575071.8125 4178470 301.290008545
575071.8125 4178470 301.269989014
575072.3125 4178470.25 301.339996338
575072.3125 4178470.25 301.369995117
575074.75 4178470 301.459991455
575063.5 4178470.75 300.970001221
575063.5 4178470.75 300.950012207
575064.1875 4178470.75 301.059997559
575064.25 4178470.75 301.040008545
575064.75 4178470.5 301.149993896
575064.75 4178470.5 301.170013428
575067.3125 4178470.5 301.140014648
575067.3125 4178470.5 301.119995117
575068.0625 4178470.75 301.179992676
575068.0625 4178470.75 301.200012207
575069.3125 4178470.5 301.279998779
575069.3125 4178470.5 301.260009766
575070.5625 4178470.75 301.290008545
575070.625 4178470.75 301.260009766
575073.0625 4178470.5 301.420013428
575073.0625 4178470.5 301.429992676
575065.5 4178470.75 301.089996338
575065.5 4178470.75 301.119995117
575066.0625 4178471 301.140014648
575066.0625 4178470.75 301.149993896
575066.8125 4178471 301.089996338
575066.8125 4178471 301.119995117
575067.375 4178471 301.25
575067.375 4178471 301.269989014
575069.375 4178471 301.209991455
575069.375 4178471 301.190002441
575071.125 4178470.75 301.410003662
575071.125 4178470.75 301.390014648
575064.25 4178471.25 300.980010986
575065.5625 4178471.5 301.079986572
575065.5625 4178471.5 301.089996338
575066.875 4178471.5 301.170013428
575066.875 4178471.5 301.140014648
575068.125 4178471.25 301.359985352
575071.1875 4178471.25 301.290008545
575071.1875 4178471.25 301.309997559
575063.5625 4178472 300.970001221
575063.5625 4178472 300.950012207
575067.4375 4178471.5 301.269989014
575067.4375 4178471.5 301.290008545
575069.4375 4178471.5 301.359985352
575063.0625 4178472 300.970001221
575063.0625 4178472 300.989990234
575067.4375 4178472.25 301.279998779
575067.4375 4178472.25 301.269989014
575068.75 4178472 301.339996338
575069.5 4178472.25 301.350006104
575069.5 4178472.25 301.320007324
575065.6875 4178472.5 301.070007324
575066.1875 4178472.5 301.109985352
575066.1875 4178472.5 301.119995117
575060.5625 4178473 300.910003662
575060.5625 4178473 300.899993896
575061.8125 4178472.75 300.910003662
575061.8125 4178472.75 300.929992676
575062.3125 4178473 300.959991455
575062.3125 4178473 300.920013428
575063.625 4178473 301.269989014
575067.5 4178472.75 301.260009766
575067.5 4178472.75 301.230010986
575061.0625 4178473.5 300.880004883
575064.9375 4178473.5 301.170013428
575064.9375 4178473.5 301.160003662
575066.25 4178473.25 301.290008545
575067 4178473.25 301.309997559
575067.5625 4178473.25 301.260009766
575067.5625 4178473.25 301.239990234
575056.125 4178473.75 300.739990234
575056.125 4178473.75 300.720001221
575062.375 4178473.5 301.019989014
575062.375 4178473.5 301.040008545
575065.75 4178473.75 301.040008545
575065.75 4178473.75 301.070007324
575066.25 4178473.75 301.320007324
575066.25 4178473.75 301.290008545
575067.0625 4178473.75 301.190002441
575067.0625 4178473.75 301.179992676
575071.3125 4178473.75 301.369995117
575071.3125 4178473.75 301.369995117
575061.125 4178474 301.079986572
575061.125 4178474 301.059997559
575063.75 4178474.25 301.019989014
575063.75 4178474.25 301.049987793
575065 4178474 301.179992676
575065 4178474 301.220001221
575067.5625 4178474 301.329986572
575056.1875 4178474.25 300.690002441
575061.125 4178474.5 301.049987793
575061.125 4178474.5 301.029998779
575061.9375 4178474.5 300.910003662
575065.75 4178474.25 301.179992676
575065.75 4178474.25 301.160003662
575069.625 4178474.5 301.260009766
575069.625 4178474.5 301.290008545
575063.25 4178475 300.950012207
575063.75 4178474.75 301.149993896
575063.75 4178474.75 301.179992676
575067.125 4178475 301.309997559
575067.125 4178475 301.279998779
575057.4375 4178475.5 300.839996338
575057.4375 4178475.5 300.820007324
575059.9375 4178475.25 301.049987793
575059.9375 4178475.25 301.029998779
575061.1875 4178475.25 301.079986572
575061.1875 4178475.25 301.109985352
575062 4178475.25 300.940002441
575062.5 4178475.25 301.059997559
575062.5 4178475.25 301.089996338
575063.8125 4178475.5 301.170013428
575063.8125 4178475.5 301.190002441
575065.0625 4178475.25 301.049987793
575065.0625 4178475.25 301.070007324
575059.4375 4178475.75 301.040008545
575059.4375 4178475.75 301.079986572
575062 4178475.75 301.119995117
575062 4178475.75 301.100006104
575064.5625 4178475.75 301.130004883
575064.625 4178475.75 301.109985352
575065.125 4178475.75 301.230010986
575065.125 4178475.75 301.209991455
575066.4375 4178475.5 301.179992676
575066.4375 4178475.5 301.200012207
575057.5 4178476 300.899993896
575057.5 4178476 300.920013428
575060.75 4178476 301.019989014
575060.75 4178476 301.049987793
575062.5625 4178476 301.190002441
575062.5625 4178476 301.160003662
575063.3125 4178476.25 300.959991455
575063.875 4178476 300.980010986
575066.4375 4178476.25 301.260009766
575066.4375 4178476.25 301.25
575057 4178476.5 300.769989014
575057 4178476.5 300.730010986
575057.5 4178476.75 300.869995117
575057.5 4178476.75 300.899993896
575059.5 4178476.5 301.079986572
575059.5 4178476.5 301.049987793
575060.8125 4178476.5 301.119995117
575060.8125 4178476.5 301.140014648
575061.25 4178476.5 301.179992676
575061.25 4178476.5 301.179992676
575062.0625 4178476.25 301
575062.0625 4178476.25 301.019989014
575062.5625 4178476.5 301.100006104
575062.5625 4178476.5 301.070007324
575063.875 4178476.5 301.100006104
575063.875 4178476.5 301.119995117
575064.625 4178476.5 301.230010986
575064.625 4178476.5 301.209991455
575065.1875 4178476.5 301.179992676
575065.1875 4178476.5 301.149993896
575065.9375 4178476.75 301.279998779
575065.9375 4178476.75 301.309997559
575053.9375 4178477 300.690002441
575053.9375 4178477 300.720001221
575058.25 4178476.75 300.839996338
575058.25 4178476.75 300.799987793
575061.3125 4178477 301.160003662
575061.3125 4178477 301.140014648
575062.125 4178477 300.989990234
575062.125 4178477 300.980010986
575064.6875 4178477 301.170013428
575064.6875 4178477 301.149993896
575055.1875 4178477.25 300.690002441
575058.3125 4178477.25 300.890014648
575058.3125 4178477.25 300.910003662
575060.8125 4178477.25 301.190002441
575062.625 4178477 301.140014648
575062.625 4178477 301.119995117
575063.4375 4178477.25 301.130004883
575063.4375 4178477.25 301.149993896
575054 4178477.5 300.869995117
575054 4178477.5 300.850006104
575055.1875 4178477.75 300.920013428
575055.1875 4178477.75 300.899993896
575057.0625 4178477.5 300.890014648
575057.125 4178477.5 300.869995117
575057.625 4178477.75 301.079986572
575057.625 4178477.75 301.100006104
575058.875 4178477.75 300.820007324
575059.5625 4178477.5 301
575059.5625 4178477.5 300.980010986
575060.875 4178477.75 301.109985352
575060.875 4178477.75 301.130004883
575061.375 4178477.5 301.089996338
575061.375 4178477.5 301.109985352
575062.125 4178477.5 301.140014648
575062.125 4178477.5 301.160003662
575062.6875 4178477.75 301.200012207
575062.6875 4178477.75 301.220001221
575054 4178478.25 300.890014648
575054 4178478.25 300.910003662
575054.75 4178478 300.700012207
575054.75 4178478 300.730010986
575058.375 4178478 300.829986572
575058.375 4178478 300.809997559
575058.875 4178478.25 300.989990234
575059.625 4178478.25 300.850006104
575059.625 4178478.25 300.829986572
575062.6875 4178478.25 301.059997559
575062.6875 4178478.25 301.079986572
575063.5 4178478 301.029998779
575063.5 4178478 301.059997559
575065.3125 4178478.25 301.200012207
575065.3125 4178478.25 301.230010986
575056.4375 4178478.5 300.760009766
575056.4375 4178478.5 300.730010986
575057.6875 4178478.5 300.839996338
575057.6875 4178478.5 300.859985352
575058.875 4178478.25 300.970001221
575060.9375 4178478.25 300.959991455
575060.9375 4178478.25 300.929992676
575062.25 4178478.75 301.119995117
575062.25 4178478.75 301.140014648
575063.5 4178478.5 301.119995117
575063.5 4178478.5 301.149993896
575064 4178478.25 301.230010986
575064 4178478.25 301.190002441
575054.0625 4178478.75 300.739990234
575054.0625 4178478.75 300.769989014
575054.75 4178478.75 300.75
575054.75 4178478.75 300.720001221
575056.5 4178479 300.920013428
575056.5 4178479 300.929992676
575059.6875 4178478.75 300.910003662
575059.6875 4178478.75 300.920013428
575060.9375 4178479 301.140014648
575060.9375 4178479 301.119995117
575062.75 4178478.75 301.070007324
575062.75 4178478.75 301.089996338
575064.0625 4178478.75 301.200012207
575064.0625 4178478.75 301.190002441
575054.125 4178479.5 300.820007324
575054.125 4178479.5 300.850006104
575054.8125 4178479.25 300.739990234
575054.8125 4178479.25 300.760009766
575057.25 4178479.25 300.760009766
575057.25 4178479.25 300.779998779
575058.4375 4178479 300.970001221
575058.4375 4178479 300.980010986
575059.6875 4178479.25 301.190002441
575060.25 4178479.25 300.899993896
575060.25 4178479.25 300.880004883
575061.5 4178479.25 301.160003662
575061.5 4178479.25 301.179992676
575062.25 4178479.25 301.070007324
575062.25 4178479.25 301.049987793
575062.8125 4178479.5 301.059997559
575062.8125 4178479.5 301.079986572
575063.5625 4178479 301.25
575063.5625 4178479 301.260009766
575064.875 4178479.5 301.160003662
575064.875 4178479.5 301.170013428
575055.3125 4178479.5 300.720001221
575055.3125 4178479.5 300.690002441
575056.5 4178479.5 300.850006104
575056.5 4178479.5 300.829986572
575057.75 4178479.5 300.790008545
575058.5 4178479.75 300.850006104
575058.5 4178479.75 300.829986572
575061 4178479.5 300.970001221
575061 4178479.5 301
575062.3125 4178479.75 301.019989014
575062.3125 4178479.75 301.040008545
575064.0625 4178479.5 301.190002441
575064.125 4178479.5 301.170013428
575057.25 4178480 300.839996338
575057.25 4178480 300.829986572
575057.75 4178480 301.010009766
575057.75 4178480 300.989990234
575059 4178480 300.890014648
575059 4178480 300.910003662
575059.75 4178480 300.839996338
575061.0625 4178480 300.940002441
575061.0625 4178480 300.910003662
575062.8125 4178480 301.109985352
575062.8125 4178480 301.079986572
575064.125 4178480 301.230010986
575064.125 4178480 301.200012207
575066.25 4178480.25 301.260009766
575066.25 4178480.25 301.279998779
575058.5 4178480.25 301.019989014
575058.5 4178480.25 301
575059.0625 4178480.5 300.890014648
575059.0625 4178480.5 300.910003662
575062.375 4178480.5 301.079986572
575062.375 4178480.5 301.089996338
575062.875 4178480.5 301.179992676
575062.875 4178480.5 301.200012207
575063.625 4178480.25 301.149993896
575063.625 4178480.25 301.149993896
575057.8125 4178480.75 300.809997559
575057.8125 4178480.75 300.829986572
575060.3125 4178481 300.989990234
575060.3125 4178481 300.970001221
575061.0625 4178480.75 301.029998779
575061.0625 4178480.75 301.049987793
575062.375 4178481 301.239990234
575063.6875 4178480.75 301.260009766
575064.1875 4178480.75 301.269989014
575056.1875 4178481.25 300.769989014
575056.1875 4178481.25 300.799987793
575058.625 4178481.5 300.940002441
575058.625 4178481.5 300.910003662
575059.125 4178481.25 300.929992676
575059.125 4178481.25 300.910003662
575061.125 4178481.25 300.950012207
575061.125 4178481.25 300.929992676
575062.9375 4178481.25 301.209991455
575062.9375 4178481.25 301.190002441
575059.875 4178481.75 300.880004883
575059.875 4178481.75 300.899993896
575060.375 4178481.5 301.100006104
575060.375 4178481.5 301.070007324
575062.9375 4178481.75 301.089996338
575063 4178481.75 301.070007324
575055.5 4178481.75 300.829986572
575055.5 4178481.75 300.809997559
575057.9375 4178482 300.779998779
575058.625 4178482 300.989990234
575058.625 4178482 301.010009766
575060.4375 4178482.25 301.160003662
575060.4375 4178482.25 301.179992676
575061.1875 4178481.75 300.980010986
575061.1875 4178481.75 301
575063.75 4178482 301.149993896
575063.75 4178482 301.130004883
575067.6875 4178482 301.309997559
575053.125 4178482.25 300.660003662
575053.125 4178482.25 300.649993896
575057.4375 4178482.25 300.799987793
575057.4375 4178482.25 300.779998779
575057.9375 4178482.5 300.779998779
575057.9375 4178482.5 300.799987793
575061.25 4178482.5 300.950012207
575061.25 4178482.5 300.940002441
575061.6875 4178482.25 301.209991455
575063 4178482.25 301.100006104
575063 4178482.25 301.109985352
575067.6875 4178482.5 301.299987793
575067.6875 4178482.5 301.320007324
575057.5 4178482.75 300.910003662
575057.5 4178482.75 300.899993896
575059.25 4178483 300.950012207
575059.25 4178483 300.970001221
575059.9375 4178482.75 300.880004883
575060.5 4178482.75 300.890014648
575061.75 4178483 301.059997559
575061.75 4178483 301.079986572
575063.0625 4178483 301.059997559
575063.0625 4178483 301.079986572
575064.375 4178483 301.160003662
575064.375 4178483 301.130004883
575065.125 4178483 301.260009766
575065.125 4178483 301.230010986
575056.75 4178483 300.769989014
575056.75 4178483 300.799987793
575058 4178483 300.820007324
575058 4178483 300.790008545
575060.5 4178483.25 301.010009766
575060.5 4178483.25 300.989990234
575061.25 4178483 300.929992676
575061.25 4178483 300.970001221
575062.5625 4178483.25 300.989990234
575062.5625 4178483.25 300.980010986
575053.25 4178483.5 300.630004883
575053.25 4178483.5 300.619995117
575056.3125 4178483.75 300.890014648
575056.3125 4178483.75 300.869995117
575057.5 4178483.5 300.869995117
575057.5 4178483.5 300.890014648
575058 4178483.75 300.950012207
575058 4178483.75 300.929992676
575059.25 4178483.5 301
575059.25 4178483.5 300.980010986
575060 4178483.5 301.079986572
575060 4178483.5 301.059997559
575061.3125 4178483.5 301.160003662
575061.3125 4178483.5 301.170013428
575061.75 4178483.5 300.989990234
575061.75 4178483.5 301.010009766
575063.0625 4178483.5 301.160003662
575063.0625 4178483.5 301.170013428
575064.375 4178483.5 301.170013428
575064.375 4178483.5 301.140014648
575053.9375 4178484 300.760009766
575053.9375 4178484 300.739990234
575059.3125 4178484 300.859985352
575059.3125 4178484 300.839996338
575060.5 4178484 301.149993896
575060.5 4178484 301.179992676
575062.625 4178484 301.140014648
575062.625 4178484 301.109985352
575065.1875 4178484 301.269989014
575065.1875 4178484 301.25
575050.5 4178484.5 300.700012207
575050.5 4178484.5 300.679992676
575051.6875 4178484.25 300.730010986
575051.6875 4178484.25 300.720001221
575054 4178484.5 300.820007324
575054 4178484.5 300.829986572
575055.1875 4178484.5 300.700012207
575055.1875 4178484.5 300.690002441
575056.375 4178484.25 300.779998779
575056.375 4178484.25 300.75
575058.8125 4178484.25 300.839996338
575060.5625 4178484.5 301.089996338
575060.5625 4178484.5 301.070007324
575062.625 4178484.5 301.140014648
575062.625 4178484.5 301.160003662
575051.6875 4178485 300.690002441
575051.6875 4178485 300.709991455
575054.5 4178484.75 300.700012207
575054.5 4178484.75 300.690002441
575055.6875 4178484.75 300.820007324
575055.6875 4178484.75 300.790008545
575056.375 4178484.75 300.839996338
575056.375 4178484.75 300.799987793
575057.625 4178484.5 300.779998779
575058.125 4178484.75 300.890014648
575058.125 4178484.75 300.910003662
575058.875 4178485 300.880004883
575058.875 4178485 300.899993896
575059.375 4178484.75 300.850006104
575061.375 4178484.75 301.010009766
575061.375 4178484.75 301
575061.875 4178484.75 301.170013428
575061.875 4178484.75 301.140014648
575063.1875 4178484.75 301.220001221
575063.1875 4178484.75 301.190002441
575050.5625 4178485 300.540008545
575050.5625 4178485 300.519989014
575053.3125 4178485.25 300.630004883
575054.0625 4178485.25 300.709991455
575054.0625 4178485.25 300.720001221
575054.5 4178485.25 300.760009766
575054.5 4178485.25 300.779998779
575055.75 4178485.25 300.75
575055.75 4178485.25 300.720001221
575058.125 4178485.25 300.989990234
575059.375 4178485.25 300.989990234
575059.375 4178485.25 300.970001221
575060.625 4178485 300.899993896
575060.625 4178485 300.910003662
575061.4375 4178485.25 301.130004883
575062.6875 4178485 301.140014648
575062.6875 4178485 301.160003662
575063.1875 4178485.25 301.209991455
575063.1875 4178485.25 301.190002441
575051.75 4178485.5 300.959991455
575051.75 4178485.5 300.940002441
575056.9375 4178485.5 300.880004883
575056.9375 4178485.5 300.859985352
575057.6875 4178485.75 301.089996338
575057.6875 4178485.75 301.070007324
575058.125 4178485.5 300.950012207
575058.875 4178485.5 301.130004883
575058.875 4178485.5 301.149993896
575060.6875 4178485.75 301.029998779
575060.6875 4178485.75 301
575061.4375 4178485.5 301.109985352
575062.75 4178485.75 301.130004883
575062.75 4178485.75 301.109985352
575067.9375 4178485.5 301.279998779
575067.9375 4178485.5 301.309997559
575051.75 4178486 300.809997559
575051.75 4178486 300.829986572
575054.5625 4178485.75 300.809997559
575054.5625 4178485.75 300.850006104
575055.75 4178486 300.760009766
575055.75 4178486 300.779998779
575056.5 4178486 300.809997559
575056.5 4178486 300.790008545
575057 4178486 301
575057 4178486 300.989990234
575058.9375 4178486 301.170013428
575058.9375 4178486 301.149993896
575059.4375 4178485.75 301.010009766
575059.4375 4178485.75 300.980010986
575061.9375 4178485.75 301.220001221
575061.9375 4178485.75 301.209991455
575063.25 4178485.75 301
575063.25 4178485.75 300.989990234
575049.5 4178486.25 300.510009766
575049.5 4178486.25 300.489990234
575053.4375 4178486.25 300.630004883
575055.8125 4178486.5 300.950012207
575055.8125 4178486.5 300.940002441
575056.5 4178486.5 301.100006104
575056.5 4178486.5 301.130004883
575057.6875 4178486.25 301.059997559
575057.6875 4178486.25 301.029998779
575058.25 4178486.5 300.820007324
575060.1875 4178486.25 301.049987793
575060.1875 4178486.25 301.019989014
575060.6875 4178486.25 301.049987793
575060.6875 4178486.25 301.040008545
575061.5 4178486.5 301.049987793
575061.5 4178486.5 301.070007324
575062.75 4178486.25 301.049987793
575062.75 4178486.25 301.040008545
575063.3125 4178486.5 301.149993896
575063.3125 4178486.5 301.119995117
575064.625 4178486.5 301.230010986
575064.625 4178486.5 301.209991455
575065.375 4178486.5 301.220001221
575065.375 4178486.5 301.209991455
575054.1875 4178487 300.739990234
575054.1875 4178487 300.709991455
575055.3125 4178486.75 300.799987793
575055.3125 4178486.75 300.779998779
575057 4178486.5 301.079986572
575057 4178486.5 301.100006104
575057.75 4178487 300.920013428
575057.75 4178487 300.929992676
575059 4178486.75 300.920013428
575059 4178486.75 300.929992676
575060.25 4178487 300.980010986
575060.25 4178487 300.950012207
575060.75 4178486.75 301.190002441
575060.75 4178486.75 301.200012207
575065.9375 4178487 301.279998779
575065.9375 4178487 301.25
575066.6875 4178486.5 301.239990234
575066.6875 4178486.5 301.260009766
575052.25 4178487 300.649993896
575052.3125 4178487 300.630004883
575055.8125 4178487 300.790008545
575055.8125 4178487 300.820007324
575056.5625 4178487.25 300.980010986
575056.5625 4178487.25 300.959991455
575057.0625 4178487.25 300.839996338
575057.0625 4178487.25 300.820007324
575059 4178487.25 300.980010986
575059 4178487.25 300.959991455
575061.5625 4178487.25 301.089996338
575061.5625 4178487.25 301.059997559
575063.3125 4178487 301.160003662
575063.3125 4178487 301.130004883
575064.125 4178487.25 301.230010986
575064.125 4178487.25 301.209991455
575064.625 4178487 301.119995117
575064.625 4178487 301.149993896
575065.4375 4178487 301.160003662
575065.4375 4178487 301.179992676
575052.3125 4178487.5 300.589996338
575053.0625 4178487.75 300.679992676
575053.0625 4178487.75 300.709991455
575054.1875 4178487.5 300.839996338
575054.1875 4178487.5 300.859985352
575055.875 4178487.75 300.760009766
575055.875 4178487.75 300.790008545
575056.625 4178487.75 300.769989014
575056.625 4178487.75 300.799987793
575057.8125 4178487.5 300.820007324
575057.8125 4178487.5 300.799987793
575058.3125 4178487.75 300.839996338
575058.3125 4178487.75 300.869995117
575059.5625 4178487.5 300.970001221
575059.5625 4178487.5 301
575060.25 4178487.5 301.149993896
575060.25 4178487.5 301.170013428
575062.0625 4178487.75 301.079986572
575062.0625 4178487.75 301.100006104
575064.6875 4178487.75 301.230010986
575064.6875 4178487.75 301.200012207
575065.5 4178487.5 301.179992676
575065.5 4178487.5 301.200012207
575046.5 4178488 300.420013428
575046.5 4178488 300.399993896
575051.1875 4178488 300.609985352
575051.1875 4178488 300.589996338
575054.25 4178488 300.690002441
575054.25 4178488 300.679992676
575054.6875 4178488.25 300.869995117
575054.6875 4178488.25 300.850006104
575057.125 4178487.75 300.890014648
575057.125 4178487.75 300.869995117
575057.875 4178488 300.799987793
575057.875 4178488 300.829986572
575059.0625 4178487.75 300.899993896
575059.0625 4178487.75 300.880004883
575060.3125 4178488 300.950012207
575060.3125 4178488 300.929992676
575060.8125 4178488 301.079986572
575060.8125 4178488 301.059997559
575062.9375 4178488 301.149993896
575062.9375 4178488 301.119995117
575052.375 4178488.25 300.700012207
575052.375 4178488.25 300.679992676
575055.9375 4178488.25 300.929992676
575055.9375 4178488.25 300.899993896
575056.625 4178488.25 300.989990234
575056.625 4178488.25 300.970001221
575058.3125 4178488.25 300.940002441
575058.3125 4178488.25 300.950012207
575059.5625 4178488.25 300.899993896
575059.5625 4178488.25 300.929992676
575062.125 4178488.25 301.070007324
575062.125 4178488.25 301.089996338
575064.75 4178488.25 301.179992676
575064.75 4178488.25 301.220001221
575066.8125 4178488.25 301.260009766
575066.8125 4178488.25 301.230010986
575068.125 4178488.5 301.309997559
575051.25 4178488.5 300.890014648
575051.25 4178488.5 300.880004883
575052.375 4178488.75 300.640014648
575052.375 4178488.75 300.660003662
575054.3125 4178488.75 300.690002441
575054.75 4178488.75 300.950012207
575054.75 4178488.75 300.959991455
575055.9375 4178488.75 300.799987793
575055.9375 4178488.75 300.820007324
575057.1875 4178489 300.779998779
575058.375 4178488.75 300.910003662
575058.375 4178489 300.880004883
575060.875 4178488.5 301.140014648
575060.875 4178488.5 301.119995117
575061.6875 4178489 301.140014648
575061.6875 4178489 301.130004883
575062.9375 4178488.5 301.200012207
575062.9375 4178488.5 301.179992676
575065.5625 4178488.75 301.260009766
575051.25 4178489.25 300.880004883
575051.25 4178489.25 300.850006104
575052 4178489 300.649993896
575052 4178489 300.640014648
575052.4375 4178489.25 300.670013428
575052.4375 4178489.25 300.700012207
575054.3125 4178489.25 300.75
575054.3125 4178489.25 300.769989014
575054.75 4178489.25 300.929992676
575054.75 4178489.25 300.899993896
575059.125 4178489 301.089996338
575059.125 4178489 301.109985352
575063 4178489.25 301.200012207
575063 4178489.25 301.179992676
575063.5 4178489.25 301.230010986
575063.5 4178489.25 301.209991455
575064.25 4178489 301.179992676
575064.25 4178489 301.190002441
575066.875 4178489 301.25
575066.875 4178489 301.220001221
575052 4178489.75 300.589996338
575053.1875 4178489.5 300.809997559
575053.1875 4178489.5 300.779998779
575056.75 4178489.5 300.809997559
575056.75 4178489.5 300.779998779
575057.1875 4178489.5 300.940002441
575057.25 4178489.5 300.910003662
575058.4375 4178489.5 301.010009766
575058.4375 4178489.5 300.989990234
575059.1875 4178489.5 300.989990234
575059.1875 4178489.5 300.970001221
575059.625 4178489.25 301.170013428
575061.75 4178489.5 301.079986572
575061.75 4178489.5 301.100006104
575062.1875 4178489.5 301.179992676
575062.1875 4178489.5 301.160003662
575065.625 4178489.25 301.25
575065.625 4178489.25 301.230010986
575066.9375 4178489.5 301.239990234
575066.9375 4178489.5 301.279998779
575051.3125 4178489.75 300.649993896
575051.3125 4178489.75 300.670013428
575052.5 4178490 300.760009766
575052.5 4178490 300.730010986
575053.1875 4178490 300.75
575053.1875 4178490 300.779998779
575054.8125 4178490 300.899993896
575054.8125 4178490 300.890014648
575055.5625 4178489.75 300.739990234
575055.5625 4178489.75 300.779998779
575056 4178490 300.890014648
575056 4178490 300.859985352
575056.75 4178490 300.790008545
575057.25 4178490 301.119995117
575057.25 4178490 301.109985352
575058 4178489.75 300.820007324
575058.5 4178490 300.940002441
575058.5 4178490 300.910003662
575061.75 4178490 301.170013428
575061.75 4178490 301.190002441
575062.25 4178490 301.200012207
575063.5625 4178490 301.100006104
575063.5625 4178490 301.070007324
575065.625 4178490 301.109985352
575065.625 4178490 301.119995117
575067 4178490 301.260009766
575052.0625 4178490.25 300.980010986
575052.0625 4178490.25 300.950012207
575054.4375 4178490.5 300.700012207
575054.4375 4178490.5 300.720001221
575058 4178490.5 301.059997559
575058 4178490.5 301.089996338
575059.25 4178490.25 301.079986572
575059.25 4178490.25 301.100006104
575060.5 4178490.5 301.049987793
575060.5 4178490.5 301.070007324
575061 4178490.25 301.040008545
575061 4178490.25 301.070007324
575063.0625 4178490.25 301.179992676
575063.0625 4178490.25 301.160003662
575066.1875 4178490.5 301.239990234
575066.1875 4178490.5 301.220001221
575052.0625 4178490.75 300.809997559
575052.125 4178490.75 300.790008545
575053.25 4178490.5 300.690002441
575053.25 4178490.5 300.679992676
575056.0625 4178490.5 300.950012207
575056.0625 4178490.5 300.980010986
575056.8125 4178490.5 300.989990234
575056.8125 4178490.5 300.970001221
575057.3125 4178490.75 300.970001221
575057.3125 4178490.75 300.959991455
575058.5 4178490.5 301.079986572
575058.5 4178490.5 301.049987793
575059.25 4178490.75 300.880004883
575059.25 4178490.75 300.899993896
575061.8125 4178490.75 301.040008545
575061.8125 4178490.75 301.019989014
575062.3125 4178490.5 300.980010986
575062.3125 4178490.5 301.010009766
575064.875 4178490.5 301.230010986
575064.875 4178490.5 301.200012207
575051.4375 4178491 300.579986572
575052.5625 4178491 300.760009766
575052.5625 4178491 300.779998779
575053.25 4178491.25 300.809997559
575053.25 4178491.25 300.790008545
575055.625 4178491 300.75
575055.625 4178491 300.769989014
575056.8125 4178491.25 301.070007324
575056.8125 4178491.25 301.040008545
575057.3125 4178491.25 301.079986572
575057.3125 4178491.25 301.040008545
575058.0625 4178491 301
575058.0625 4178491 300.970001221
575059.75 4178491 301.109985352
575059.75 4178491 301.140014648
575060.5625 4178491 301.029998779
575060.5625 4178491 301.010009766
575061.0625 4178491 300.989990234
575061.0625 4178491 300.959991455
575061.875 4178491.25 301.049987793
575061.875 4178491.25 301.079986572
575062.3125 4178491.25 301.119995117
575062.3125 4178491.25 301.149993896
575063.125 4178491 301.100006104
575063.125 4178491 301.089996338
575063.625 4178491 301.230010986
575064.9375 4178491.25 301.200012207
575064.9375 4178491.25 301.230010986
575049.125 4178491.5 300.5
575052.125 4178491.5 300.700012207
575052.125 4178491.5 300.670013428
575055.6875 4178491.5 300.890014648
575055.6875 4178491.5 300.869995117
575058.125 4178491.5 300.829986572
575059.3125 4178491.25 300.950012207
575059.3125 4178491.25 300.940002441
575060.5625 4178491.5 300.989990234
575060.5625 4178491.5 300.959991455
575061.0625 4178491.5 300.970001221
575061.0625 4178491.5 300.940002441
575063.1875 4178491.5 301.170013428
575063.1875 4178491.5 301.200012207
575063.6875 4178491.75 301.059997559
575063.6875 4178491.75 301.040008545
575064.4375 4178491.5 301.130004883
575064.4375 4178491.5 301.109985352
575069.6875 4178491.75 301.320007324
575053.3125 4178491.75 300.730010986
575053.3125 4178491.75 300.709991455
575056.125 4178491.75 300.970001221
575056.125 4178491.75 300.989990234
575056.875 4178491.75 301.089996338
575056.875 4178491.75 301.059997559
575057.375 4178491.75 301.079986572
575057.375 4178491.75 301.059997559
575059.375 4178492 300.899993896
575059.375 4178492 300.869995117
575061.125 4178492 301.010009766
575061.125 4178492 301.029998779
575062.375 4178491.75 301.100006104
575062.375 4178491.75 301.130004883
575064.5 4178492 301.209991455
575064.5 4178492 301.179992676
575049.9375 4178492.25 300.519989014
575054.5 4178492.25 300.799987793
575054.5 4178492.25 300.829986572
575056.9375 4178492.25 300.980010986
575056.9375 4178492.25 300.970001221
575057.375 4178492.5 301.089996338
575057.375 4178492.5 301.109985352
575058.125 4178492.25 300.899993896
575058.125 4178492.25 300.859985352
575059.875 4178492.25 300.940002441
575059.875 4178492.25 300.929992676
575060.625 4178492.25 301.100006104
575060.625 4178492.25 301.119995117
575061.9375 4178492.5 301.100006104
575061.9375 4178492.5 301.119995117
575062.375 4178492.25 301.179992676
575062.375 4178492.25 301.160003662
575063.75 4178492.25 301.049987793
575065 4178492.25 301.25
575065 4178492.25 301.220001221
575054.5625 4178492.75 300.839996338
575054.5625 4178492.75 300.829986572
575058.1875 4178492.75 301.079986572
575058.1875 4178492.75 301.059997559
575059.375 4178492.5 301.049987793
575059.375 4178492.5 301.029998779
575059.9375 4178492.75 301.010009766
575059.9375 4178492.75 300.989990234
575060.6875 4178492.75 301.109985352
575060.6875 4178492.75 301.140014648
575064.5625 4178492.5 301.239990234
575068.9375 4178492.5 301.269989014
575068.9375 4178492.5 301.260009766
575047.625 4178493 300.540008545
575047.625 4178493 300.519989014
575056.25 4178493 300.779998779
575056.25 4178493 300.760009766
575057 4178493 300.959991455
575057 4178493 300.950012207
575059.4375 4178493 301.019989014
575059.4375 4178493 301.040008545
575069 4178493.25 301.279998779
575069 4178493.25 301.309997559
575047.625 4178493.75 300.489990234
575047.625 4178493.75 300.470001221
575056.25 4178493.5 300.910003662
575056.25 4178493.5 300.880004883
575057 4178493.5 300.890014648
575057 4178493.5 300.850006104
575058.1875 4178493.25 301.010009766
575058.25 4178493.25 300.989990234
575058.75 4178493.5 300.850006104
575059.9375 4178493.5 300.980010986
575059.9375 4178493.5 300.959991455
575060.75 4178493.25 300.940002441
575060.75 4178493.25 300.959991455
575062 4178493.5 301.079986572
575062 4178493.5 301.070007324
575062.5 4178493.5 301
575063.3125 4178493.25 301.109985352
575063.3125 4178493.25 301.149993896
575065.875 4178493.5 301.230010986
575065.9375 4178493.5 301.200012207
575068.5625 4178493.75 301.239990234
575068.5625 4178493.75 301.260009766
575052.3125 4178493.75 300.690002441
575052.3125 4178493.75 300.679992676
575059.5 4178493.75 300.989990234
575059.5 4178493.75 300.959991455
575060.75 4178494 301.089996338
575060.75 4178494 301.109985352
575061.25 4178493.75 300.940002441
575061.25 4178493.75 300.959991455
575063.3125 4178494 301.089996338
575063.3125 4178494 301.059997559
575063.8125 4178494 301.209991455
575063.8125 4178494 301.220001221
575064.625 4178493.75 301.119995117
575064.625 4178493.75 301.100006104
575065.125 4178494 301.200012207
575065.125 4178494 301.200012207
575069.0625 4178493.75 301.239990234
575069.0625 4178493.75 301.260009766
575056.3125 4178494 300.920013428
575056.3125 4178494 300.910003662
575058.75 4178494.25 300.959991455
575058.75 4178494.25 300.929992676
575062.0625 4178494.25 301.070007324
575062.0625 4178494.25 301.040008545
575067.25 4178494.25 301.260009766
575067.25 4178494.25 301.25
575067.75 4178494.25 301.279998779
575067.75 4178494.25 301.260009766
575068.5625 4178494.25 301.269989014
575052.8125 4178494.5 300.670013428
575052.8125 4178494.5 300.690002441
575056.375 4178494.75 300.809997559
575056.375 4178494.75 300.850006104
575058.8125 4178494.75 300.950012207
575058.8125 4178494.75 300.980010986
575060.8125 4178494.5 300.989990234
575060.8125 4178494.5 301
575062.125 4178494.75 301
575062.125 4178494.75 301.019989014
575063.875 4178494.5 301.130004883
575063.875 4178494.5 301.109985352
575065.1875 4178494.75 301.179992676
575065.1875 4178494.75 301.149993896
575066 4178494.5 301.25
575066.5 4178494.5 301.200012207
575066.5 4178494.5 301.220001221
575067.3125 4178494.75 301.220001221
575067.3125 4178494.75 301.25
575054.75 4178495 300.799987793
575054.75 4178495 300.820007324
575055.9375 4178495 300.880004883
575055.9375 4178495 300.920013428
575060.0625 4178495.25 300.910003662
575060.8125 4178495 301.029998779
575060.875 4178495 301
575063.9375 4178495.25 301.059997559
575063.9375 4178495.25 301.049987793
575065.25 4178495.25 301.100006104
575061.375 4178495.5 301.119995117
575061.375 4178495.5 301.160003662
575064.75 4178495.5 301.079986572
575067.875 4178495.5 301.25
575067.875 4178495.5 301.230010986
575054.0625 4178495.75 300.720001221
575054.0625 4178495.75 300.700012207
575054.75 4178495.75 300.709991455
575057.1875 4178495.75 300.869995117
575057.1875 4178495.75 300.850006104
575065.25 4178495.75 301.109985352
575065.25 4178495.75 301.130004883
575066.0625 4178495.75 301.160003662
575066.0625 4178495.75 301.140014648
575067.4375 4178496 301.230010986
575067.4375 4178496 301.260009766
575067.9375 4178496 301.239990234
575067.9375 4178496 301.200012207
575057.25 4178496.5 300.920013428
575057.25 4178496.5 300.899993896
575058.4375 4178496.25 300.890014648
575058.4375 4178496.25 300.920013428
575059.6875 4178496 300.910003662
575059.6875 4178496 300.929992676
575063.5 4178496.25 301.040008545
575063.5 4178496.25 301.070007324
575064 4178496.25 301.170013428
575064 4178496.25 301.140014648
575066.625 4178496.25 301.149993896
575066.625 4178496.25 301.170013428
575061.4375 4178496.75 301.049987793
575061.4375 4178496.75 301.029998779
575062.25 4178496.5 301.059997559
575062.25 4178496.5 301.049987793
575064.875 4178496.75 301.220001221
575066.625 4178496.75 301.260009766
575066.625 4178496.75 301.239990234
575062.3125 4178497 301.040008545
575062.3125 4178497 301
575064.0625 4178497 301.170013428
575064.0625 4178497 301.140014648
575070.5625 4178497.25 301.320007324
575065.4375 4178497.5 301.109985352
575069.3125 4178497.25 301.25
575063.625 4178498 301.130004883
575063.625 4178498 301.109985352
575064.9375 4178497.75 301.200012207
575064.9375 4178497.75 301.179992676
575067.5625 4178497.75 301.190002441
575061.0625 4178498 301.029998779
575061.0625 4178498 301
575065.4375 4178498.25 301.179992676
575065.4375 4178498.25 301.149993896
575067.5625 4178498.25 301.220001221
575067.5625 4178498.25 301.209991455
575051.9375 4178498.5 300.619995117
575051.9375 4178498.5 300.640014648
575065 4178498.5 301.100006104
575066.75 4178498.5 301.220001221
575066.75 4178498.5 301.209991455
575070.1875 4178498.75 301.290008545
575065 4178499 301.149993896
575065 4178499 301.140014648
575066.8125 4178499.25 301.170013428
575068.1875 4178499.5 301.220001221
575068.1875 4178499.5 301.230010986
575070.25 4178499.25 301.299987793
575061.25 4178500.5 301.070007324
575061.25 4178500.5 301.040008545
575063.8125 4178500.25 301.079986572
575066.4375 4178500.5 301.190002441
575066.4375 4178500.5 301.179992676
575063.875 4178501 301.100006104
575063.875 4178501 301.130004883
575066.9375 4178501 301.190002441
575060 4178501.25 301.049987793
575060 4178501.25 301.079986572
575061.75 4178501.5 301.119995117
575061.75 4178501.5 301.140014648
575063.875 4178501.5 301.089996338
575063.875 4178501.5 301.070007324
575065.1875 4178501.5 301.130004883
575065.1875 4178501.5 301.119995117
575017.6875 4178583.75 299.989990234
575017.6875 4178583.75 300.010009766
575017.5 4178585 299.660003662
575017.5 4178585 299.649993896
575016.4375 4178585.25 299.869995117
575016.4375 4178585.25 299.890014648
575016.6875 4178585.25 299.959991455
575016.6875 4178585.25 299.940002441
575017.5 4178585.5 300.170013428
575017.5 4178585.5 300.190002441
575017.8125 4178585.5 299.709991455
575017.8125 4178585.5 299.739990234
575019.6875 4178585.25 300.089996338
575017.625 4178586.75 299.739990234
575015.6875 4178587.5 299.739990234
575016.875 4178588.75 299.829986572
575003.0625 4178611.25 299.290008545
575003.0625 4178611.25 299.269989014
575004.1875 4178614 299.859985352
575004.1875 4178614 299.839996338
575004.4375 4178614.25 299.649993896
575004.4375 4178614.25 299.640014648
575001.75 4178615 299.429992676
575001.75 4178615 299.399993896
575002 4178614.75 299.220001221
575002 4178614.75 299.230010986
575003 4178615 299.679992676
575003 4178615 299.660003662
575003.25 4178614.75 299.279998779
575003.25 4178614.75 299.25
575004.1875 4178614.75 299.769989014
575004.1875 4178614.75 299.739990234
575004.4375 4178614.75 299.829986572
575004.4375 4178614.75 299.850006104
575001.75 4178615.5 299.839996338
575001.75 4178615.5 299.820007324
575003.25 4178615.25 299.760009766
575003.25 4178615.25 299.730010986
575002 4178615.75 299.559997559
575002 4178615.75 299.540008545
575000.6875 4178617 299.149993896
575001.875 4178616.75 299.480010986
575001.875 4178616.75 299.470001221
575002.125 4178617 299.220001221
575002.125 4178617 299.190002441
574973.125 4178663 298.299987793
574973 4178663 298.320007324
574973 4178663 298.339996338
574971.9375 4178667.5 298.380004883
574972.875 4178667.5 298.540008545
574972.875 4178667.5 298.549987793
574971.8125 4178668 299.010009766
574971.8125 4178668 298.989990234
574972.4375 4178668.25 298.690002441
574972.5 4178667.75 298.869995117
574972.5 4178667.75 298.859985352
574972.625 4178667.75 298.850006104
574972.625 4178667.75 298.880004883
574971.4375 4178668.25 298.920013428
574971.4375 4178668.25 298.940002441
574971.5 4178668.5 299.239990234
574971.5 4178668.5 299.269989014
574971.9375 4178668.25 298.859985352
574971.9375 4178668.25 298.869995117
574972.4375 4178668.5 298.640014648
574972.4375 4178668.5 298.670013428
574972.4375 4178668.25 298.709991455
574972.5625 4178668.25 299.019989014
574972.5625 4178668.25 299.049987793
574970.9375 4178668.5 298.579986572
574970.9375 4178668.5 298.559997559
574971.375 4178668.75 298.640014648
574971.375 4178668.75 298.660003662
574971.4375 4178668.5 299.049987793
574971.4375 4178668.5 299.079986572
574971.4375 4178668.75 298.820007324
574971.4375 4178668.75 298.790008545
574971.8125 4178668.5 299.160003662
574971.8125 4178668.5 299.130004883
574971.9375 4178668.75 298.980010986
574971.9375 4178668.75 298.950012207
574971.3125 4178669.25 298.720001221
574971.3125 4178669.25 298.739990234
574971.375 4178669.25 298.890014648
574971.4375 4178669.25 298.929992676
574971.875 4178669.25 299.059997559
574971.875 4178669.25 299.040008545
574971.9375 4178669 299.239990234
574971.9375 4178669 299.209991455
574970.25 4178669.75 298.679992676
574971 4178669.5 298.380004883
574971 4178669.5 298.359985352
574971.25 4178669.5 298.399993896
574971.25 4178669.5 298.429992676
574971.3125 4178669.75 298.420013428
574971.3125 4178669.75 298.440002441
574970.125 4178669.75 298.600006104
574970.875 4178669.75 298.589996338
574970.9375 4178669.75 299.239990234
574970.9375 4178669.75 299.260009766
574971.1875 4178670 298.369995117
574971.1875 4178670 298.350006104
574970.125 4178670.25 298.869995117
574970.1875 4178670.25 298.679992676
574971.1875 4178670.25 298.559997559
574971.1875 4178670.25 298.529998779
574971.25 4178670.25 298.600006104
574971.25 4178670.25 298.609985352
574971.1875 4178670.5 298.429992676
574971.1875 4178670.5 298.440002441
574951.375 4178689.25 297.579986572
574951.5 4178689.25 297.679992676
574951.5 4178689.25 297.700012207
574954.9375 4178690.75 298.25
574954.9375 4178690.75 298.220001221
574955 4178691 297.769989014
574955 4178691 297.75
574954.75 4178691.5 298.25
574954.75 4178691.5 298.260009766
574954.9375 4178691.25 298.220001221
574954.9375 4178691.25 298.220001221
574955.0625 4178691.5 298.019989014
574955.0625 4178691.5 297.989990234
574955.0625 4178691.25 297.720001221
574955.0625 4178691.25 297.709991455
574954.5625 4178691.5 298.410003662
574954.5625 4178691.5 298.429992676
574955 4178691.75 298.440002441
574955 4178691.75 298.459991455
574955 4178691.5 298.100006104
574955 4178691.5 298.119995117
574955 4178691.5 298.609985352
574955 4178691.5 298.579986572
574955 4178691.75 298.369995117
574955 4178691.75 298.399993896
574954.5 4178692 298.510009766
574954.5 4178692.25 298.540008545
574954.6875 4178692 298.149993896
574954.6875 4178692 298.170013428
574955 4178692 298.399993896
574955 4178692 298.369995117
574955.0625 4178692.25 298.350006104
574955.0625 4178692.25 298.380004883
574955.0625 4178692.5 298.119995117
574955.0625 4178692.5 298.100006104
574957.0625 4178692.25 298.029998779
574957.0625 4178692.25 298.010009766
574957.0625 4178692.5 298.320007324
574957.0625 4178692.5 298.290008545
574957.125 4178692.5 297.890014648
574956.0625 4178692.75 298.309997559
574956.125 4178692.75 298.260009766
574956.125 4178693 298.25
574956.75 4178693 298.309997559
574956.75 4178693 298.339996338
574957 4178692.75 298.630004883
574957 4178692.75 298.600006104
574957.0625 4178692.75 298.029998779
574957.0625 4178692.75 298.059997559
574957.125 4178693 297.880004883
574957.125 4178693 297.899993896
574956.125 4178693 298.390014648
574956.125 4178693 298.380004883
574956.125 4178693.25 297.769989014
574956.125 4178693.5 298.149993896
574956.125 4178693.5 298.170013428
574956.625 4178693.25 297.950012207
574956.625 4178693.25 297.989990234
574956.8125 4178693 297.809997559
574957.0625 4178693.25 298.489990234
574957.0625 4178693.25 298.470001221
574957.125 4178693 298.359985352
574955.4375 4178693.5 297.809997559
574955.4375 4178693.5 297.829986572
574955.625 4178693.5 297.859985352
574955.625 4178693.5 297.880004883
574956.125 4178693.5 297.859985352
574956.125 4178693.5 297.839996338
574956.1875 4178693.75 297.890014648
574956.1875 4178693.75 297.859985352
574956.75 4178693.75 298.070007324
574956.75 4178693.75 298.109985352
574957.0625 4178693.5 298.519989014
574957.0625 4178693.5 298.549987793
574957.1875 4178693.5 297.929992676
574957.1875 4178693.5 297.910003662
574950.1875 4178694 298.730010986
574950.25 4178694 298.230010986
574950.8125 4178694.25 298.260009766
574950.875 4178694 298.739990234
574950.875 4178694 298.769989014
574951.0625 4178694 298.559997559
574951.0625 4178694 298.559997559
574951.1875 4178694.25 298.489990234
574951.1875 4178694.25 298.519989014
574951.1875 4178694.25 298.630004883
574951.1875 4178694.25 298.640014648
574951.25 4178694 297.880004883
574951.25 4178694 297.899993896
574951.25 4178694 298.279998779
574951.25 4178694 298.269989014
574951.9375 4178694 297.720001221
574951.9375 4178694 297.679992676
574952.0625 4178694.25 297.850006104
574952.0625 4178694.25 297.820007324
574952.1875 4178694 298.630004883
574952.1875 4178693.75 298.609985352
574952.25 4178694 298.149993896
574952.25 4178694 298.130004883
574955.5625 4178694.25 298.010009766
574955.5625 4178694.25 298.029998779
574956.125 4178694 298.100006104
574956.125 4178694 298.130004883
574956.1875 4178694 298.089996338
574956.1875 4178694 298.070007324
574950.1875 4178694.5 298.549987793
574950.1875 4178694.5 298.529998779
574950.25 4178694.25 298.309997559
574950.25 4178694.5 298.470001221
574950.25 4178694.5 298.450012207
574950.8125 4178694.25 298.299987793
574950.9375 4178694.25 297.709991455
574950.9375 4178694.25 297.739990234
574952.1875 4178694.5 298.299987793
574952.1875 4178694.5 298.320007324
574952.1875 4178694.25 298.029998779
574952.25 4178694.25 298.019989014
574952.25 4178694.25 298.369995117
574952.25 4178694.25 298.339996338
574952.25 4178694.5 298.420013428
574952.25 4178694.5 298.390014648
574956.1875 4178694.5 297.910003662
574956.1875 4178694.5 297.890014648
574956.25 4178694.5 297.880004883
574956.25 4178694.5 297.859985352
574950.25 4178694.75 298.179992676
574950.75 4178694.75 298.670013428
574950.75 4178694.75 298.700012207
574952.25 4178694.75 298.239990234
574952.25 4178694.75 298.269989014
574952.25 4178694.75 298.600006104
574952.25 4178694.75 298.619995117
574956.1875 4178694.75 297.970001221
574956.1875 4178694.75 298
574956.25 4178694.75 298.040008545
574956.25 4178694.75 298.010009766
574950.9375 4178695.25 298.799987793
574950.9375 4178695.25 298.829986572
574951.25 4178695.5 298.170013428
574951.3125 4178695.25 298.140014648
574951.3125 4178695.25 298.130004883
574951.8125 4178695 297.609985352
574951.8125 4178695 297.619995117
574950.8125 4178695.75 298.790008545
574950.875 4178695.75 298.820007324
574951.3125 4178695.75 298.010009766
574951.3125 4178695.75 298.040008545
574951.3125 4178695.5 298.339996338
574951.3125 4178695.5 298.309997559
574951.3125 4178695.75 298.459991455
574951.3125 4178695.75 298.450012207
574951.3125 4178695.75 298.359985352
574951.3125 4178695.75 298.350006104
574951.3125 4178696.25 298.109985352
574951.3125 4178696.25 298.119995117
574951.375 4178696 298.220001221
574951.375 4178696.25 298.279998779
574951.375 4178696.25 298.260009766
574951.375 4178696 298.190002441
574951.875 4178696 297.980010986
574951.875 4178696 297.950012207
574951.375 4178696.5 298.070007324
574951.375 4178696.5 298.089996338
574951.375 4178696.5 298.029998779
574951.375 4178696.5 298.049987793
574951.75 4178696.25 298.450012207
574951.75 4178696.25 298.420013428
574954.375 4178696.25 297.709991455
574950.5 4178697 297.649993896
574950.5 4178697 297.630004883
574951.3125 4178696.75 298.799987793
574951.3125 4178696.75 298.790008545
574951.375 4178696.75 298.869995117
574951.375 4178696.75 298.489990234
574951.375 4178696.75 297.970001221
