# .PCD v.7 - Point Cloud Data file format
VERSION .7
FIELDS x y z
SIZE 4 4 4
TYPE F F F
COUNT 1 1 1
WIDTH 164
HEIGHT 1
VIEWPOINT 0 0 0 1 0 0 0
POINTS 164
DATA ascii
575014.75 4178594.5 302.489990234
575015.5625 4178594.25 302.829986572
575015.8125 4178594.25 303.109985352
575016.75 4178594.5 302.739990234
575015.625 4178594.75 303
575015.625 4178594.75 305.839996338
575015.875 4178594.75 303.070007324
575015.875 4178594.75 303.040008545
575016.5625 4178594.5 304.760009766
575015.5625 4178595.25 303.970001221
575015.5625 4178595.25 303.950012207
575015.4375 4178595.25 306.079986572
575015.4375 4178595.25 306.059997559
575015.6875 4178595.5 305.640014648
575015.6875 4178595.5 305.670013428
575009.125 4178596 300.660003662
575009.125 4178596 300.690002441
575010.0625 4178596 303.899993896
575010.4375 4178596 301.399993896
575015.5 4178596 305.730010986
575015.5 4178596 305.720001221
575015.75 4178596 305.760009766
575015.75 4178596 305.779998779
575009.1875 4178596.5 303.130004883
575010.4375 4178596.5 301.869995117
575010.0625 4178596.75 303.809997559
575010.4375 4178596.75 302.380004883
575011.25 4178596.75 303.109985352
575011.5 4178596.75 303.429992676
575008.875 4178597 304.410003662
575008.875 4178597 304.440002441
575009.0625 4178597 301.790008545
575009.125 4178597.25 304.890014648
575009.125 4178597.25 304.910003662
575010.3125 4178597 304.049987793
575011.1875 4178597.25 304.630004883
575013.6875 4178597.25 300.809997559
575013.6875 4178597.25 300.829986572
575014.3125 4178597.25 307.640014648
575014.5 4178597 307.510009766
575014.75 4178597 304.579986572
575015.0625 4178597.25 300.329986572
575015.0625 4178597.25 300.309997559
575015.4375 4178597 307.019989014
575015.4375 4178597 307.040008545
575008.875 4178597.5 304.709991455
575008.875 4178597.5 304.730010986
575009.0625 4178597.5 305.75
575009.0625 4178597.5 305.779998779
575010.125 4178597.5 303.489990234
575010.375 4178597.75 303.989990234
575011.125 4178597.5 305.279998779
575011.4375 4178597.75 304.779998779
575011.5625 4178597.5 303.010009766
575013.375 4178597.5 305.459991455
575013.625 4178597.75 301.429992676
575013.625 4178597.75 301.459991455
575013.9375 4178597.5 300.959991455
575013.9375 4178597.5 300.940002441
575014.5 4178597.5 307.920013428
575014.5 4178597.5 307.890014648
575007.9375 4178598 302.209991455
575008.3125 4178598 300.179992676
575008.3125 4178598 300.170013428
575009.0625 4178598 306.25
575009.0625 4178598 306.269989014
575010 4178598 305.809997559
575010.125 4178598 303.829986572
575010.125 4178598 303.869995117
575011.375 4178598 305.579986572
575011.375 4178598 305.559997559
575012.25 4178598 306.029998779
575012.375 4178597.75 303.679992676
575012.4375 4178598 306.630004883
575013.375 4178598 305.649993896
575013.375 4178598 305.630004883
575013.5625 4178597.75 305.700012207
575014.375 4178598 306.660003662
575008.25 4178598.25 301.339996338
575008.25 4178598.25 301.320007324
575008.9375 4178598.25 304.410003662
575008.9375 4178598.25 304.380004883
575010 4178598 305.779998779
575010.5 4178598.5 302.989990234
575010.5 4178598.5 302.980010986
575011.1875 4178598.25 305.369995117
575011.3125 4178598.5 306.579986572
575011.3125 4178598.5 306.600006104
575012.1875 4178598.5 306.899993896
575012.1875 4178598.5 306.910003662
575012.375 4178598.25 307.480010986
575012.375 4178598.25 307.5
575012.75 4178598.25 301.950012207
575013.5625 4178598.25 306.420013428
575013.5625 4178598.25 306.440002441
575013.6875 4178598.25 301.510009766
575007.9375 4178598.5 302.760009766
575008.875 4178598.5 305.959991455
575009.0625 4178598.75 306.029998779
575009.0625 4178598.75 306.059997559
575010.0625 4178598.75 305.320007324
575010.0625 4178598.75 305.339996338
575010.1875 4178598.75 307.290008545
575010.3125 4178598.5 305.390014648
575010.3125 4178598.5 305.410003662
575011.125 4178598.5 306.380004883
575011.3125 4178598.75 307.279998779
575011.3125 4178598.75 307.25
575012.375 4178598.75 308.079986572
575012.375 4178598.75 308.049987793
575012.5 4178598.75 302.790008545
575013.25 4178599 307.709991455
575013.25 4178599 307.730010986
575013.3125 4178598.5 306.410003662
575013.3125 4178598.5 306.390014648
575013.5625 4178598.75 306.760009766
575013.5625 4178598.75 306.739990234
575013.9375 4178598.5 301.959991455
575008.8125 4178599 306.809997559
575009 4178599 307.130004883
575011.125 4178599.25 306.489990234
575011.125 4178599.25 306.470001221
575012.1875 4178599 307.399993896
575013.5625 4178599.25 306.910003662
575013.5625 4178599.25 306.899993896
575008.875 4178599.5 306.559997559
575009.0625 4178599.75 306.859985352
575010.25 4178599.25 306.970001221
575012.1875 4178599.5 307.619995117
575012.4375 4178599.5 307.609985352
575013.375 4178599.5 307.040008545
575013.375 4178599.5 307.059997559
575009.375 4178600 302.890014648
575010.3125 4178600 302.720001221
575010.625 4178599.75 302.160003662
575011.25 4178600 305.869995117
575011.5 4178599.75 305.359985352
575012.25 4178600 307.459991455
575012.375 4178599.75 308.290008545
575012.375 4178599.75 308.269989014
575013.3125 4178600 307.950012207
575013.3125 4178600 307.929992676
575013.5625 4178599.75 307.450012207
575013.5625 4178599.75 307.440002441
575010.3125 4178600.5 303.299987793
575010.375 4178600.25 305.779998779
575012.5625 4178600.25 303.200012207
575012.8125 4178600.25 303.209991455
575010.375 4178600.75 306.019989014
575011.375 4178600.75 304.760009766
575012.3125 4178601 306.559997559
575012.3125 4178601 306.540008545
575012.5625 4178600.75 306.450012207
575012.5625 4178600.75 306.440002441
575010.4375 4178601.25 302.570007324
575012.5625 4178601.25 306.989990234
575012.5625 4178601.25 306.970001221
575012.6875 4178601.25 301.869995117
575012.3125 4178601.25 307.200012207
575012.3125 4178601.25 307.220001221
575012.3125 4178602 307.279998779
575012.3125 4178602 307.299987793
575012.5625 4178601.75 307.130004883
575012.5625 4178601.75 307.100006104
