# .PCD v.7 - Point Cloud Data file format
VERSION .7
FIELDS x y z
SIZE 4 4 4
TYPE F F F
COUNT 1 1 1
WIDTH 341
HEIGHT 1
VIEWPOINT 0 0 0 1 0 0 0
POINTS 341
DATA ascii
575096.125 4178413.25 298.029998779
575096.125 4178413.25 298.059997559
575097.1875 4178413 298.160003662
575096.1875 4178413.75 298.140014648
575095.0625 4178414 297.920013428
575095.0625 4178414 297.950012207
575093.5 4178414.25 297.940002441
575093.5 4178414.25 297.929992676
575095.125 4178414.5 298
575095.125 4178414.5 298.029998779
575095.6875 4178414.25 298.089996338
575095.6875 4178414.25 298.119995117
575096.25 4178414.25 298.059997559
575096.25 4178414.25 298.029998779
575102.3125 4178414.75 298.260009766
575102.3125 4178414.75 298.25
575105.125 4178414.75 298.290008545
575105.125 4178414.75 298.260009766
575097.9375 4178415.25 298.010009766
575097.9375 4178415.25 298.029998779
575100.6875 4178415 298.190002441
575100.6875 4178415 298.209991455
575101.8125 4178415 298.149993896
575101.8125 4178415 298.130004883
575105.1875 4178415.25 298.239990234
575105.1875 4178415.25 298.260009766
575099.625 4178415.5 298.209991455
575102.375 4178415.25 298.089996338
575102.375 4178415.25 298.079986572
575103.5625 4178415.75 298.25
575104.6875 4178415.75 298.209991455
575104.6875 4178415.75 298.179992676
575101.3125 4178416 298.029998779
575101.3125 4178416 298.059997559
575102.4375 4178416 298.130004883
575102.4375 4178416 298.109985352
575107.0625 4178416 298.320007324
575096.9375 4178416.25 298
575096.9375 4178416.25 298.029998779
575098.0625 4178416.25 297.950012207
575102.5 4178416.5 297.989990234
575103.5625 4178416.25 298.269989014
575097.5 4178416.5 298.040008545
575097.5 4178416.5 298.010009766
575099.1875 4178416.75 297.970001221
575099.1875 4178416.75 297.989990234
575099.75 4178416.75 297.989990234
575099.75 4178416.75 297.980010986
575100.3125 4178416.75 298.140014648
575100.3125 4178416.75 298.119995117
575100.8125 4178416.75 298.059997559
575100.8125 4178416.75 298.089996338
575101.375 4178416.5 298
575103.625 4178417 298.190002441
575103.625 4178417 298.209991455
575101.4375 4178417.25 297.980010986
575102.5 4178417 298.25
575102.5 4178417 298.230010986
575105.3125 4178417 298.149993896
575105.3125 4178417 298.119995117
575105.9375 4178417 298.269989014
575105.9375 4178417 298.25
575106.5625 4178417.25 298.279998779
575106.5625 4178417.25 298.260009766
575098.125 4178417.5 297.940002441
575099.25 4178417.5 298.179992676
575099.25 4178417.5 298.149993896
575102 4178417.25 298.200012207
575102 4178417.25 298.179992676
575102.5625 4178417.75 298.179992676
575102.5625 4178417.75 298.149993896
575103.6875 4178417.5 298.049987793
575103.6875 4178417.5 298.040008545
575104.8125 4178417.5 298.179992676
575104.8125 4178417.5 298.170013428
575105.375 4178417.5 298.149993896
575105.375 4178417.5 298.179992676
575106 4178417.5 298.230010986
575106 4178417.5 298.209991455
575102.0625 4178418 298.089996338
575102.0625 4178418 298.070007324
575103.125 4178417.75 298.079986572
575103.1875 4178417.75 298.049987793
575103.75 4178418 298.029998779
575103.75 4178418 298.010009766
575105.4375 4178418 298.25
575105.4375 4178418 298.279998779
575098.75 4178418.5 297.940002441
575101.5 4178418.25 298.010009766
575101.5 4178418.25 297.989990234
575104.3125 4178418.5 298.269989014
575106.0625 4178418.25 298.130004883
575106.0625 4178418.25 298.109985352
575106.625 4178418.5 298.299987793
575110.25 4178418.25 298.339996338
575110.25 4178418.25 298.320007324
575097.125 4178418.75 297.959991455
575097.125 4178418.75 297.940002441
575103.8125 4178418.75 298.019989014
575103.8125 4178418.75 298.029998779
575102.125 4178419 298.040008545
575102.125 4178419 298.019989014
575104.375 4178419 298.010009766
575104.375 4178419 298.019989014
575106.6875 4178419 298.25
575106.6875 4178419 298.269989014
575107.875 4178419 298.320007324
575101.625 4178419.5 297.980010986
575106.75 4178419.5 298.239990234
575106.75 4178419.5 298.269989014
575107.9375 4178419.75 298.119995117
575107.9375 4178419.75 298.089996338
575109.125 4178419.25 298.320007324
575109.125 4178419.25 298.350006104
575109.75 4178419.75 298.25
575109.75 4178419.75 298.230010986
575110.3125 4178419.5 298.209991455
575110.3125 4178419.5 298.239990234
575105 4178419.75 298.130004883
575105 4178419.75 298.100006104
575105.5625 4178419.75 298.119995117
575105.5625 4178419.75 298.109985352
575109.1875 4178420 298.149993896
575109.1875 4178420 298.130004883
575110.375 4178420 298.279998779
575110.375 4178420 298.260009766
575105.625 4178420.5 298.059997559
575105.625 4178420.5 298.079986572
575106.25 4178420.5 298.029998779
575106.8125 4178420.25 298.059997559
575106.8125 4178420.25 298.079986572
575108 4178420.25 298.299987793
575108 4178420.25 298.320007324
575108.625 4178420.5 298.309997559
575108.625 4178420.5 298.269989014
575109.8125 4178420.25 298.109985352
575109.8125 4178420.25 298.130004883
575103.375 4178420.75 298.049987793
575103.375 4178420.75 298.019989014
575104.5 4178420.75 298.149993896
575104.5 4178420.75 298.109985352
575107.4375 4178420.5 298.220001221
575107.4375 4178420.5 298.230010986
575108.0625 4178420.75 298.269989014
575108.0625 4178420.75 298.239990234
575111.0625 4178420.5 298.140014648
575111.0625 4178420.5 298.170013428
575104 4178421 298.029998779
575104 4178421 298.059997559
575111.6875 4178421 298.390014648
575112.3125 4178421 298.149993896
575112.3125 4178421 298.130004883
575112.875 4178421.25 298.390014648
575112.875 4178421.25 298.369995117
575113.5 4178421.25 298.380004883
575113.5 4178421.25 298.390014648
575114.125 4178421 298.260009766
575114.125 4178421 298.239990234
575099.625 4178422 297.989990234
575099.625 4178422 297.970001221
575102.9375 4178421.75 297.970001221
575109.9375 4178422 298.100006104
575109.9375 4178422 298.070007324
575111.125 4178421.75 298.350006104
575111.125 4178421.75 298.320007324
575101.875 4178422.5 297.970001221
575101.875 4178422.5 297.980010986
575103.5625 4178422.5 298.010009766
575103.5625 4178422.5 297.989990234
575107.625 4178422.25 298.040008545
575108.75 4178422.25 298.170013428
575108.8125 4178422.25 298.140014648
575110.5625 4178422.25 298.239990234
575110.5625 4178422.25 298.220001221
575111.75 4178422.25 298.190002441
575111.75 4178422.25 298.179992676
575099.6875 4178422.75 297.929992676
575106.4375 4178422.75 298.190002441
575106.4375 4178422.75 298.200012207
575108.1875 4178422.5 298.160003662
575108.1875 4178422.5 298.179992676
575110 4178422.5 298.260009766
575110 4178422.5 298.279998779
575099.75 4178423.25 298.119995117
575099.75 4178423.25 298.089996338
575103.5625 4178423 298.140014648
575103.5625 4178423 298.119995117
575107.0625 4178423 298.029998779
575107.0625 4178423 298.070007324
575107.6875 4178423 298.220001221
575107.6875 4178423 298.209991455
575108.25 4178423.25 298.279998779
575108.25 4178423.25 298.309997559
575103.0625 4178423.5 298.059997559
575103.0625 4178423.5 298.079986572
575103.625 4178423.5 298.149993896
575103.625 4178423.5 298.109985352
575106.5 4178423.25 298.209991455
575106.5 4178423.25 298.170013428
575107.6875 4178423.5 298.160003662
575107.6875 4178423.5 298.190002441
575109.5 4178423.5 298.290008545
575109.5 4178423.5 298.309997559
575099.75 4178423.75 298
575099.75 4178423.75 298.019989014
575100.875 4178423.75 297.970001221
575100.875 4178423.75 297.950012207
575102.5 4178423.75 298.049987793
575102.5 4178423.75 298.029998779
575104.25 4178423.75 297.980010986
575105.375 4178424 298.029998779
575105.375 4178424 298.059997559
575105.9375 4178424 298.279998779
575106.5625 4178424 298.190002441
575106.5625 4178424 298.200012207
575108.3125 4178423.75 298.179992676
575108.3125 4178423.75 298.160003662
575110.0625 4178423.75 298.309997559
575110.0625 4178423.75 298.329986572
575100.375 4178424.25 298.029998779
575100.375 4178424.5 298.010009766
575102.5625 4178424.25 298.140014648
575102.5625 4178424.25 298.149993896
575103.125 4178424 298.040008545
575103.125 4178424 298.029998779
575103.6875 4178424.25 298.059997559
575103.6875 4178424.25 298.029998779
575104.25 4178424.5 298.059997559
575104.3125 4178424.5 298.029998779
575104.8125 4178424.25 297.980010986
575104.8125 4178424.25 298.019989014
575107.125 4178424.25 298.309997559
575107.75 4178424 298.200012207
575107.75 4178424 298.220001221
575108.3125 4178424.25 298.279998779
575108.3125 4178424.25 298.290008545
575103.1875 4178424.75 297.980010986
575103.1875 4178424.75 298
575105.4375 4178424.5 298.100006104
575105.4375 4178424.5 298.089996338
575106.625 4178424.5 298.140014648
575106.625 4178424.5 298.109985352
575107.1875 4178424.75 298.299987793
575109.5625 4178424.75 298.329986572
575101.5 4178425 297.980010986
575101.5 4178425 298
575102.625 4178425 298.230010986
575103.1875 4178425.25 298.049987793
575103.25 4178425.25 298.010009766
575105.5 4178425 298
575106 4178425 298.040008545
575106 4178425 298.049987793
575106.625 4178425.25 298.230010986
575106.625 4178425.25 298.260009766
575094.9375 4178425.5 297.989990234
575094.9375 4178425.5 297.980010986
575099.3125 4178425.5 297.940002441
575099.3125 4178425.5 297.929992676
575101.5625 4178425.5 298.070007324
575101.5625 4178425.5 298.040008545
575102.125 4178425.25 298.220001221
575103.75 4178425.5 298.190002441
575103.75 4178425.5 298.179992676
575105.5 4178425.5 298.119995117
575105.5 4178425.5 298.089996338
575107.25 4178425.5 298.279998779
575107.25 4178425.5 298.290008545
575098.8125 4178425.75 297.910003662
575098.8125 4178425.75 297.940002441
575099.375 4178426 297.920013428
575102.125 4178425.75 298.179992676
575102.125 4178425.75 298.149993896
575095 4178426.25 298
575095 4178426.25 298.019989014
575097.75 4178426.25 298.059997559
575097.75 4178426.25 298.079986572
575098.875 4178426.25 297.920013428
575100.5 4178426 298.040008545
575100.5 4178426 298.059997559
575101.625 4178426.25 298.160003662
575101.625 4178426.25 298.130004883
575102.6875 4178426 298.130004883
575102.6875 4178426 298.119995117
575096.6875 4178426.5 298.010009766
575096.6875 4178426.5 297.980010986
575097.25 4178426.5 297.980010986
575097.25 4178426.5 297.950012207
575098.3125 4178426.5 297.929992676
575098.3125 4178426.5 297.950012207
575098.9375 4178426.75 298.100006104
575098.9375 4178426.75 298.119995117
575091.375 4178427.25 297.829986572
575096.75 4178427 298.010009766
575096.75 4178427 297.980010986
575098.375 4178427 298.029998779
575098.375 4178427 298.029998779
575094 4178427.5 297.989990234
575094 4178427.5 297.959991455
575095.0625 4178427.25 298.010009766
575095.0625 4178427.25 297.989990234
575095.625 4178427.25 297.970001221
575095.625 4178427.25 297.980010986
575098.9375 4178427.5 298.160003662
575095.125 4178428 298.100006104
575095.6875 4178428 298.089996338
575095.6875 4178428 298.109985352
575096.75 4178427.75 298.109985352
575096.75 4178427.75 298.089996338
575088.75 4178428.5 297.779998779
575088.75 4178428.5 297.790008545
575090.875 4178428.25 297.820007324
575090.875 4178428.25 297.799987793
575091.9375 4178428.25 297.929992676
575091.9375 4178428.25 297.940002441
575093.5625 4178428.25 297.929992676
575093.5625 4178428.25 297.950012207
575094.0625 4178428 297.989990234
575094.0625 4178428 297.980010986
575094.625 4178428.25 297.959991455
575094.625 4178428.25 297.929992676
575097.9375 4178428 298.059997559
575097.9375 4178428 298.040008545
575093.625 4178428.75 298.059997559
575093.625 4178428.75 298.070007324
575087.75 4178429 297.760009766
575088.25 4178429 297.839996338
575088.25 4178429 297.829986572
575088.8125 4178429 297.880004883
575088.8125 4178429 297.899993896
575090.4375 4178429 297.809997559
575090.9375 4178428.75 297.989990234
575091.5 4178429 297.940002441
575091.5 4178429 297.950012207
575093.0625 4178428.75 298.059997559
575088.3125 4178429.5 297.910003662
575089.375 4178429.25 297.920013428
575089.375 4178429.25 297.890014648
575089.9375 4178429.5 297.880004883
575089.9375 4178429.5 297.899993896
575089.4375 4178429.75 297.910003662
575089.4375 4178429.75 297.869995117
