# .PCD v.7 - Point Cloud Data file format
VERSION .7
FIELDS x y z
SIZE 4 4 4
TYPE F F F
COUNT 1 1 1
WIDTH 1377
HEIGHT 1
VIEWPOINT 0 0 0 1 0 0 0
POINTS 1377
DATA ascii
574944.375 4178690 293.100006104
574944.4375 4178690.25 293.190002441
574944.4375 4178690.25 293.170013428
574945.375 4178690 293.179992676
574945.375 4178690 293.190002441
574945.4375 4178690 292.970001221
574945.4375 4178690 292.950012207
574945.5 4178690.25 292.899993896
574945.5 4178690.25 292.910003662
574946.375 4178690 292.980010986
574946.375 4178690 293
574946.4375 4178690 293.029998779
574946.4375 4178690 293.059997559
574946.5 4178690 293
574946.5 4178690 292.980010986
574946.5 4178690.25 292.910003662
574946.5 4178690.25 292.929992676
574947.4375 4178690.25 292.950012207
574947.4375 4178690.25 292.940002441
574947.4375 4178690.25 292.940002441
574947.4375 4178690.25 292.950012207
574947.4375 4178690 293.029998779
574947.4375 4178690 293.029998779
574947.5625 4178690.25 292.869995117
574947.5625 4178690.25 292.899993896
574948.375 4178690 293.019989014
574948.375 4178690 293.010009766
574948.4375 4178690 292.850006104
574948.4375 4178690 292.820007324
574957.25 4178690.25 293.480010986
574957.25 4178690 293.290008545
574957.25 4178690 293.279998779
574957.3125 4178690.25 293.470001221
574957.3125 4178690 293.519989014
574957.3125 4178690 293.510009766
574957.6875 4178690.25 293.279998779
574957.6875 4178690.25 293.260009766
574957.875 4178690.25 293.640014648
574957.875 4178690.25 293.619995117
574958.25 4178690 293.529998779
574958.25 4178690 293.559997559
574958.3125 4178690 293.709991455
574958.3125 4178690 293.690002441
574959.25 4178690 293.329986572
574959.25 4178690 293.299987793
574959.3125 4178690 293.350006104
574959.3125 4178690 293.359985352
574939.1875 4178690.5 293.290008545
574939.1875 4178690.5 293.309997559
574939.375 4178690.25 293.140014648
574939.375 4178690.25 293.160003662
574940.1875 4178690.5 293.260009766
574940.1875 4178690.5 293.230010986
574940.3125 4178690.5 293.160003662
574940.3125 4178690.5 293.170013428
574940.5 4178690.5 292.980010986
574940.5 4178690.5 292.980010986
574941.1875 4178690.5 293.160003662
574941.1875 4178690.5 293.190002441
574941.3125 4178690.5 293.049987793
574941.3125 4178690.5 293.070007324
574941.375 4178690.5 293.290008545
574941.375 4178690.5 293.269989014
574941.4375 4178690.25 293.109985352
574941.4375 4178690.25 293.089996338
574941.5 4178690.5 293.200012207
574941.5 4178690.5 293.230010986
574942.3125 4178690.5 293.170013428
574942.3125 4178690.5 293.190002441
574942.4375 4178690.5 293.070007324
574942.4375 4178690.5 293.089996338
574942.5 4178690.5 293.029998779
574942.5 4178690.5 293.049987793
574943.3125 4178690.5 292.910003662
574943.3125 4178690.5 292.899993896
574943.4375 4178690.5 292.980010986
574943.4375 4178690.5 293
574943.5 4178690.5 293.25
574943.5 4178690.5 293.220001221
574944.25 4178690.25 293.070007324
574944.25 4178690.25 293.029998779
574944.375 4178690.5 293.010009766
574944.375 4178690.5 292.989990234
574944.4375 4178690.5 293.079986572
574944.4375 4178690.5 293.049987793
574944.5 4178690.5 293.040008545
574944.5 4178690.5 293.010009766
574945.3125 4178690.5 293.260009766
574945.3125 4178690.5 293.230010986
574945.4375 4178690.25 293.119995117
574945.4375 4178690.25 293.140014648
574945.4375 4178690.25 293.140014648
574945.4375 4178690.25 293.130004883
574945.5 4178690.5 293.089996338
574945.5 4178690.5 293.079986572
574946.3125 4178690.5 293.059997559
574946.3125 4178690.5 293.089996338
574946.4375 4178690.5 292.929992676
574946.4375 4178690.5 292.899993896
574946.5 4178690.5 293.040008545
574946.5 4178690.5 293.059997559
574946.5 4178690.75 293.119995117
574947.4375 4178690.5 292.829986572
574947.4375 4178690.5 292.839996338
574947.5 4178690.25 292.880004883
574947.5 4178690.25 292.859985352
574947.5 4178690.75 292.75
574947.5 4178690.75 292.769989014
574948.375 4178690.5 293.119995117
574948.375 4178690.5 293.089996338
574948.4375 4178690.5 293.649993896
574948.5 4178690.25 292.880004883
574948.5 4178690.25 292.859985352
574958.25 4178690.25 293.609985352
574958.25 4178690.25 293.589996338
574958.3125 4178690.25 293.410003662
574958.375 4178690.25 293.390014648
574958.875 4178690.5 293.489990234
574958.875 4178690.5 293.480010986
574958.9375 4178690.5 293.260009766
574958.9375 4178690.5 293.230010986
574959.3125 4178690.5 293.320007324
574959.3125 4178690.5 293.329986572
574938.375 4178691 293.190002441
574938.375 4178691 293.170013428
574938.4375 4178691 293.269989014
574940.125 4178690.75 293.079986572
574940.125 4178691 293.100006104
574940.5 4178690.75 293.119995117
574940.5 4178690.75 293.100006104
574941.125 4178691 292.950012207
574941.125 4178691 292.920013428
574941.25 4178691 293.059997559
574941.25 4178691 293.040008545
574941.4375 4178690.75 293.230010986
574941.4375 4178690.75 293.25
574941.5 4178691 293.25
574941.5 4178691 293.220001221
574942.125 4178690.75 293.170013428
574942.125 4178690.75 293.149993896
574942.4375 4178690.75 293.25
574942.4375 4178690.75 293.230010986
574942.4375 4178691 293.239990234
574942.4375 4178691 293.220001221
574942.5 4178690.75 293.070007324
574942.5 4178690.75 293.079986572
574943.125 4178690.75 293
574943.125 4178690.75 293.019989014
574943.4375 4178690.75 293.019989014
574943.4375 4178690.75 293
574943.4375 4178691 293.160003662
574943.4375 4178691 293.140014648
574943.5 4178691 293.130004883
574943.5 4178691 293.109985352
574944.1875 4178690.75 292.890014648
574944.1875 4178690.75 292.869995117
574944.25 4178691 292.869995117
574944.25 4178691 292.890014648
574944.4375 4178690.75 293.040008545
574944.4375 4178690.75 293.049987793
574944.5 4178690.75 293.040008545
574944.5 4178690.75 293.019989014
574945.25 4178690.75 292.970001221
574945.25 4178690.75 293
574945.375 4178690.75 293.040008545
574945.375 4178690.75 293.070007324
574945.4375 4178690.75 293.179992676
574945.4375 4178690.75 293.149993896
574945.5 4178690.75 293.149993896
574945.5 4178690.75 293.140014648
574946.3125 4178691 293.260009766
574946.3125 4178691 293.279998779
574946.4375 4178690.75 292.850006104
574946.4375 4178690.75 292.880004883
574946.5 4178691 292.869995117
574946.5 4178691 292.850006104
574946.5 4178690.75 293.100006104
574946.5 4178691 293.059997559
574946.5 4178691 293.070007324
574947.4375 4178691 293
574947.4375 4178691 292.959991455
574947.5 4178691 292.869995117
574947.5 4178691 292.890014648
574957.625 4178690.75 293.109985352
574957.625 4178690.75 293.089996338
574957.8125 4178690.75 293.359985352
574957.8125 4178690.75 293.350006104
574958.3125 4178690.75 293.299987793
574958.3125 4178690.75 293.309997559
574958.375 4178690.75 293.239990234
574958.375 4178690.75 293.25
574958.375 4178691 293.380004883
574958.375 4178691 293.359985352
574937 4178691.25 293.209991455
574937 4178691.25 293.179992676
574938.0625 4178691.5 293.260009766
574938.0625 4178691.5 293.25
574938.1875 4178691.25 292.980010986
574938.1875 4178691.25 293
574939.25 4178691 293.100006104
574939.25 4178691 293.119995117
574939.4375 4178691.25 293.320007324
574939.5 4178691.5 293.309997559
574940.0625 4178691.5 293.190002441
574940.0625 4178691.5 293.209991455
574940.25 4178691.25 293.239990234
574940.25 4178691.25 293.260009766
574940.4375 4178691.25 293.040008545
574940.5 4178691.25 293.010009766
574940.5 4178691 293.239990234
574940.5 4178691 293.260009766
574940.5 4178691.5 293.059997559
574940.5 4178691.5 293.040008545
574941.0625 4178691.5 293.200012207
574941.0625 4178691.5 293.220001221
574941.4375 4178691.25 293.079986572
574941.4375 4178691.25 293.059997559
574941.5 4178691.25 293.010009766
574941.5 4178691.25 292.989990234
574942.0625 4178691.25 293.200012207
574942.0625 4178691.25 293.190002441
574942.1875 4178691.25 293.079986572
574942.1875 4178691.25 293.100006104
574942.4375 4178691.5 293.320007324
574942.5 4178691.5 293.309997559
574942.5 4178691.25 293.440002441
574942.5 4178691.25 293.410003662
574942.5625 4178691.25 292.920013428
574942.5625 4178691.25 292.929992676
574943.0625 4178691.25 293.160003662
574943.0625 4178691.25 293.190002441
574943.25 4178691 293.119995117
574943.25 4178691 293.140014648
574943.5 4178691.5 293.079986572
574943.5 4178691.5 293.059997559
574943.5625 4178691.25 292.720001221
574943.5625 4178691.25 292.739990234
574944.125 4178691.25 293.049987793
574944.125 4178691.25 293.079986572
574944.4375 4178691.25 293.160003662
574944.4375 4178691.25 293.200012207
574944.5 4178691.25 292.980010986
574944.5 4178691.25 293
574945.1875 4178691.25 293.079986572
574945.1875 4178691.25 293.109985352
574945.3125 4178691.5 292.920013428
574945.3125 4178691.5 292.940002441
574945.4375 4178691.25 293.339996338
574945.4375 4178691.5 293.320007324
574945.5 4178691.25 292.910003662
574945.5 4178691.25 292.929992676
574945.5625 4178691.25 292.690002441
574945.5625 4178691.25 292.700012207
574946.375 4178691.5 292.799987793
574946.375 4178691.5 292.790008545
574946.5 4178691.25 292.989990234
574946.5 4178691.25 292.970001221
574946.5625 4178691.5 292.839996338
574946.5625 4178691.5 292.869995117
574947.4375 4178691.25 293.290008545
574947.4375 4178691.25 293.260009766
574947.5 4178691.25 293.510009766
574947.5 4178691.25 293.489990234
574947.5 4178691.25 293.160003662
574947.5 4178691.25 293.140014648
574957.625 4178691.5 293.940002441
574957.625 4178691.5 293.920013428
574958.3125 4178691 293.600006104
574958.3125 4178691 293.600006104
574958.375 4178691.25 293.450012207
574958.375 4178691.25 293.429992676
574935.9375 4178691.75 293.190002441
574936.0625 4178691.75 293.200012207
574936.375 4178691.75 293.160003662
574936.375 4178691.75 293.130004883
574936.9375 4178691.75 293.209991455
574937.4375 4178691.75 293.25
574938.375 4178691.75 293.220001221
574938.375 4178691.75 293.200012207
574939.0625 4178691.5 293.170013428
574939.0625 4178691.5 293.140014648
574939.1875 4178691.75 293.309997559
574939.4375 4178691.75 293.290008545
574939.4375 4178691.75 293.320007324
574940 4178691.75 293.040008545
574940 4178691.75 293.059997559
574940.1875 4178691.75 293.320007324
574940.1875 4178691.75 293.299987793
574940.5 4178691.75 293.059997559
574940.5 4178691.75 293.089996338
574940.5625 4178691.75 292.959991455
574940.5625 4178691.75 292.989990234
574941.125 4178691.75 293.160003662
574941.125 4178691.75 293.179992676
574941.5 4178691.5 293.149993896
574941.5 4178691.5 293.160003662
574941.5 4178691.75 293.220001221
574941.5 4178691.75 293.239990234
574941.5625 4178691.75 293.220001221
574941.5625 4178691.5 293.029998779
574941.5625 4178691.75 293.179992676
574941.5625 4178691.5 293
574942 4178691.75 293.260009766
574942 4178691.75 293.230010986
574942.125 4178691.75 293.269989014
574942.125 4178691.75 293.299987793
574942.5 4178691.75 293.220001221
574942.5 4178691.75 293.190002441
574942.5625 4178691.75 293.070007324
574942.5625 4178691.75 293.059997559
574943 4178691.75 292.980010986
574943 4178691.75 292.970001221
574943.1875 4178691.75 293.140014648
574943.1875 4178691.75 293.130004883
574943.5625 4178691.75 292.850006104
574943.5625 4178691.75 292.880004883
574943.5625 4178691.5 292.839996338
574943.5625 4178691.75 293
574943.5625 4178691.5 292.859985352
574943.5625 4178691.75 293.019989014
574944.0625 4178691.75 293.140014648
574944.0625 4178691.75 293.160003662
574944.1875 4178691.5 292.929992676
574944.1875 4178691.5 292.959991455
574944.5 4178691.5 292.869995117
574944.5 4178691.5 292.850006104
574944.5625 4178691.5 292.75
574944.5625 4178691.5 292.730010986
574944.5625 4178691.75 292.779998779
574944.5625 4178691.75 292.75
574945.125 4178691.75 292.959991455
574945.125 4178691.75 292.940002441
574945.5 4178691.75 293
574945.5 4178691.75 292.970001221
574945.5625 4178691.5 292.880004883
574945.5625 4178691.5 292.859985352
574945.5625 4178691.75 292.730010986
574945.5625 4178691.75 292.760009766
574946.125 4178691.75 292.649993896
574946.25 4178691.5 293.079986572
574946.25 4178691.5 293.089996338
574946.5 4178691.75 292.760009766
574946.5 4178691.75 292.769989014
574946.5625 4178691.75 292.820007324
574946.5625 4178691.75 292.809997559
574947.5 4178691.5 293.260009766
574947.5 4178691.5 293.239990234
574958.375 4178691.75 293.640014648
574958.375 4178691.75 293.619995117
574958.375 4178691.5 293.369995117
574958.375 4178691.5 293.350006104
574958.4375 4178691.5 293.420013428
574958.4375 4178691.5 293.410003662
574936.375 4178692 293.209991455
574938 4178692 293.230010986
574938 4178692 293.25
574938.5 4178692 293.140014648
574938.5 4178692 293.109985352
574938.5 4178692.25 293.160003662
574938.5 4178692.25 293.140014648
574939 4178692 293.209991455
574939 4178692 293.220001221
574939.0625 4178692.25 292.959991455
574939.0625 4178692.25 292.980010986
574939.5 4178692.25 293.049987793
574939.5 4178692.25 293.019989014
574939.5 4178692 293.209991455
574939.5625 4178692 293.179992676
574940.5 4178692 292.989990234
574940.5 4178692 292.980010986
574940.5625 4178692 292.880004883
574940.5625 4178692 292.869995117
574941 4178692 293.040008545
574941 4178692 293.019989014
574941.5 4178692.25 293.290008545
574941.5 4178692.25 293.279998779
574941.5625 4178692 293.070007324
574941.5625 4178692.25 293.049987793
574941.9375 4178692 292.980010986
574941.9375 4178692 293
574942.5625 4178692.25 293.019989014
574942.5625 4178692.25 293
574942.5625 4178692 293.190002441
574942.5625 4178692 293.170013428
574942.9375 4178692.25 293.079986572
574942.9375 4178692.25 293.059997559
574943.5625 4178692.25 292.950012207
574943.5625 4178692.25 292.920013428
574943.625 4178692.25 292.700012207
574943.625 4178692.25 292.720001221
574944 4178692.25 292.940002441
574944 4178692.25 292.910003662
574944.125 4178692.25 292.980010986
574944.125 4178692.25 292.950012207
574944.5 4178692 292.859985352
574944.5 4178692 292.869995117
574944.5 4178692.25 293.059997559
574944.5625 4178692.25 293.040008545
574944.625 4178692 292.859985352
574944.625 4178692 292.880004883
574945.25 4178692 292.850006104
574945.25 4178692 292.869995117
574945.5 4178692.25 293.079986572
574945.5 4178692 293.089996338
574945.5625 4178692 293.119995117
574945.5625 4178692 293.100006104
574946.125 4178691.75 292.679992676
574946.25 4178692 292.709991455
574946.3125 4178692 292.739990234
574946.5625 4178692.25 293.140014648
574946.5625 4178692.25 293.119995117
574946.5625 4178692 292.690002441
574946.5625 4178692 292.720001221
574946.625 4178692 292.869995117
574946.625 4178692 292.890014648
574951.75 4178692 293.480010986
574951.75 4178692 293.470001221
574951.9375 4178692 293.679992676
574951.9375 4178692 293.660003662
574937.4375 4178692.5 293.130004883
574937.4375 4178692.5 293.109985352
574937.9375 4178692.25 293.049987793
574937.9375 4178692.25 293.029998779
574938.0625 4178692.5 293.230010986
574938.0625 4178692.5 293.25
574938.4375 4178692.25 293.260009766
574938.4375 4178692.25 293.239990234
574938.5 4178692.5 293.119995117
574938.5 4178692.5 293.140014648
574938.9375 4178692.5 293.160003662
574938.9375 4178692.5 293.190002441
574939.5 4178692.5 293.220001221
574939.5 4178692.5 293.200012207
574939.5625 4178692.5 293.089996338
574939.5625 4178692.5 293.070007324
574939.9375 4178692.25 293.130004883
574939.9375 4178692.25 293.109985352
574940.0625 4178692.25 293.170013428
574940.0625 4178692.25 293.190002441
574940.5 4178692.25 293.029998779
574940.5 4178692.25 293.049987793
574940.625 4178692.5 292.920013428
574940.625 4178692.5 292.899993896
574940.625 4178692.75 292.970001221
574940.625 4178692.75 292.940002441
574940.9375 4178692.5 293.100006104
574940.9375 4178692.5 293.130004883
574941.5625 4178692.25 293.329986572
574941.5625 4178692.25 293.350006104
574941.625 4178692.75 293.279998779
574941.625 4178692.75 293.279998779
574941.875 4178692.5 292.880004883
574941.875 4178692.5 292.910003662
574942.0625 4178692.25 293.059997559
574942.0625 4178692.25 293.079986572
574942.5625 4178692.5 292.980010986
574942.5625 4178692.5 293
574942.5625 4178692.25 293.160003662
574942.5625 4178692.25 293.130004883
574942.875 4178692.75 292.850006104
574943.125 4178692.25 293.260009766
574943.125 4178692.25 293.230010986
574943.5625 4178692.5 293.079986572
574943.5625 4178692.5 293.059997559
574943.625 4178692.5 292.920013428
574943.625 4178692.5 292.940002441
574944.5625 4178692.5 293.040008545
574944.5625 4178692.5 293.019989014
574944.625 4178692.25 292.950012207
574944.625 4178692.25 292.959991455
574945.0625 4178692.25 292.940002441
574945.0625 4178692.25 292.970001221
574945.125 4178692.5 292.940002441
574945.125 4178692.5 292.920013428
574945.5625 4178692.5 292.880004883
574945.5625 4178692.5 292.850006104
574945.625 4178692.5 292.859985352
574945.625 4178692.5 292.839996338
574946.0625 4178692.5 292.910003662
574946.0625 4178692.5 292.929992676
574946.1875 4178692.5 292.609985352
574946.1875 4178692.5 292.589996338
574946.5625 4178692.75 292.850006104
574946.5625 4178692.75 292.820007324
574946.625 4178692.25 292.859985352
574946.625 4178692.25 292.880004883
574946.625 4178692.5 292.799987793
574946.625 4178692.5 292.820007324
574947.5625 4178692.5 293.510009766
574947.5625 4178692.5 293.529998779
574952.5 4178692.5 293.049987793
574936.375 4178692.75 293.070007324
574936.375 4178692.75 293.049987793
574936.5 4178693 293.059997559
574936.5 4178693 293.070007324
574936.8125 4178692.75 293.089996338
574936.8125 4178692.75 293.109985352
574937.4375 4178692.75 293.209991455
574937.4375 4178692.75 293.179992676
574937.8125 4178692.75 292.959991455
574937.8125 4178692.75 292.980010986
574937.9375 4178693 293.079986572
574937.9375 4178693 293.059997559
574938.5625 4178692.75 293.089996338
574938.5625 4178692.75 293.059997559
574938.875 4178693 292.980010986
574938.875 4178693 293
574939 4178692.75 293.179992676
574939 4178692.75 293.200012207
574939.5 4178692.75 293.140014648
574939.5 4178692.75 293.149993896
574939.5625 4178693 293.290008545
574939.5625 4178693 293.279998779
574939.625 4178692.75 292.880004883
574939.625 4178692.75 292.859985352
574939.875 4178692.75 292.950012207
574939.875 4178692.75 292.929992676
574940 4178692.75 293.019989014
574940 4178692.75 293
574940.5625 4178692.75 292.989990234
574940.5625 4178692.75 292.970001221
574940.5625 4178693 292.950012207
574940.5625 4178693 292.970001221
574940.625 4178693 292.959991455
574940.625 4178693 292.950012207
574940.875 4178692.75 292.790008545
574940.875 4178692.75 292.829986572
574941 4178692.75 293.170013428
574941 4178692.75 293.190002441
574941.5625 4178693 293.070007324
574941.5625 4178693 293.029998779
574941.625 4178693 293.160003662
574941.625 4178693 293.190002441
574942 4178692.75 292.929992676
574942 4178692.75 292.910003662
574942.5625 4178692.75 293.070007324
574942.5625 4178692.75 293.089996338
574942.625 4178692.75 292.880004883
574942.625 4178692.75 292.899993896
574942.6875 4178693 292.769989014
574942.6875 4178693 292.790008545
574942.875 4178692.75 292.880004883
574943 4178692.75 293.059997559
574943 4178692.75 293.070007324
574943.625 4178692.75 292.959991455
574943.625 4178692.75 292.950012207
574943.625 4178692.75 293.100006104
574943.625 4178692.75 293.079986572
574943.625 4178693 293.040008545
574943.625 4178693 293.070007324
574943.9375 4178692.75 292.980010986
574943.9375 4178692.75 292.959991455
574944.0625 4178692.75 292.869995117
574944.0625 4178692.75 292.850006104
574944.625 4178693 292.829986572
574944.625 4178693 292.809997559
574944.6875 4178692.75 292.570007324
574944.6875 4178692.75 292.529998779
574944.6875 4178693 292.630004883
574944.6875 4178693 292.609985352
574945 4178692.75 292.950012207
574945 4178692.75 292.980010986
574945.5625 4178693 293.309997559
574945.625 4178693 292.679992676
574945.625 4178693 292.660003662
574945.625 4178692.75 292.790008545
574945.625 4178692.75 292.760009766
574945.625 4178693 292.890014648
574945.625 4178693 292.869995117
574946 4178693 292.829986572
574946 4178693 292.850006104
574946.5625 4178693 293.130004883
574946.5625 4178693 293.140014648
574946.625 4178692.75 292.920013428
574946.625 4178692.75 292.890014648
574949.375 4178692.75 293.299987793
574949.375 4178692.75 293.279998779
574936.4375 4178693 292.970001221
574936.4375 4178693 292.989990234
574936.4375 4178693.5 293.029998779
574936.4375 4178693.5 293.049987793
574936.5 4178693.25 292.970001221
574936.5 4178693.25 292.989990234
574936.75 4178693.25 293.040008545
574936.75 4178693.25 293.070007324
574937.5625 4178693.5 293.130004883
574937.5625 4178693.25 293.160003662
574937.75 4178693.25 292.980010986
574937.75 4178693.25 293
574938.5 4178693 292.989990234
574938.5 4178693 292.959991455
574938.5 4178693.5 293.059997559
574938.5625 4178693.5 293.040008545
574938.5625 4178693 293.149993896
574938.5625 4178693 293.130004883
574938.625 4178693.5 293
574938.625 4178693.5 293.019989014
574938.9375 4178693.25 292.989990234
574938.9375 4178693.25 292.980010986
574939.5625 4178693.25 293.010009766
574939.5625 4178693.25 292.989990234
574939.5625 4178693.5 293.109985352
574939.5625 4178693.5 293.119995117
574939.8125 4178693.25 293.25
574939.8125 4178693.25 293.220001221
574940.5625 4178693.25 293.119995117
574940.625 4178693.25 293.089996338
574940.625 4178693.25 293.070007324
574940.625 4178693.25 293.049987793
574940.8125 4178693.25 292.970001221
574940.8125 4178693.5 292.989990234
574940.9375 4178693.5 293.179992676
574940.9375 4178693.5 293.140014648
574941.5625 4178693.25 293.130004883
574941.625 4178693.25 293.109985352
574941.6875 4178693.25 292.920013428
574941.6875 4178693.25 292.890014648
574941.8125 4178693 292.929992676
574941.8125 4178693 292.950012207
574942.625 4178693.25 292.760009766
574942.625 4178693.25 292.779998779
574942.6875 4178693.5 293.109985352
574942.6875 4178693.25 292.920013428
574942.6875 4178693.25 292.929992676
574942.8125 4178693.25 292.850006104
574942.8125 4178693.25 292.839996338
574942.9375 4178693.5 293.089996338
574942.9375 4178693.5 293.100006104
574943.625 4178693.25 292.959991455
574943.625 4178693.25 292.929992676
574943.625 4178693.5 292.980010986
574943.625 4178693.5 292.959991455
574943.6875 4178693.25 292.869995117
574943.6875 4178693.25 292.899993896
574943.8125 4178693.25 292.700012207
574943.875 4178693.25 292.709991455
574944 4178693.25 292.820007324
574944 4178693.25 292.839996338
574944.625 4178693.25 292.839996338
574944.625 4178693.25 292.859985352
574944.6875 4178693.25 292.769989014
574944.6875 4178693.25 292.779998779
574944.9375 4178693.25 292.869995117
574944.9375 4178693.25 292.839996338
574945.0625 4178693.25 292.839996338
574945.0625 4178693.25 292.869995117
574945.5625 4178693 293.269989014
574945.625 4178693.5 293.260009766
574945.625 4178693.5 293.279998779
574945.6875 4178693.25 292.890014648
574945.6875 4178693.25 292.869995117
574946.125 4178693.25 292.839996338
574946.125 4178693 292.820007324
574946.625 4178693.25 292.970001221
574946.625 4178693.25 292.950012207
574946.6875 4178693.25 292.829986572
574946.6875 4178693.25 292.820007324
574946.6875 4178693.5 292.739990234
574949.5 4178693 293.649993896
574952.5625 4178693.25 292.959991455
574952.5625 4178693.25 292.989990234
574952.625 4178693.25 292.820007324
574952.625 4178693.25 292.809997559
574952.6875 4178693.25 292.679992676
574957.3125 4178693 292.880004883
574934.4375 4178693.75 293.149993896
574936.4375 4178693.75 293.220001221
574936.5 4178693.5 292.970001221
574936.5 4178693.5 292.950012207
574936.5 4178693.75 293.070007324
574936.5 4178693.75 293.049987793
574936.6875 4178693.75 293.200012207
574936.6875 4178693.75 293.209991455
574937.5 4178693.75 293.109985352
574937.5 4178693.75 293.089996338
574937.5625 4178693.75 293.119995117
574937.5625 4178693.75 293.149993896
574937.75 4178693.75 293.010009766
574937.75 4178693.75 292.989990234
574937.875 4178693.5 293.209991455
574937.875 4178693.5 293.230010986
574938.5625 4178693.75 293.089996338
574938.5625 4178693.75 293.119995117
574938.625 4178693.75 292.970001221
574938.625 4178693.75 293
574938.8125 4178693.5 293.170013428
574938.8125 4178693.5 293.149993896
574939.5625 4178693.75 293.200012207
574939.625 4178693.75 293.179992676
574939.625 4178693.5 293.089996338
574939.625 4178693.5 293.100006104
574939.625 4178693.75 293.220001221
574939.625 4178693.75 293.209991455
574939.75 4178693.75 293.239990234
574939.9375 4178693.5 293.230010986
574939.9375 4178693.5 293.239990234
574940.625 4178693.75 293
574940.625 4178693.75 292.970001221
574940.6875 4178693.5 292.959991455
574940.6875 4178693.5 292.940002441
574941.625 4178693.5 292.809997559
574941.625 4178693.5 292.839996338
574941.6875 4178693.5 293.070007324
574941.6875 4178693.75 293.179992676
574941.6875 4178693.75 293.160003662
574941.6875 4178693.5 293.040008545
574941.75 4178693.5 293.010009766
574941.75 4178693.5 293.029998779
574941.9375 4178693.5 293.109985352
574941.9375 4178693.5 293.089996338
574942.625 4178693.5 292.859985352
574942.625 4178693.5 292.880004883
574942.6875 4178693.75 292.929992676
574942.6875 4178693.75 292.950012207
574942.6875 4178693.5 293.089996338
574942.6875 4178693.75 292.890014648
574942.75 4178693.75 292.869995117
574942.75 4178693.75 292.850006104
574942.75 4178693.75 292.869995117
574943.625 4178693.75 293.040008545
574943.6875 4178693.75 293.010009766
574943.6875 4178693.75 293.040008545
574943.6875 4178693.5 292.859985352
574943.6875 4178693.5 292.869995117
574943.6875 4178693.75 293.040008545
574943.8125 4178693.75 292.829986572
574943.8125 4178693.75 292.839996338
574943.875 4178693.75 292.600006104
574943.875 4178693.75 292.570007324
574944.625 4178693.5 292.880004883
574944.625 4178693.5 292.910003662
574944.6875 4178693.5 292.929992676
574944.6875 4178693.5 292.899993896
574944.6875 4178693.75 292.809997559
574944.6875 4178693.75 292.839996338
574944.875 4178693.75 293
574944.875 4178693.75 292.970001221
574945.0625 4178693.75 293.339996338
574945.625 4178693.75 293.25
574945.625 4178693.75 293.230010986
574945.6875 4178693.5 292.980010986
574945.6875 4178693.5 292.970001221
574946.625 4178693.5 293.190002441
574946.625 4178693.5 293.220001221
574946.625 4178693.75 293.579986572
574946.625 4178693.75 293.589996338
574946.6875 4178693.75 293.079986572
574946.6875 4178693.75 293.049987793
574946.6875 4178693.5 292.730010986
574947 4178693.5 292.940002441
574947 4178693.5 292.970001221
574947.625 4178693.75 293.529998779
574947.625 4178693.75 293.529998779
574949.25 4178693.75 292.920013428
574949.25 4178693.75 292.950012207
574949.375 4178693.5 292.790008545
574949.4375 4178693.5 292.820007324
574949.6875 4178693.75 292.529998779
574949.6875 4178693.75 292.549987793
574950.3125 4178693.75 292.880004883
574952.5625 4178693.5 292.989990234
574952.5625 4178693.5 292.970001221
574952.625 4178693.5 293.190002441
574952.625 4178693.5 293.220001221
574953.5625 4178693.5 293.390014648
574953.5625 4178693.5 293.359985352
574953.625 4178693.75 293.130004883
574953.625 4178693.75 293.109985352
574956.5625 4178693.75 293.119995117
574956.5625 4178693.5 293.390014648
574956.5625 4178693.5 293.369995117
574935.5 4178694.25 293.160003662
574935.5 4178694.25 293.190002441
574936.5 4178694 293.059997559
574936.5 4178694 293.079986572
574936.5625 4178694 293.109985352
574936.5625 4178694 293.089996338
574936.5625 4178694.25 293.160003662
574936.625 4178694.25 293.029998779
574936.625 4178694.25 293.049987793
574937.5625 4178694.25 293.010009766
574937.5625 4178694.25 293.029998779
574937.5625 4178694 293.239990234
574937.5625 4178693.75 293.25
574937.625 4178694.25 293.049987793
574937.625 4178694.25 293.059997559
574937.8125 4178694.25 293.260009766
574938.5625 4178694 292.920013428
574938.625 4178694 292.890014648
574938.625 4178694 293.109985352
574938.625 4178694 293.100006104
574938.875 4178694 293.059997559
574938.875 4178694 293.079986572
574939.625 4178694 293.130004883
574939.625 4178694 293.149993896
574939.6875 4178694 293.040008545
574939.6875 4178694 293.010009766
574939.6875 4178694.25 292.850006104
574939.6875 4178694.25 292.859985352
574939.75 4178693.75 293.269989014
574939.875 4178694 292.920013428
574939.875 4178694 292.950012207
574940.6875 4178694 292.809997559
574940.6875 4178694 292.839996338
574940.6875 4178694 292.970001221
574940.6875 4178694 292.950012207
574940.75 4178693.75 292.75
574940.75 4178693.75 292.730010986
574940.75 4178693.75 292.959991455
574940.75 4178693.75 292.940002441
574940.875 4178694 293.010009766
574940.875 4178694 293.019989014
574941.6875 4178694 292.959991455
574941.6875 4178694 292.950012207
574941.6875 4178694 293.029998779
574941.6875 4178694 293.049987793
574941.75 4178694 292.929992676
574941.75 4178694 292.910003662
574941.875 4178694 292.989990234
574941.875 4178694 293.010009766
574942.6875 4178694 293.010009766
574942.6875 4178694 293.029998779
574942.6875 4178694 292.720001221
574942.6875 4178694 292.760009766
574942.75 4178694 292.859985352
574942.75 4178694 292.839996338
574942.875 4178694 293.320007324
574942.875 4178694 293.339996338
574943.6875 4178694 292.950012207
574943.6875 4178694 292.950012207
574943.75 4178694.25 292.769989014
574943.75 4178694.25 292.799987793
574943.75 4178694.25 292.709991455
574943.75 4178694.25 292.720001221
574944.6875 4178694 292.850006104
574944.6875 4178694 292.839996338
574944.6875 4178694.25 292.869995117
574944.6875 4178694.25 292.859985352
574944.6875 4178694 293.029998779
574944.6875 4178694 293.010009766
574945.0625 4178693.75 293.369995117
574945.625 4178694 293.5
574945.625 4178694 293.480010986
574945.625 4178694.25 293.549987793
574947 4178694.25 293.239990234
574947 4178694.25 293.209991455
574948.125 4178694 293.510009766
574948.125 4178694 293.529998779
574948.3125 4178694 293.420013428
574948.3125 4178694 293.440002441
574949.1875 4178694.25 292.769989014
574949.1875 4178694.25 292.779998779
574949.3125 4178694 292.540008545
574949.3125 4178694 292.510009766
574949.625 4178694 292.75
574949.625 4178694 292.720001221
574949.75 4178694 292.489990234
574949.75 4178694 292.510009766
574950.625 4178694.25 293.369995117
574950.625 4178694.25 293.399993896
574950.625 4178694.25 293.640014648
574950.625 4178694.25 293.619995117
574950.6875 4178694 293.079986572
574953.5625 4178694 293.350006104
574953.5625 4178693.75 293.160003662
574953.5625 4178693.75 293.179992676
574953.5625 4178694.25 293.329986572
574953.625 4178694.25 293.369995117
574953.625 4178694.25 293.350006104
574953.625 4178694 293.089996338
574953.625 4178694 293.109985352
574953.75 4178694 293.089996338
574953.9375 4178694 293.140014648
574955.0625 4178694 292.589996338
574955.0625 4178694 292.609985352
574933.4375 4178694.5 293.070007324
574933.4375 4178694.5 293.049987793
574934.5 4178694.5 293.140014648
574935.5625 4178694.5 293.010009766
574935.5625 4178694.5 292.980010986
574936.5 4178694.25 293.089996338
574936.5 4178694.25 293.109985352
574936.5 4178694.5 293.089996338
574936.5 4178694.5 293.059997559
574936.5625 4178694.25 293.130004883
574937.5625 4178694.5 293.049987793
574937.5625 4178694.5 293.029998779
574937.625 4178694.5 292.839996338
574937.625 4178694.5 292.869995117
574937.625 4178694.25 292.920013428
574937.625 4178694.25 292.950012207
574938.625 4178694.25 292.980010986
574938.625 4178694.25 292.959991455
574938.6875 4178694.25 292.970001221
574938.6875 4178694.25 292.959991455
574938.6875 4178694.5 292.910003662
574938.6875 4178694.5 292.890014648
574938.8125 4178694.5 293.029998779
574938.8125 4178694.5 293.059997559
574939.625 4178694.5 293.059997559
574939.625 4178694.25 293.079986572
574939.6875 4178694.5 293.269989014
574939.6875 4178694.5 293.239990234
574939.75 4178694.5 292.799987793
574939.75 4178694.5 292.769989014
574939.8125 4178694.5 292.980010986
574939.8125 4178694.5 292.950012207
574940.6875 4178694.25 292.850006104
574940.6875 4178694.25 292.820007324
574940.6875 4178694.25 292.880004883
574940.6875 4178694.5 293.089996338
574940.6875 4178694.25 292.899993896
574940.6875 4178694.5 293.070007324
574940.6875 4178694.25 293.100006104
574940.75 4178694.25 293.079986572
574940.75 4178694.5 292.890014648
574940.75 4178694.5 292.910003662
574940.75 4178694.5 292.869995117
574940.75 4178694.5 292.850006104
574941.625 4178694.5 292.829986572
574941.625 4178694.5 292.850006104
574941.6875 4178694.5 293
574941.6875 4178694.5 292.970001221
574941.6875 4178694.25 292.609985352
574941.75 4178694.25 292.589996338
574941.75 4178694.5 292.839996338
574941.75 4178694.5 292.820007324
574941.75 4178694.5 292.989990234
574941.75 4178694.5 292.959991455
574942.625 4178694.5 292.720001221
574942.625 4178694.5 292.760009766
574942.6875 4178694.5 292.920013428
574942.6875 4178694.5 292.890014648
574942.75 4178694.25 293.070007324
574942.75 4178694.25 293.100006104
574942.75 4178694.5 292.940002441
574942.75 4178694.5 292.970001221
574942.8125 4178694.5 293.079986572
574942.8125 4178694.5 293.059997559
574943.6875 4178694.25 293.010009766
574943.6875 4178694.25 293.029998779
574943.6875 4178694.75 293.100006104
574943.75 4178694.5 292.820007324
574943.75 4178694.5 292.799987793
574943.875 4178694.5 292.869995117
574943.875 4178694.5 292.890014648
574944.6875 4178694.5 292.809997559
574944.6875 4178694.5 292.790008545
574944.75 4178694.25 292.940002441
574944.75 4178694.25 292.899993896
574944.75 4178694.5 292.820007324
574944.75 4178694.5 292.790008545
574947.6875 4178694.5 293.160003662
574947.6875 4178694.5 293.179992676
574947.75 4178694.25 293.130004883
574947.75 4178694.25 293.109985352
574948.0625 4178694.5 293.649993896
574948.0625 4178694.5 293.640014648
574948.625 4178694.25 293.649993896
574948.625 4178694.25 293.630004883
574948.625 4178694.5 293.529998779
574948.625 4178694.5 293.549987793
574948.6875 4178694.5 293.399993896
574948.6875 4178694.5 293.369995117
574949.25 4178694.75 292.760009766
574949.25 4178694.5 292.739990234
574949.625 4178694.5 293.519989014
574949.625 4178694.5 293.489990234
574949.6875 4178694.25 292.850006104
574949.6875 4178694.25 292.809997559
574949.6875 4178694.25 292.869995117
574949.6875 4178694.25 292.850006104
574949.75 4178694.5 292.839996338
574949.75 4178694.5 292.820007324
574950.6875 4178694.5 293.220001221
574950.6875 4178694.5 293.209991455
574951.625 4178694.25 293.170013428
574951.625 4178694.25 293.160003662
574951.75 4178694.5 292.720001221
574951.75 4178694.5 292.700012207
574953.5625 4178694.25 293.720001221
574953.5625 4178694.25 293.700012207
574953.625 4178694.25 293.839996338
574956.0625 4178694.5 293.059997559
574956.5 4178694.25 293.579986572
574933.4375 4178694.75 293.109985352
574933.4375 4178694.75 293.100006104
574934.5 4178695 293.100006104
574934.5 4178695 293.070007324
574935.5 4178695 292.920013428
574935.5 4178695 292.940002441
574935.5 4178695 293.119995117
574935.5 4178695 293.079986572
574936.5625 4178694.75 293.230010986
574936.5625 4178694.75 293.179992676
574936.5625 4178694.75 293.200012207
574936.75 4178694.75 292.989990234
574936.75 4178694.75 293.019989014
574937.5625 4178694.75 292.929992676
574937.5625 4178694.75 292.910003662
574937.5625 4178694.75 292.980010986
574937.5625 4178694.75 292.959991455
574937.5625 4178695 293.149993896
574937.625 4178695 293.119995117
574937.625 4178694.75 292.950012207
574937.625 4178694.75 292.970001221
574937.6875 4178695 292.970001221
574937.6875 4178695 292.950012207
574937.75 4178694.75 293.010009766
574937.75 4178694.75 293.040008545
574938.625 4178695 293.079986572
574938.625 4178695 293.109985352
574938.625 4178694.75 292.859985352
574938.625 4178694.75 292.869995117
574938.6875 4178695 292.890014648
574938.6875 4178695 292.869995117
574938.6875 4178694.75 292.899993896
574938.6875 4178694.75 292.880004883
574938.6875 4178695 293.059997559
574938.6875 4178695 293.040008545
574939.625 4178694.75 292.989990234
574939.625 4178694.75 293.019989014
574939.6875 4178695 292.959991455
574939.6875 4178694.75 292.760009766
574939.6875 4178694.75 292.790008545
574939.6875 4178695 292.970001221
574939.75 4178695 293.350006104
574939.75 4178694.75 293.200012207
574939.75 4178694.75 293.170013428
574940.625 4178694.75 292.829986572
574940.625 4178694.75 292.859985352
574940.75 4178695 292.920013428
574940.75 4178695 292.950012207
574940.75 4178694.75 292.910003662
574940.75 4178694.75 292.929992676
574941.6875 4178694.75 293.059997559
574941.6875 4178694.75 293.049987793
574941.75 4178694.75 292.720001221
574941.75 4178694.75 292.739990234
574941.75 4178695 292.890014648
574941.75 4178695 292.869995117
574942.75 4178694.75 292.989990234
574942.75 4178694.75 293.010009766
574942.75 4178695 293.040008545
574942.75 4178695 293.010009766
574942.75 4178694.75 292.950012207
574942.75 4178694.75 292.929992676
574943.6875 4178694.75 293.209991455
574943.6875 4178694.75 293.179992676
574943.6875 4178694.75 293.079986572
574943.75 4178695 292.920013428
574943.75 4178695 292.929992676
574943.75 4178695 292.859985352
574943.75 4178694.75 292.950012207
574943.75 4178695 292.839996338
574943.75 4178694.75 292.929992676
574943.8125 4178695 292.880004883
574943.8125 4178695 292.850006104
574944.6875 4178694.75 292.980010986
574944.75 4178694.75 292.950012207
574944.75 4178694.75 292.959991455
574944.75 4178694.75 292.940002441
574944.75 4178695 293.109985352
574946.9375 4178694.75 293.260009766
574946.9375 4178694.75 293.290008545
574947.0625 4178695 293.309997559
574947.0625 4178695 293.329986572
574947.6875 4178695 293.5
574947.6875 4178695 293.519989014
574947.75 4178694.75 293
574947.75 4178694.75 293.029998779
574947.75 4178695 293.630004883
574947.75 4178694.75 293.179992676
574947.75 4178694.75 293.200012207
574947.8125 4178694.75 292.640014648
574947.8125 4178694.75 292.609985352
574947.9375 4178695 292.790008545
574947.9375 4178695 292.809997559
574948.125 4178695 292.869995117
574948.125 4178695 292.850006104
574948.6875 4178695 293.190002441
574948.6875 4178695 293.200012207
574948.75 4178694.75 293.25
574948.75 4178694.75 293.239990234
574949.125 4178694.75 293.059997559
574949.125 4178694.75 293.040008545
574949.6875 4178695 292.890014648
574949.6875 4178695 292.880004883
574949.75 4178695 292.510009766
574949.75 4178695 292.519989014
574950.25 4178695 293.619995117
574950.4375 4178695 293.640014648
574950.6875 4178695 292.869995117
574950.6875 4178695 292.880004883
574950.75 4178695 292.700012207
574950.75 4178695 292.720001221
574951.625 4178695 293.369995117
574951.6875 4178694.75 292.829986572
574951.6875 4178694.75 292.809997559
574951.75 4178694.75 292.950012207
574951.75 4178694.75 292.959991455
574951.75 4178694.75 292.450012207
574951.75 4178694.75 292.429992676
574954.625 4178694.75 292.829986572
574954.625 4178694.75 292.850006104
574954.875 4178694.75 293.579986572
574954.875 4178694.75 293.549987793
574954.9375 4178695 292.410003662
574954.9375 4178695 292.420013428
574956.625 4178694.75 293.079986572
574933.4375 4178695.25 293.100006104
574933.4375 4178695.25 293.070007324
574934.5 4178695.5 293
574934.5 4178695.5 292.970001221
574935.5625 4178695.25 293.149993896
574935.5625 4178695.25 293.179992676
574935.625 4178695 293.109985352
574935.625 4178695 293.079986572
574936.5 4178695.25 293.019989014
574936.5 4178695.25 292.989990234
574936.5625 4178695.25 293.140014648
574936.5625 4178695.25 293.109985352
574936.625 4178695.25 293.109985352
574936.625 4178695.25 293.089996338
574936.625 4178695.25 292.970001221
574936.625 4178695.25 292.989990234
574937.5 4178695.25 292.980010986
574937.5 4178695.25 292.959991455
574937.625 4178695.25 293.130004883
574937.625 4178695.25 293.109985352
574937.6875 4178695.25 293.119995117
574937.6875 4178695.25 292.799987793
574937.6875 4178695.25 292.829986572
574937.6875 4178695.25 293.140014648
574938.6875 4178695.25 292.890014648
574938.6875 4178695.25 292.899993896
574938.6875 4178695.25 293.100006104
574938.6875 4178695.25 293.079986572
574938.75 4178695.5 293.119995117
574938.75 4178695.5 293.149993896
574938.75 4178695 293
574938.75 4178695 293.019989014
574939.5625 4178695.25 292.829986572
574939.5625 4178695.25 292.820007324
574939.75 4178695.25 292.970001221
574939.75 4178695.25 293.010009766
574939.75 4178695.25 292.989990234
574939.75 4178695.25 292.970001221
574940.5625 4178695.25 292.850006104
574940.5625 4178695.25 292.880004883
574940.6875 4178695 292.829986572
574940.6875 4178695 292.799987793
574940.75 4178695.25 293.010009766
574940.75 4178695.25 292.989990234
574940.8125 4178695.25 292.790008545
574940.8125 4178695.25 292.799987793
574940.8125 4178695.25 292.829986572
574940.8125 4178695.25 292.839996338
574941.5625 4178695 292.890014648
574941.5625 4178695 292.929992676
574941.6875 4178695.25 292.890014648
574941.6875 4178695.25 292.869995117
574941.75 4178695 292.970001221
574941.75 4178695 293
574941.75 4178695.25 293.010009766
574941.75 4178695.25 292.989990234
574941.8125 4178695.25 292.890014648
574941.8125 4178695.25 292.859985352
574942.5625 4178695.25 292.859985352
574942.5625 4178695.25 292.899993896
574942.75 4178695.25 293.119995117
574942.75 4178695.25 293.089996338
574942.75 4178695.25 292.850006104
574942.75 4178695.25 292.880004883
574942.8125 4178695 292.980010986
574942.8125 4178695 292.970001221
574942.8125 4178695.5 292.700012207
574942.8125 4178695.5 292.679992676
574943.625 4178695.25 293.170013428
574943.625 4178695.25 293.200012207
574943.8125 4178695.25 292.720001221
574943.8125 4178695.25 292.739990234
574943.8125 4178695 292.980010986
574943.8125 4178695 292.950012207
574943.8125 4178695.5 292.829986572
574943.8125 4178695.5 292.809997559
574944.75 4178695 293.070007324
574944.75 4178695.25 293.269989014
574944.75 4178695.25 293.299987793
574944.75 4178695 293.049987793
574944.75 4178695.25 293.380004883
574944.75 4178695.25 293.359985352
574944.75 4178695 293.089996338
574946.8125 4178695.5 293.140014648
574946.8125 4178695.5 293.119995117
574946.875 4178695.25 293.549987793
574946.875 4178695.25 293.540008545
574948.8125 4178695.25 292.730010986
574948.8125 4178695.25 292.720001221
574948.8125 4178695.5 292.690002441
574948.8125 4178695.5 292.700012207
574949.0625 4178695.25 293.450012207
574949.0625 4178695.25 293.429992676
574949.6875 4178695.5 293.140014648
574949.6875 4178695.25 293.690002441
574949.6875 4178695.25 293.670013428
574949.6875 4178695.5 293.109985352
574949.75 4178695.25 292.820007324
574949.75 4178695.25 292.790008545
574949.75 4178695.25 293.019989014
574949.75 4178695.25 293
574949.75 4178695 292.739990234
574949.75 4178695 292.730010986
574950.1875 4178695.25 293.299987793
574950.3125 4178695.25 292.820007324
574950.75 4178695.25 292.850006104
574950.75 4178695.25 292.839996338
574950.75 4178695.25 292.760009766
574950.8125 4178695.25 292.739990234
574954.75 4178695.25 292.859985352
574954.75 4178695.25 292.890014648
574933.5 4178695.75 293.109985352
574934.5 4178695.75 293.140014648
574935.5625 4178695.75 293.160003662
574935.5625 4178695.75 293.130004883
574935.5625 4178695.5 293.070007324
574935.5625 4178695.5 293.049987793
574935.625 4178695.75 293.130004883
574935.625 4178695.75 293.149993896
574936.4375 4178695.75 292.950012207
574936.4375 4178695.75 292.970001221
574936.5625 4178695.75 293.010009766
574936.5625 4178695.75 293.029998779
574936.625 4178695.75 293.109985352
574936.625 4178695.75 293.130004883
574936.6875 4178695.5 292.959991455
574936.6875 4178695.5 292.929992676
574936.6875 4178695.75 293.170013428
574936.6875 4178695.75 293.160003662
574937.625 4178695.5 293.010009766
574937.625 4178695.5 293.040008545
574937.6875 4178695.5 292.989990234
574937.6875 4178695.5 292.970001221
574937.75 4178695.75 292.920013428
574937.75 4178695.75 292.899993896
574938.5625 4178695.5 293.269989014
574938.5625 4178695.5 293.239990234
574938.625 4178695.75 292.809997559
574938.625 4178695.75 292.839996338
574938.6875 4178695.5 292.790008545
574938.6875 4178695.5 292.820007324
574938.75 4178695.75 292.850006104
574938.75 4178695.75 292.859985352
574938.75 4178695.5 293.190002441
574938.75 4178695.5 293.170013428
574939.5 4178695.75 292.880004883
574939.5 4178695.75 292.899993896
574939.625 4178695.75 292.920013428
574939.625 4178695.75 292.910003662
574939.75 4178695.5 292.899993896
574939.75 4178695.5 292.910003662
574939.8125 4178695.5 293.049987793
574939.8125 4178695.75 293.019989014
574940.6875 4178695.75 293.329986572
574940.6875 4178695.75 293.309997559
574940.75 4178695.5 292.850006104
574940.75 4178695.5 292.820007324
574940.75 4178695.75 292.980010986
574940.75 4178695.75 292.959991455
574940.8125 4178695.5 293.029998779
574940.8125 4178695.5 293.010009766
574940.8125 4178695.75 293.070007324
574940.8125 4178695.75 293.040008545
574941.5 4178695.5 293.019989014
574941.5 4178695.5 293.019989014
574941.625 4178695.75 292.869995117
574941.625 4178695.75 292.880004883
574941.75 4178695.75 292.910003662
574941.75 4178695.75 292.920013428
574941.8125 4178695.5 292.820007324
574941.8125 4178695.75 292.920013428
574941.8125 4178695.5 292.790008545
574941.8125 4178695.75 292.940002441
574942.5 4178695.5 292.790008545
574942.5 4178695.5 292.820007324
574942.625 4178695.5 292.630004883
574942.625 4178695.5 292.649993896
574942.8125 4178695.5 292.839996338
574942.8125 4178695.5 292.799987793
574942.8125 4178695.75 292.910003662
574942.875 4178695.75 292.899993896
574942.875 4178695.75 292.660003662
574942.875 4178695.75 292.640014648
574943.5625 4178695.75 292.850006104
574943.5625 4178695.75 292.869995117
574943.6875 4178695.5 292.640014648
574943.6875 4178695.5 292.619995117
574943.8125 4178695.5 292.809997559
574943.8125 4178695.5 292.790008545
574943.875 4178695.5 292.779998779
574943.875 4178695.5 292.799987793
574944.75 4178695.5 293.410003662
574944.75 4178695.5 293.390014648
574946.8125 4178695.5 293.350006104
574946.8125 4178695.5 293.320007324
574946.8125 4178695.75 293.369995117
574946.8125 4178695.75 293.380004883
574947 4178695.75 293.609985352
574947 4178695.75 293.600006104
574947.9375 4178695.5 293.029998779
574948.75 4178695.5 292.640014648
574948.75 4178695.5 292.619995117
574948.75 4178695.75 292.679992676
574948.8125 4178695.75 292.660003662
574948.8125 4178695.75 292.579986572
574948.8125 4178695.75 292.559997559
574949 4178695.75 293.209991455
574949.25 4178695.5 293.529998779
574949.25 4178695.5 293.559997559
574950.125 4178695.75 293.149993896
574950.75 4178695.75 293.109985352
574950.75 4178695.5 292.690002441
574950.75 4178695.5 292.670013428
574950.75 4178695.5 292.929992676
574950.75 4178695.5 292.950012207
574950.8125 4178695.75 292.790008545
574955.75 4178695.5 292.760009766
574933.5625 4178696 293.119995117
574934.5625 4178696.25 293.149993896
574935.375 4178696 293.040008545
574935.375 4178696 293.010009766
574935.625 4178696.25 293.140014648
574935.625 4178696.25 293.170013428
574936.375 4178696.25 292.970001221
574936.375 4178696.25 292.989990234
574936.625 4178696 293
574936.625 4178696 292.980010986
574936.6875 4178696 293.140014648
574936.6875 4178696 293.119995117
574937.5 4178695.75 293.130004883
574937.5 4178695.75 293.109985352
574937.625 4178695.75 293.040008545
574937.625 4178695.75 293.070007324
574937.6875 4178696 292.980010986
574937.6875 4178695.75 293
574937.6875 4178696.25 292.809997559
574937.6875 4178696.25 292.829986572
574937.75 4178696 292.839996338
574937.75 4178696.25 292.950012207
574937.75 4178696 292.820007324
574938.5 4178696 293.049987793
574938.5 4178696 293.019989014
574938.5625 4178696.25 292.709991455
574938.5625 4178696.25 292.739990234
574938.75 4178696 292.970001221
574938.75 4178696 293
574938.75 4178695.75 293.019989014
574938.75 4178696 292.989990234
574938.8125 4178696.25 292.890014648
574938.8125 4178696.25 292.869995117
574939.4375 4178696.25 292.760009766
574939.4375 4178696.25 292.739990234
574939.75 4178695.75 292.910003662
574939.75 4178696 292.890014648
574939.8125 4178696.25 292.869995117
574939.8125 4178696.25 292.890014648
574939.8125 4178695.75 293.040008545
574939.8125 4178695.75 293.029998779
574939.8125 4178696 293.019989014
574939.8125 4178696 293.029998779
574940.5 4178696 293.320007324
574940.5 4178696 293.279998779
574940.5625 4178696.25 292.720001221
574940.8125 4178696 292.890014648
574940.8125 4178696 292.859985352
574940.875 4178696 292.839996338
574940.875 4178696 292.799987793
