# .PCD v.7 - Point Cloud Data file format
VERSION .7
FIELDS x y z
SIZE 4 4 4
TYPE F F F
COUNT 1 1 1
WIDTH 1380
HEIGHT 1
VIEWPOINT 0 0 0 1 0 0 0
POINTS 1380
DATA ascii
575078.8125 4178483.75 302.200012207
575079.25 4178483.75 301.839996338
575079.25 4178483.75 301.809997559
575079.5625 4178483.75 308.200012207
575079.875 4178483.5 303.040008545
575079.875 4178483.75 309.739990234
575079.875 4178483.75 309.769989014
575080.375 4178483.5 302.700012207
575081 4178483.5 310.989990234
575081 4178483.5 311.010009766
575081.75 4178483.75 311.119995117
575081.75 4178483.75 311.140014648
575082.1875 4178483.5 311.220001221
575082.75 4178483.5 302.369995117
575083 4178483.5 309.109985352
575083.375 4178483.5 302.649993896
575061.75 4178484 301.589996338
575061.75 4178484 301.570007324
575063.125 4178484 301.279998779
575063.125 4178484 301.320007324
575064.4375 4178484 301.390014648
575064.4375 4178484 301.369995117
575065.6875 4178484 301.369995117
575065.6875 4178484 301.350006104
575068.3125 4178483.75 301.480010986
575068.3125 4178483.75 301.510009766
575069.0625 4178484 301.700012207
575069.0625 4178484 301.720001221
575070.8125 4178484 301.570007324
575070.875 4178484 301.540008545
575071.5625 4178484 301.940002441
575071.5625 4178484 301.950012207
575072.0625 4178484.25 301.850006104
575072.0625 4178484.25 301.880004883
575072.8125 4178484 301.820007324
575072.8125 4178484 301.809997559
575073.3125 4178484 302.119995117
575073.3125 4178484 302.089996338
575074.5625 4178484 302.049987793
575074.5625 4178484 302.029998779
575075.25 4178484 302.25
575075.25 4178484 302.260009766
575075.75 4178484.25 302.209991455
575075.75 4178484.25 302.239990234
575076.4375 4178484 302.25
575076.4375 4178484 302.230010986
575077.625 4178483.75 302.209991455
575077.625 4178483.75 302.179992676
575078.125 4178484.25 302.059997559
575078.125 4178484.25 302.019989014
575079 4178484 305.829986572
575079.5 4178484.25 309.440002441
575079.75 4178484 305.790008545
575080.625 4178484 310.100006104
575080.625 4178484 310.119995117
575081.0625 4178484.25 310.320007324
575081.0625 4178484.25 310.339996338
575082.1875 4178484 311.390014648
575082.75 4178484 302.950012207
575082.9375 4178484 310.350006104
575082.9375 4178484 310.320007324
575083.375 4178484 311.220001221
575060.0625 4178484.5 301.429992676
575060.0625 4178484.5 301.459991455
575061.3125 4178484.25 301.25
575061.3125 4178484.25 301.230010986
575063.9375 4178484.25 301.450012207
575063.9375 4178484.25 301.480010986
575065.75 4178484.5 301.459991455
575065.75 4178484.5 301.459991455
575066.5 4178484.25 301.640014648
575066.5 4178484.25 301.670013428
575067 4178484.25 301.619995117
575067 4178484.25 301.609985352
575067.8125 4178484.25 302.010009766
575067.8125 4178484.25 302.029998779
575068.375 4178484.5 301.380004883
575068.375 4178484.5 301.359985352
575069.625 4178484.25 301.679992676
575069.625 4178484.25 301.649993896
575070.375 4178484.25 301.820007324
575070.375 4178484.25 301.799987793
575074.125 4178484.5 301.899993896
575074.125 4178484.5 301.880004883
575075.3125 4178484.5 302.25
575075.3125 4178484.5 302.269989014
575077 4178484.25 302.140014648
575077 4178484.25 302.140014648
575077.6875 4178484.5 302.160003662
575077.6875 4178484.5 302.170013428
575078.8125 4178484.25 302.130004883
575078.8125 4178484.25 302.109985352
575079.25 4178484.25 302.100006104
575079.5 4178484.25 309.410003662
575080.0625 4178484.25 307.839996338
575080.5625 4178484.5 311.660003662
575081.6875 4178484.25 312.160003662
575081.6875 4178484.25 312.170013428
575082.25 4178484.5 311.690002441
575082.25 4178484.5 311.700012207
575063.9375 4178485 301.410003662
575063.9375 4178485 301.390014648
575064.5 4178484.75 301.290008545
575064.5 4178484.75 301.269989014
575065.25 4178484.75 301.470001221
575065.25 4178484.75 301.450012207
575066.5625 4178484.75 301.649993896
575066.5625 4178484.75 301.619995117
575067.0625 4178484.75 301.480010986
575067.0625 4178484.75 301.459991455
575067.875 4178485 301.410003662
575067.875 4178485 301.390014648
575069.125 4178484.5 301.720001221
575069.125 4178484.5 301.690002441
575069.6875 4178484.75 301.570007324
575069.6875 4178484.75 301.549987793
575070.4375 4178484.75 301.709991455
575070.4375 4178484.75 301.739990234
575070.875 4178484.75 301.799987793
575070.875 4178484.75 301.779998779
575071.625 4178484.75 302.059997559
575071.625 4178484.75 302.079986572
575072.125 4178484.75 301.940002441
575072.125 4178484.75 301.929992676
575072.875 4178484.5 301.779998779
575072.875 4178484.5 301.809997559
575073.375 4178484.75 302.100006104
575073.375 4178484.75 302.130004883
575074.125 4178485 302.010009766
575074.125 4178485 301.980010986
575074.5625 4178484.5 301.970001221
575074.625 4178484.5 301.940002441
575075.75 4178484.75 302.380004883
575075.75 4178484.75 302.399993896
575076.5 4178484.75 302.100006104
575076.5 4178484.75 302.079986572
575077 4178484.75 301.859985352
575077 4178484.75 301.880004883
575078.1875 4178484.75 302.149993896
575078.1875 4178484.75 302.119995117
575078.6875 4178484.75 305.260009766
575078.875 4178485 301.869995117
575079.125 4178484.5 305.100006104
575079.125 4178484.5 305.119995117
575079.5625 4178484.75 309.549987793
575080 4178484.75 309.559997559
575080 4178484.75 309.579986572
575080.4375 4178484.75 302.450012207
575081.0625 4178484.75 311.510009766
575081.0625 4178484.75 311.480010986
575081.75 4178484.75 312.239990234
575081.75 4178484.75 312.269989014
575082.8125 4178484.75 302.670013428
575083.0625 4178484.5 309.760009766
575060.0625 4178485.25 301.440002441
575060.0625 4178485.25 301.420013428
575061.875 4178485.25 301.470001221
575061.875 4178485.25 301.440002441
575064.5 4178485.25 301.529998779
575064.5 4178485.25 301.510009766
575065.25 4178485.25 301.380004883
575065.25 4178485.25 301.339996338
575065.8125 4178485.25 301.390014648
575065.8125 4178485.25 301.420013428
575068.375 4178485 301.470001221
575068.375 4178485 301.440002441
575069.125 4178485.25 301.820007324
575069.125 4178485.25 301.790008545
575070.9375 4178485.25 301.660003662
575070.9375 4178485.25 301.630004883
575071.6875 4178485.25 301.820007324
575071.6875 4178485.25 301.850006104
575072.1875 4178485.25 302.059997559
575072.1875 4178485.25 302.029998779
575072.9375 4178485.25 301.839996338
575072.9375 4178485.25 301.859985352
575073.4375 4178485.25 301.970001221
575073.4375 4178485.25 301.950012207
575074.625 4178485.25 301.929992676
575074.625 4178485.25 301.959991455
575075.375 4178485.25 302.029998779
575075.375 4178485.25 302.019989014
575075.8125 4178485.25 302.190002441
575075.8125 4178485.25 302.209991455
575076.5625 4178485.25 302.059997559
575076.5625 4178485.25 302.079986572
575077.75 4178485 302.130004883
575077.75 4178485 302.109985352
575078.1875 4178485.25 302.130004883
575078.1875 4178485.25 302.109985352
575078.6875 4178485.25 305.519989014
575078.6875 4178485.25 305.5
575079.0625 4178485 306.329986572
575079.0625 4178485 306.309997559
575079.625 4178485.25 309.489990234
575079.625 4178485.25 309.480010986
575080 4178485.25 310.200012207
575080 4178485.25 310.220001221
575080 4178485.25 303.040008545
575080.625 4178485 311.190002441
575081.1875 4178485 302.720001221
575081.1875 4178485.25 310.170013428
575081.1875 4178485.25 310.190002441
575082.25 4178485.25 311.510009766
575060.125 4178485.75 301.390014648
575060.125 4178485.75 301.399993896
575064 4178485.5 301.369995117
575064 4178485.5 301.390014648
575065.8125 4178485.75 301.549987793
575065.8125 4178485.75 301.529998779
575066.625 4178485.5 301.329986572
575066.625 4178485.5 301.309997559
575067.125 4178485.5 301.399993896
575067.125 4178485.5 301.410003662
575068.4375 4178485.5 301.559997559
575068.4375 4178485.5 301.540008545
575069.1875 4178485.75 301.839996338
575069.1875 4178485.75 301.799987793
575069.6875 4178485.5 301.559997559
575069.6875 4178485.5 301.549987793
575070.4375 4178485.5 301.700012207
575070.4375 4178485.5 301.679992676
575073 4178485.75 301.869995117
575074.1875 4178485.5 301.929992676
575074.1875 4178485.5 301.910003662
575075.4375 4178485.75 301.929992676
575075.4375 4178485.75 301.899993896
575077.0625 4178485.5 302.019989014
575077.0625 4178485.5 302.049987793
575077.75 4178485.5 302.040008545
575077.75 4178485.5 302.070007324
575078.6875 4178485.75 306.25
575078.6875 4178485.75 306.220001221
575079.125 4178485.75 306.260009766
575079.125 4178485.75 306.230010986
575080.6875 4178485.5 310.869995117
575080.6875 4178485.5 310.899993896
575081.25 4178485.75 302.609985352
575081.8125 4178485.5 311.369995117
575061.4375 4178486 301.320007324
575061.4375 4178486 301.339996338
575064.0625 4178486 301.510009766
575064.0625 4178486 301.510009766
575064.5625 4178485.75 301.450012207
575064.5625 4178485.75 301.429992676
575065.3125 4178485.75 301.359985352
575065.3125 4178485.75 301.339996338
575066.625 4178486 301.309997559
575066.625 4178486 301.339996338
575067.1875 4178486 301.450012207
575067.1875 4178486 301.440002441
575067.9375 4178486 301.470001221
575067.9375 4178486 301.450012207
575069.75 4178486 301.5
575069.75 4178486 301.480010986
575070.5 4178486 301.670013428
575070.5 4178486 301.660003662
575070.9375 4178485.75 302.220001221
575070.9375 4178485.75 302.200012207
575071.75 4178485.75 301.850006104
575071.75 4178485.75 301.829986572
575072.1875 4178486 302.059997559
575072.1875 4178486 302.079986572
575073 4178485.75 301.850006104
575073.4375 4178485.75 302.040008545
575073.4375 4178485.75 302.049987793
575074.25 4178486 301.929992676
575074.25 4178486 301.910003662
575074.6875 4178485.75 301.940002441
575074.6875 4178485.75 301.910003662
575075.875 4178486 302.059997559
575075.875 4178486 302.029998779
575076.625 4178486 302.179992676
575076.625 4178486 302.190002441
575077.125 4178486 301.850006104
575077.125 4178486 301.869995117
575078.25 4178485.75 302.130004883
575078.25 4178485.75 302.109985352
575079.8125 4178486.25 306.739990234
575079.8125 4178486.25 306.709991455
575080.125 4178486 309.510009766
575080.125 4178486 309.480010986
575081.1875 4178485.75 310.929992676
575059.4375 4178486.5 301.220001221
575059.4375 4178486.5 301.200012207
575062 4178486.5 301.260009766
575062 4178486.5 301.279998779
575065.875 4178486.25 301.549987793
575065.875 4178486.25 301.559997559
575068.4375 4178486.25 301.640014648
575068.4375 4178486.25 301.660003662
575069.25 4178486.25 301.760009766
575069.25 4178486.25 301.779998779
575071 4178486.5 302.239990234
575071 4178486.5 302.25
575071.75 4178486.5 302
575071.75 4178486.5 301.959991455
575072.25 4178486.5 302.140014648
575072.25 4178486.5 302.160003662
575073 4178486.25 302.100006104
575073 4178486.25 302.059997559
575073.5 4178486.5 301.869995117
575073.5 4178486.5 301.880004883
575074.75 4178486.5 301.970001221
575074.75 4178486.5 301.940002441
575075.4375 4178486.25 301.890014648
575075.4375 4178486.25 301.910003662
575075.9375 4178486.5 301.950012207
575075.9375 4178486.5 301.970001221
575076.6875 4178486.5 301.920013428
575076.6875 4178486.5 301.899993896
575077.8125 4178486.25 301.950012207
575077.8125 4178486.25 301.929992676
575078.3125 4178486.5 302.269989014
575078.3125 4178486.5 302.290008545
575079.25 4178486.25 305.450012207
575079.4375 4178486.5 302.290008545
575081.75 4178486.5 302.869995117
575062.8125 4178486.75 301.390014648
575062.8125 4178486.75 301.359985352
575064.125 4178486.75 301.339996338
575064.125 4178486.75 301.350006104
575067.1875 4178486.5 301.540008545
575067.1875 4178486.5 301.510009766
575068 4178486.75 301.450012207
575068 4178486.75 301.429992676
575068.5 4178486.75 301.649993896
575068.5 4178486.75 301.640014648
575069.3125 4178487 301.619995117
575069.75 4178486.5 301.600006104
575069.75 4178486.5 301.619995117
575070.5625 4178486.5 301.790008545
575070.5625 4178486.5 301.769989014
575073.0625 4178487 302.019989014
575073.0625 4178487 301.989990234
575074.25 4178486.75 302.089996338
575074.25 4178486.75 302.079986572
575074.75 4178487 302.119995117
575074.75 4178487 302.109985352
575075.5 4178487 302.209991455
575075.5 4178487 302.190002441
575077.1875 4178486.5 301.859985352
575077.1875 4178486.5 301.880004883
575077.875 4178486.75 301.910003662
575077.875 4178486.75 301.950012207
575079 4178486.75 302.549987793
575079 4178486.75 302.529998779
575079.3125 4178487 304.799987793
575079.3125 4178487 304.839996338
575079.875 4178486.75 306.649993896
575079.875 4178486.75 306.660003662
575080.3125 4178486.75 306.989990234
575080.3125 4178486.75 307
575081.3125 4178486.75 302.589996338
575081.3125 4178486.75 302.609985352
575081.375 4178486.5 308.799987793
575081.375 4178486.5 308.820007324
575059.5 4178487 301.320007324
575059.5 4178487 301.290008545
575062 4178487 301.420013428
575062 4178487 301.450012207
575066.75 4178487.25 301.450012207
575066.75 4178487.25 301.470001221
575067.25 4178487.25 301.359985352
575067.25 4178487.25 301.329986572
575068.0625 4178487.25 301.329986572
575068.0625 4178487.25 301.359985352
575068.5625 4178487.25 301.519989014
575068.5625 4178487.25 301.510009766
575069.3125 4178487 301.600006104
575069.8125 4178487.25 301.730010986
575069.8125 4178487.25 301.700012207
575070.5625 4178487.25 301.869995117
575070.5625 4178487.25 301.899993896
575071 4178487 301.940002441
575071.0625 4178487 301.929992676
575071.8125 4178487 301.950012207
575071.8125 4178487 301.959991455
575072.3125 4178487 301.859985352
575072.3125 4178487 301.850006104
575073.5625 4178487 301.859985352
575073.5625 4178487 301.850006104
575074.3125 4178487.25 301.920013428
575074.3125 4178487.25 301.899993896
575076 4178487 302.079986572
575076 4178487 302.059997559
575076.6875 4178487 301.940002441
575076.6875 4178487 301.920013428
575077.1875 4178487.25 301.850006104
575077.1875 4178487.25 301.809997559
575077.625 4178487 306.320007324
575077.9375 4178487.25 302.25
575078.125 4178487.25 306.220001221
575078.125 4178487.25 306.25
575078.375 4178487 301.950012207
575078.375 4178487 301.929992676
575078.8125 4178487 305.380004883
575078.8125 4178487 305.390014648
575079.875 4178487.25 307.510009766
575080.375 4178487.25 306.880004883
575080.375 4178487.25 306.859985352
575081.125 4178487.25 306.040008545
575081.125 4178487.25 306.059997559
575081.4375 4178487.25 308.739990234
575060.75 4178487.5 301.209991455
575060.75 4178487.5 301.230010986
575061.5625 4178487.75 301.299987793
575061.5625 4178487.75 301.269989014
575062.8125 4178487.5 301.459991455
575062.8125 4178487.5 301.5
575063.375 4178487.5 301.320007324
575063.375 4178487.5 301.339996338
575065.9375 4178487.5 301.390014648
575065.9375 4178487.5 301.369995117
575066.75 4178487.75 301.489990234
575069.3125 4178487.5 301.619995117
575069.3125 4178487.5 301.609985352
575069.875 4178487.75 301.779998779
575069.875 4178487.75 301.790008545
575070.625 4178487.75 301.859985352
575070.625 4178487.75 301.829986572
575071.0625 4178487.5 301.700012207
575071.125 4178487.5 301.670013428
575071.8125 4178487.5 302.109985352
575071.8125 4178487.5 302.119995117
575072.375 4178487.75 301.850006104
575072.375 4178487.75 301.829986572
575073.0625 4178487.5 302.149993896
575073.0625 4178487.5 302.140014648
575073.625 4178487.75 301.859985352
575073.625 4178487.75 301.839996338
575074.8125 4178487.5 301.989990234
575074.8125 4178487.5 301.970001221
575075.5625 4178487.5 302.040008545
575075.5625 4178487.5 302.019989014
575076.0625 4178487.75 301.959991455
575076.0625 4178487.75 301.950012207
575076.75 4178487.75 301.660003662
575076.75 4178487.75 301.690002441
575076.9375 4178487.5 306.010009766
575077.25 4178487.75 301.989990234
575077.6875 4178487.5 306.339996338
575077.6875 4178487.5 306.369995117
575078.875 4178487.5 305.850006104
575078.875 4178487.5 305.869995117
575079.3125 4178487.5 305.829986572
575079.3125 4178487.5 305.809997559
575080.1875 4178487.75 310.489990234
575080.1875 4178487.75 310.459991455
575080.1875 4178487.5 302.970001221
575081 4178487.5 308.989990234
575063.4375 4178488.25 301.320007324
575063.4375 4178488.25 301.339996338
575064.1875 4178487.75 301.429992676
575064.1875 4178487.75 301.399993896
575066 4178488 301.570007324
575066 4178488 301.540008545
575066.75 4178487.75 301.470001221
575067.3125 4178487.75 301.429992676
575067.3125 4178487.75 301.470001221
575068.0625 4178487.75 301.459991455
575068.125 4178487.75 301.450012207
575068.625 4178488 301.480010986
575068.625 4178488 301.489990234
575069.375 4178488 301.700012207
575069.375 4178488 301.720001221
575073.125 4178488 302.049987793
575073.125 4178488 302.029998779
575074.375 4178488 301.929992676
575074.375 4178488 301.910003662
575074.875 4178488 301.910003662
575074.875 4178488 301.880004883
575075.5625 4178488 302.140014648
575075.5625 4178488 302.160003662
575077.125 4178488 304.679992676
575077.125 4178488 304.660003662
575078.0625 4178487.75 307.149993896
575078.0625 4178487.75 307.190002441
575078.75 4178488 307.619995117
575078.75 4178488 307.600006104
575079.1875 4178487.75 308.070007324
575079.1875 4178487.75 308.040008545
575079.75 4178488 310.850006104
575079.75 4178488 310.859985352
575079.9375 4178487.75 307.649993896
575079.9375 4178487.75 307.630004883
575080.875 4178488 310.690002441
575080.875 4178488 310.700012207
575061.625 4178488.25 301.320007324
575061.625 4178488.25 301.339996338
575064.25 4178488.5 301.350006104
575064.25 4178488.5 301.380004883
575065.5 4178488.25 301.350006104
575065.5 4178488.25 301.369995117
575067.3125 4178488.25 301.769989014
575067.3125 4178488.25 301.75
575068.125 4178488.5 301.329986572
575068.625 4178488.5 301.940002441
575068.625 4178488.5 301.910003662
575069.875 4178488.25 301.959991455
575069.875 4178488.25 301.929992676
575070.6875 4178488.25 301.779998779
575070.6875 4178488.25 301.799987793
575071.125 4178488.25 301.700012207
575071.125 4178488.25 301.679992676
575071.875 4178488.25 301.880004883
575071.875 4178488.25 301.859985352
575072.375 4178488.25 301.959991455
575072.375 4178488.25 301.940002441
575073.625 4178488.25 302.109985352
575073.625 4178488.25 302.100006104
575074.4375 4178488.5 301.890014648
575074.4375 4178488.5 301.899993896
575076.125 4178488.25 301.739990234
575076.125 4178488.25 301.720001221
575076.8125 4178488.25 301.700012207
575076.8125 4178488.25 301.709991455
575077 4178488.5 306.649993896
575077 4178488.5 306.619995117
575077.75 4178488.25 305.880004883
575077.9375 4178488.5 303.320007324
575078.1875 4178488.5 306.390014648
575078.1875 4178488.5 306.369995117
575078.6875 4178488.5 309.630004883
575078.6875 4178488.5 309.660003662
575079.125 4178488.25 309.700012207
575079.125 4178488.25 309.730010986
575080.1875 4178488.25 311.190002441
575080.1875 4178488.25 311.230010986
575057.875 4178488.75 301.290008545
575057.875 4178488.75 301.299987793
575059.625 4178488.75 301.200012207
575059.625 4178488.75 301.220001221
575060.375 4178488.75 301.309997559
575060.375 4178488.75 301.329986572
575062.125 4178488.75 301.269989014
575062.125 4178488.75 301.25
575063.4375 4178488.75 301.410003662
575063.4375 4178488.75 301.380004883
575064.75 4178488.75 301.359985352
575064.75 4178488.75 301.380004883
575065.5625 4178488.75 301.279998779
575066.0625 4178488.5 301.489990234
575066.0625 4178488.5 301.470001221
575067.375 4178489 301.799987793
575067.375 4178489 301.820007324
575069.4375 4178488.75 301.679992676
575069.4375 4178488.75 301.660003662
575069.9375 4178489 301.899993896
575069.9375 4178489 301.929992676
575070.75 4178489 301.559997559
575070.75 4178489 301.549987793
575071.1875 4178488.75 301.630004883
575071.1875 4178488.75 301.619995117
575071.9375 4178488.75 301.950012207
575071.9375 4178488.75 301.929992676
575072.4375 4178488.75 302.079986572
575072.4375 4178488.75 302.059997559
575073.1875 4178488.75 302.029998779
575073.1875 4178488.75 302.019989014
575073.6875 4178488.75 301.970001221
575073.6875 4178488.75 301.989990234
575074.9375 4178488.75 301.839996338
575074.9375 4178488.75 301.799987793
575075.625 4178488.75 301.970001221
575075.625 4178488.75 301.950012207
575076.125 4178489 301.769989014
575076.125 4178489 301.739990234
575076.625 4178488.5 304.940002441
575076.625 4178488.5 304.920013428
575077.6875 4178488.75 307.220001221
575077.6875 4178488.75 307.239990234
575078 4178488.75 309.890014648
575078 4178488.75 309.880004883
575078.6875 4178489 310.540008545
575078.6875 4178489 310.519989014
575079.0625 4178488.75 310.519989014
575079.0625 4178488.75 310.559997559
575079.75 4178488.75 310.859985352
575079.75 4178488.75 310.839996338
575080.1875 4178488.75 311.470001221
575080.1875 4178488.75 311.440002441
575057.9375 4178489.25 301.179992676
575057.9375 4178489.25 301.209991455
575060.375 4178489.25 301.350006104
575060.375 4178489.25 301.369995117
575060.875 4178489.25 301.230010986
575060.875 4178489.25 301.25
575066.0625 4178489.25 301.480010986
575066.0625 4178489.25 301.459991455
575068.1875 4178489 301.369995117
575068.1875 4178489 301.339996338
575068.6875 4178489 301.709991455
575068.6875 4178489 301.670013428
575069.5 4178489.25 301.519989014
575069.5 4178489.25 301.489990234
575072 4178489.25 302.070007324
575073.25 4178489.25 301.880004883
575073.25 4178489.25 301.850006104
575074.4375 4178489 301.959991455
575074.4375 4178489 301.940002441
575075 4178489.25 301.679992676
575075 4178489.25 301.690002441
575075.6875 4178489.25 301.589996338
575075.6875 4178489.25 301.570007324
575076.6875 4178489.25 305.040008545
575076.6875 4178489.25 305.029998779
575077.125 4178489.25 305.149993896
575077.1875 4178489.25 305.130004883
575077.75 4178489.25 307.320007324
575077.75 4178489.25 307.309997559
575079.75 4178489.25 311.739990234
575079.75 4178489.25 311.75
575080.1875 4178489.25 311.959991455
575080.1875 4178489.25 311.929992676
575059.625 4178489.25 301.200012207
575064.3125 4178489.75 301.380004883
575064.3125 4178489.75 301.339996338
575064.8125 4178489.25 301.489990234
575064.8125 4178489.25 301.510009766
575067.4375 4178489.5 301.350006104
575067.4375 4178489.5 301.339996338
575068.25 4178489.5 301.489990234
575068.25 4178489.5 301.459991455
575068.6875 4178489.75 301.920013428
575068.6875 4178489.75 301.890014648
575070 4178489.5 301.829986572
575070 4178489.5 301.850006104
575070.75 4178489.5 301.720001221
575070.75 4178489.5 301.730010986
575071.25 4178489.25 301.730010986
575071.25 4178489.25 301.709991455
575072 4178489.25 302.040008545
575072.5 4178489.5 301.839996338
575072.5 4178489.5 301.880004883
575073.75 4178489.5 301.910003662
575073.75 4178489.5 301.920013428
575074.5 4178489.75 301.779998779
575074.5 4178489.75 301.809997559
575076.1875 4178489.5 301.690002441
575076.1875 4178489.5 301.660003662
575077 4178489.5 308.029998779
575077 4178489.5 308.010009766
575078.0625 4178489.25 309.200012207
575078.0625 4178489.25 309.160003662
575078.8125 4178489.75 308.619995117
575078.8125 4178489.75 308.649993896
575079.125 4178489.25 310.660003662
575079.125 4178489.25 310.679992676
575059.6875 4178490 301.269989014
575059.6875 4178490 301.299987793
575060.4375 4178489.75 301.559997559
575060.4375 4178489.75 301.519989014
575060.9375 4178489.75 301.309997559
575060.9375 4178489.75 301.329986572
575062.25 4178490 301.220001221
575063 4178489.75 301.359985352
575063 4178489.75 301.339996338
575064.875 4178490 301.299987793
575064.875 4178490 301.309997559
575066.125 4178489.75 301.450012207
575066.125 4178489.75 301.420013428
575066.9375 4178490 301.290008545
575069.5 4178490 301.549987793
575069.5 4178490 301.559997559
575070.0625 4178490 301.540008545
575070.0625 4178490 301.559997559
575070.8125 4178490 301.779998779
575070.8125 4178490 301.760009766
575071.25 4178490 301.720001221
575071.25 4178490 301.700012207
575072.0625 4178490 301.739990234
575072.0625 4178490 301.769989014
575072.5 4178490 301.859985352
575072.5 4178490 301.839996338
575073.3125 4178489.75 301.799987793
575073.3125 4178489.75 301.769989014
575073.8125 4178490 301.739990234
575073.8125 4178490 301.760009766
575075 4178490 301.640014648
575075 4178490 301.630004883
575075.75 4178489.75 301.760009766
575075.75 4178489.75 301.769989014
575076.25 4178490 301.880004883
575076.25 4178490 301.890014648
575076.75 4178489.75 304.910003662
575076.75 4178489.75 304.880004883
575077 4178490 308.739990234
575077.75 4178489.75 307.679992676
575077.75 4178489.75 307.649993896
575078.0625 4178490 309.709991455
575078.0625 4178490 309.690002441
575078.75 4178490 310.049987793
575078.8125 4178490 310.019989014
575079.25 4178490 309.75
575079.8125 4178489.75 311.309997559
575059.75 4178490.5 301.220001221
575059.75 4178490.5 301.190002441
575063.5625 4178490.5 301.600006104
575063.5625 4178490.5 301.570007324
575064.375 4178490.25 301.279998779
575064.375 4178490.25 301.299987793
575065.6875 4178490.5 301.369995117
575065.6875 4178490.5 301.359985352
575067.5 4178490.25 301.410003662
575067.5 4178490.25 301.390014648
575068.25 4178490.25 301.609985352
575068.25 4178490.25 301.600006104
575068.75 4178490.25 301.369995117
575068.75 4178490.25 301.410003662
575069.5625 4178490.5 301.630004883
575069.5625 4178490.5 301.619995117
575073.3125 4178490.5 301.940002441
575073.3125 4178490.5 301.910003662
575074.5625 4178490.25 301.739990234
575074.5625 4178490.25 301.720001221
575075.0625 4178490.5 301.730010986
575075.0625 4178490.5 301.709991455
575075.75 4178490.5 302.019989014
575075.75 4178490.5 302.010009766
575076.125 4178490.5 303.980010986
575076.125 4178490.5 303.959991455
575076.625 4178490.25 307
575076.9375 4178490.5 303.089996338
575077.6875 4178490.25 309.459991455
575077.6875 4178490.25 309.480010986
575078.0625 4178490.5 310.779998779
575078.0625 4178490.5 310.75
575064.4375 4178490.75 301.279998779
575064.4375 4178490.75 301.309997559
575067 4178490.75 301.390014648
575067 4178490.75 301.420013428
575067.5 4178490.75 301.470001221
575067.5 4178490.75 301.480010986
575068.3125 4178490.75 301.769989014
575068.3125 4178490.75 301.760009766
575068.8125 4178490.75 301.730010986
575068.8125 4178490.75 301.700012207
575070.0625 4178490.75 301.829986572
575070.0625 4178490.75 301.869995117
575070.875 4178490.75 301.630004883
575070.875 4178490.75 301.640014648
575071.3125 4178490.5 301.529998779
575071.3125 4178490.5 301.510009766
575072.125 4178490.5 301.670013428
575072.125 4178490.5 301.649993896
575072.5625 4178490.5 301.809997559
575072.5625 4178490.5 301.829986572
575073.8125 4178490.5 301.839996338
575073.8125 4178490.5 301.820007324
575074.625 4178490.75 301.579986572
575074.625 4178490.75 301.570007324
575076 4178490.75 306.220001221
575076 4178490.75 306.25
575076.625 4178490.75 307.929992676
575076.625 4178490.75 307.950012207
575077 4178490.75 309.320007324
575077 4178490.75 309.309997559
575077.5 4178490.75 301.980010986
575077.6875 4178490.75 309.820007324
575077.6875 4178490.75 309.839996338
575078.75 4178490.5 310.980010986
575078.75 4178490.5 310.959991455
575079.1875 4178490.5 310.660003662
575058.5 4178491.25 301.170013428
575058.5 4178491.25 301.160003662
575063.625 4178491 301.25
575065.75 4178491 301.299987793
575065.75 4178491 301.320007324
575066.1875 4178491 301.380004883
575066.25 4178491 301.350006104
575067.0625 4178491.25 301.410003662
575067.0625 4178491.25 301.420013428
575067.5625 4178491.25 301.380004883
575067.5625 4178491.25 301.350006104
575069.625 4178491 301.359985352
575069.625 4178491 301.380004883
575070.125 4178491.25 301.820007324
575070.125 4178491.25 301.809997559
575070.9375 4178491.25 301.579986572
575070.9375 4178491.25 301.609985352
575071.375 4178491 301.75
575071.375 4178491 301.739990234
575072.125 4178491 301.739990234
575072.125 4178491.25 301.720001221
575072.625 4178491.25 301.519989014
575072.625 4178491.25 301.489990234
575073.375 4178491 301.709991455
575073.375 4178491 301.679992676
575073.875 4178491.25 301.880004883
575073.875 4178491.25 301.859985352
575075.125 4178491 301.660003662
575075.125 4178491 301.690002441
575075.5625 4178491.25 305.820007324
575075.625 4178491.25 305.790008545
575075.75 4178491 302.559997559
575075.75 4178491 302.579986572
575076.5625 4178491.25 309.269989014
575076.5625 4178491.25 309.260009766
575077 4178491.25 310.010009766
575077 4178491.25 310.029998779
575078.0625 4178491 310.739990234
575078.0625 4178491 310.720001221
575078.8125 4178491.25 311.119995117
575078.8125 4178491.25 311.140014648
575059.8125 4178491.75 301.200012207
575059.8125 4178491.75 301.230010986
575065 4178491.75 301.359985352
575065.75 4178491.75 301.450012207
575065.75 4178491.75 301.420013428
575066.25 4178491.5 301.540008545
575066.25 4178491.5 301.519989014
575068.375 4178491.25 301.549987793
575068.375 4178491.25 301.540008545
575068.875 4178491.5 301.380004883
575068.875 4178491.5 301.359985352
575069.6875 4178491.75 301.339996338
575071.375 4178491.75 301.739990234
575071.375 4178491.75 301.739990234
575073.4375 4178491.75 301.820007324
575073.4375 4178491.75 301.839996338
575074.6875 4178491.5 301.450012207
575074.6875 4178491.5 301.470001221
575075.125 4178491.75 301.809997559
575075.125 4178491.75 301.779998779
575076.0625 4178491.5 305.859985352
575076.0625 4178491.5 305.829986572
575077.75 4178491.25 310.049987793
575077.75 4178491.25 310.029998779
575078.125 4178491.5 310.850006104
575078.125 4178491.5 310.829986572
575058.5625 4178491.75 301.380004883
575058.5625 4178491.75 301.399993896
575061.875 4178491.75 301.239990234
575061.875 4178491.75 301.260009766
575065 4178491.75 301.329986572
575067.0625 4178491.75 301.570007324
575067.0625 4178491.75 301.549987793
575067.5625 4178491.75 301.640014648
575067.5625 4178491.75 301.619995117
575068.375 4178492 301.519989014
575068.375 4178492 301.489990234
575068.9375 4178492 301.359985352
575068.9375 4178492 301.329986572
575070.1875 4178491.75 301.739990234
575070.1875 4178491.75 301.720001221
575070.9375 4178491.75 301.480010986
575070.9375 4178491.75 301.470001221
575072.1875 4178491.75 301.619995117
575072.1875 4178491.75 301.640014648
575072.6875 4178491.75 301.670013428
575072.6875 4178491.75 301.649993896
575073.9375 4178491.75 301.720001221
575073.9375 4178491.75 301.709991455
575074.6875 4178492 301.660003662
575074.6875 4178492 301.640014648
575075.625 4178491.75 305.890014648
575075.625 4178491.75 305.920013428
575076.8125 4178492 306.510009766
575077.0625 4178491.75 309.829986572
575077.0625 4178491.75 309.790008545
575077.6875 4178491.75 310.839996338
575077.6875 4178491.75 310.859985352
575058.625 4178492.25 301.320007324
575058.625 4178492.25 301.350006104
575065.8125 4178492.25 301.290008545
575065.8125 4178492.25 301.309997559
575066.3125 4178492 301.450012207
575066.3125 4178492 301.470001221
575067.125 4178492.5 301.619995117
575067.125 4178492.5 301.630004883
575067.625 4178492.5 301.570007324
575067.625 4178492.5 301.549987793
575069.6875 4178492.25 301.470001221
575069.6875 4178492.25 301.440002441
575070.25 4178492.5 301.380004883
575070.25 4178492.5 301.350006104
575071 4178492.5 301.5
575071 4178492.5 301.470001221
575071.4375 4178492.25 301.570007324
575071.4375 4178492.25 301.540008545
575072.25 4178492.25 301.649993896
575072.25 4178492.25 301.630004883
575072.75 4178492.25 301.470001221
575072.75 4178492.25 301.5
575073.5 4178492.25 301.700012207
575073.5 4178492.25 301.720001221
575074 4178492.25 301.660003662
575074 4178492.25 301.670013428
575075.1875 4178492.25 301.940002441
575075.1875 4178492.25 301.950012207
575076.125 4178492 305.390014648
575076.125 4178492 305.420013428
575077.125 4178492.25 302.059997559
575077.8125 4178492.5 310.369995117
575077.8125 4178492.5 310.380004883
575078.1875 4178492 310.950012207
575078.1875 4178492 310.970001221
575063.75 4178492.75 301.25
575063.75 4178492.75 301.260009766
575064.5625 4178492.5 301.260009766
575065.0625 4178493 301.290008545
575065.0625 4178492.75 301.320007324
575065.875 4178492.75 301.309997559
575065.875 4178492.75 301.329986572
575066.3125 4178492.75 301.459991455
575066.3125 4178492.75 301.480010986
575068.4375 4178492.5 301.329986572
575068.4375 4178492.5 301.350006104
575069.75 4178492.75 301.589996338
575069.75 4178492.75 301.570007324
575071.5 4178492.75 301.670013428
575071.5 4178492.75 301.700012207
575072.3125 4178493 301.549987793
575072.3125 4178493 301.519989014
575073.5 4178492.75 301.709991455
575073.5 4178492.75 301.679992676
575074.75 4178492.5 301.730010986
575074.75 4178492.5 301.709991455
575075.25 4178492.75 301.839996338
575075.25 4178492.75 301.809997559
575075.75 4178492.5 304.959991455
575075.75 4178492.5 304.970001221
575076.1875 4178492.75 305.989990234
575076.1875 4178492.75 306
575076.875 4178492.5 306.049987793
575076.875 4178492.5 306.029998779
575077.5 4178492.75 304.540008545
575077.5 4178492.75 304.549987793
575058.625 4178493 301.200012207
575058.625 4178493 301.230010986
575067.1875 4178493 301.440002441
575067.1875 4178493 301.420013428
575067.6875 4178493 301.420013428
575067.6875 4178493 301.390014648
575068.5 4178493 301.5
575068.5 4178493 301.470001221
575070.25 4178493 301.410003662
575070.25 4178493 301.390014648
575071.0625 4178493 301.480010986
575071.0625 4178493 301.459991455
575072.75 4178493 301.459991455
575072.75 4178493 301.440002441
575073.6875 4178493 306.809997559
575074 4178493 301.649993896
575074 4178493 301.670013428
575074.4375 4178493.25 307.399993896
575074.4375 4178493.25 307.420013428
575074.75 4178493.25 302.079986572
575074.75 4178493.25 302.089996338
575075 4178493 306.029998779
575075 4178493 306.049987793
575075.75 4178493 305.350006104
575075.75 4178493 305.329986572
575076.125 4178493.25 307.140014648
575076.125 4178493.25 307.109985352
575076.875 4178493 306.519989014
575077.3125 4178493 307.380004883
575063.8125 4178493.5 301.329986572
575063.8125 4178493.5 301.339996338
575065.125 4178493.5 301.299987793
575065.125 4178493.5 301.309997559
575066.375 4178493.25 301.410003662
575066.375 4178493.25 301.429992676
575067.25 4178493.5 301.329986572
575067.25 4178493.5 301.320007324
575067.75 4178493.75 301.329986572
575067.75 4178493.75 301.299987793
575069.75 4178493.25 301.980010986
575069.75 4178493.25 301.950012207
575070.3125 4178493.5 301.450012207
575070.3125 4178493.75 301.429992676
575071.0625 4178493.5 301.589996338
575071.0625 4178493.5 301.559997559
575071.5 4178493.5 301.690002441
575071.5 4178493.5 301.660003662
575072.3125 4178493.5 301.519989014
575072.3125 4178493.5 301.549987793
575072.8125 4178493.5 301.380004883
575072.8125 4178493.5 301.399993896
575073.5625 4178493.5 301.559997559
575073.5625 4178493.5 301.549987793
575074.0625 4178493.5 301.630004883
575074.9375 4178493.5 307.109985352
575074.9375 4178493.5 307.079986572
575075.6875 4178493.5 306.899993896
575075.6875 4178493.5 306.910003662
575076.875 4178493.5 307.429992676
575077.1875 4178493.5 302.179992676
575077.25 4178493.5 308.970001221
575077.25 4178493.5 308.940002441
575066.4375 4178494 301.339996338
575066.4375 4178494 301.369995117
575069.8125 4178494 301.769989014
575069.8125 4178494 301.779998779
575071.5625 4178494 301.720001221
575071.5625 4178494 301.720001221
575073.625 4178494 301.489990234
575073.625 4178494 301.459991455
575074.0625 4178494 301.890014648
575074.0625 4178494 301.910003662
575074.5 4178493.75 307.239990234
575074.5 4178493.75 307.260009766
575076.125 4178493.75 307.279998779
575076.1875 4178493.75 307.25
575064.625 4178494.25 301.540008545
575064.625 4178494.25 301.529998779
575068.5625 4178494.25 301.309997559
575069.0625 4178494.25 301.329986572
575069.0625 4178494.25 301.320007324
575070.375 4178494.25 301.529998779
575070.375 4178494.25 301.5
575071.125 4178494.25 301.549987793
575071.125 4178494.25 301.540008545
575073.8125 4178494.25 306.170013428
575073.8125 4178494.25 306.149993896
575074.5625 4178494.5 306.859985352
575074.5625 4178494.5 306.880004883
575075 4178494 307.010009766
575075 4178494 306.980010986
575075.8125 4178494.25 305.709991455
575075.8125 4178494.25 305.730010986
575076.125 4178494.25 308.649993896
575076.125 4178494.25 308.640014648
575076.875 4178494.25 307.75
575076.875 4178494.25 307.730010986
575077.25 4178494.25 309
575077.25 4178494 301.730010986
575077.25 4178494.25 309.010009766
575066 4178494.5 301.269989014
575067.8125 4178494.75 301.369995117
575067.8125 4178494.75 301.380004883
575068.625 4178494.75 301.470001221
575068.625 4178494.75 301.450012207
575069.875 4178494.5 301.809997559
575069.875 4178494.5 301.799987793
575070.375 4178494.75 301.399993896
575070.375 4178494.75 301.410003662
575071.1875 4178494.75 301.630004883
575071.1875 4178494.75 301.589996338
575071.625 4178494.75 301.390014648
575071.625 4178494.75 301.359985352
575072.8125 4178494.5 303
575072.8125 4178494.5 303.010009766
575073.6875 4178494.5 301.739990234
575073.6875 4178494.5 301.709991455
575075.0625 4178494.75 306.559997559
575075.0625 4178494.75 306.579986572
575075.8125 4178494.75 306.739990234
575075.8125 4178494.75 306.700012207
575076.25 4178494.75 307.600006104
575076.9375 4178494.75 308.130004883
575064.6875 4178495 301.320007324
575064.6875 4178495 301.290008545
575066.5 4178495 301.399993896
575066.5 4178495 301.410003662
575069.125 4178495 301.730010986
575069.125 4178495 301.760009766
575069.9375 4178495.25 301.450012207
575069.9375 4178495.25 301.470001221
575071.6875 4178495.25 301.359985352
575071.6875 4178495.25 301.350006104
575072.5 4178495.25 301.549987793
575072.5 4178495.25 301.529998779
575072.8125 4178495 303.640014648
575072.8125 4178495 303.670013428
575073.5 4178495 304.529998779
575073.5 4178495 304.540008545
575073.9375 4178495 305.190002441
575073.9375 4178495 305.160003662
575074.5 4178495 308.109985352
575074.5 4178495 308.140014648
575075 4178495.25 308.190002441
575075 4178495.25 308.200012207
575075.8125 4178495.25 307.440002441
575075.8125 4178495.25 307.429992676
575066.5625 4178495.75 301.290008545
575066.5625 4178495.75 301.320007324
575067.375 4178495.25 301.369995117
575067.375 4178495.25 301.339996338
575068.6875 4178495.5 301.350006104
575068.6875 4178495.5 301.369995117
575069.1875 4178495.5 301.549987793
575069.1875 4178495.5 301.529998779
575070.4375 4178495.5 301.329986572
575070.4375 4178495.5 301.359985352
575072.375 4178495.75 303.589996338
575072.375 4178495.75 303.619995117
575072.8125 4178495.5 304.429992676
575072.8125 4178495.5 304.390014648
575073.5625 4178495.5 304.019989014
575073.5625 4178495.5 303.989990234
575073.9375 4178495.5 305.769989014
575073.9375 4178495.5 305.779998779
575074.5625 4178495.5 308.209991455
575074.5625 4178495.5 308.239990234
575076.25 4178495.5 308.119995117
575076.25 4178495.5 308.140014648
575076.5625 4178495.25 302.630004883
575063.9375 4178495.75 301.239990234
575063.9375 4178495.75 301.260009766
575068.6875 4178496 301.489990234
575068.6875 4178496 301.519989014
575070 4178495.75 301.459991455
575070 4178495.75 301.440002441
575070.5 4178496 301.5
575070.5 4178496 301.480010986
575073.5625 4178496 304.790008545
575073.5625 4178496 304.820007324
575073.8125 4178495.75 308.140014648
575073.8125 4178495.75 308.109985352
575075 4178495.75 308.589996338
575075 4178495.75 308.559997559
575075.8125 4178495.75 307.589996338
575065.3125 4178496.5 301.369995117
575065.3125 4178496.5 301.339996338
575069.1875 4178496 301.410003662
575069.1875 4178496 301.429992676
575070 4178496.25 301.429992676
575070 4178496.25 301.450012207
575072.5 4178496.25 302.149993896
575072.5 4178496.25 302.119995117
575072.875 4178496.25 304
575072.875 4178496.25 304.019989014
575073.8125 4178496.25 308.540008545
575073.8125 4178496.25 308.559997559
575074.5625 4178496 308.589996338
575074.5625 4178496 308.570007324
575075.0625 4178496.25 308.519989014
575075.0625 4178496.25 308.510009766
575075.8125 4178496.25 308.850006104
575075.8125 4178496.25 308.869995117
575062.6875 4178496.5 301.239990234
575062.6875 4178496.5 301.220001221
575064.8125 4178496.75 301.239990234
575068.75 4178496.5 301.459991455
575068.75 4178496.5 301.429992676
575070.5 4178496.5 301.420013428
575070.5 4178496.5 301.440002441
575073.5625 4178496.5 305.809997559
575073.5625 4178496.5 305.790008545
575074.625 4178496.75 308.359985352
575074.625 4178496.75 308.369995117
575075.0625 4178496.75 308.890014648
575075.0625 4178496.75 308.859985352
575062.75 4178497 301.25
575062.75 4178497 301.230010986
575065.375 4178497 301.410003662
575065.375 4178497 301.440002441
575068 4178497.25 301.339996338
575068 4178497.25 301.320007324
575068.8125 4178497.25 301.390014648
575068.8125 4178497.25 301.399993896
575070.0625 4178497 301.380004883
575070.0625 4178497 301.350006104
575071.0625 4178497.25 306.059997559
575071.0625 4178497.25 306.029998779
575071.3125 4178497 302.450012207
575071.3125 4178497 302.470001221
575071.5 4178497 306.440002441
575071.5 4178497 306.410003662
575072.5625 4178497 301.959991455
575072.5625 4178497 301.970001221
575073 4178497 303.119995117
575073 4178497 303.140014648
575073.4375 4178497 307.859985352
575073.4375 4178497 307.890014648
575073.9375 4178497 308.010009766
575073.9375 4178497 308.029998779
575074.6875 4178497.25 308.420013428
575074.6875 4178497.25 308.390014648
575064.875 4178497.25 301.299987793
575064.875 4178497.25 301.329986572
575066.6875 4178497.5 301.299987793
575066.6875 4178497.5 301.329986572
575072.625 4178497.5 301.720001221
575072.625 4178497.5 301.700012207
575073.0625 4178497.5 301.970001221
575073.125 4178497.5 301.950012207
575073.5 4178497.5 308.200012207
575073.5 4178497.5 308.179992676
575074 4178497.5 307.910003662
575074 4178497.5 307.940002441
575075.1875 4178497.5 307.809997559
575075.1875 4178497.5 307.820007324
575066.75 4178498 301.279998779
575066.75 4178498 301.299987793
575068 4178497.75 301.440002441
575068 4178497.75 301.459991455
575070.375 4178498 305.230010986
575070.375 4178498 305.220001221
575070.625 4178497.75 301.390014648
575070.625 4178497.75 301.369995117
575071 4178497.75 307.429992676
575071 4178497.75 307.390014648
575071.5 4178497.75 307.019989014
575071.5 4178497.75 307.029998779
575072.5 4178497.75 304.630004883
575072.5 4178497.75 304.649993896
575072.9375 4178498 304.799987793
575072.9375 4178498 304.779998779
575074.75 4178498 307.609985352
575074.75 4178498 307.600006104
575071.0625 4178498.25 307.410003662
575071.0625 4178498.25 307.420013428
575071.5625 4178498.25 306.890014648
575071.5625 4178498.25 306.869995117
575073.5 4178498 308.450012207
575073.5 4178498 308.440002441
575074 4178498 308.559997559
575074 4178498 308.579986572
575063.6875 4178498.5 301.380004883
575063.6875 4178498.5 301.359985352
575070.4375 4178498.5 304.989990234
575070.4375 4178498.5 304.970001221
575072.5 4178498.5 304.970001221
575072.5 4178498.5 304.959991455
575072.9375 4178498.5 305
575073 4178498.5 304.970001221
575073.625 4178498.75 306.940002441
575073.625 4178498.75 306.970001221
575074.0625 4178498.75 307.820007324
575074.0625 4178498.75 307.779998779
575067.625 4178499 301.339996338
575067.625 4178499 301.359985352
575071.1875 4178499 306.059997559
575071.1875 4178499 306.079986572
575071.6875 4178499 305.890014648
575071.6875 4178499 305.899993896
575072.5625 4178499 304.160003662
575072.625 4178499 304.130004883
575073 4178499 305.470001221
575073 4178499 305.489990234
575068.8125 4178499.25 304.019989014
575068.8125 4178499.25 304.040008545
575069.25 4178499.25 304.25
575069.25 4178499.25 304.260009766
575070.0625 4178499.5 304.630004883
575070.0625 4178499.5 304.609985352
575070.75 4178499.5 301.75
575070.75 4178499.5 301.760009766
575071.8125 4178499.5 304.630004883
575071.8125 4178499.5 304.649993896
575072.375 4178499.25 307.709991455
575072.375 4178499.25 307.739990234
575072.875 4178499.5 307.470001221
575073.625 4178499.25 307.779998779
575073.625 4178499.25 307.75
575074.125 4178499.25 307.75
575074.125 4178499.25 307.769989014
575068.8125 4178499.75 304.480010986
575068.8125 4178499.75 304.470001221
575069.1875 4178499.75 306
575069.1875 4178499.75 305.980010986
575070 4178500 305.869995117
575070 4178500 305.850006104
575070.75 4178500 302.359985352
575070.75 4178500 302.369995117
575071.5625 4178500 301.609985352
575071.5625 4178500 301.570007324
575072.4375 4178500 307.459991455
575072.4375 4178500 307.470001221
575072.9375 4178500 307.5
575073.3125 4178500 301.420013428
575073.6875 4178499.75 307.579986572
575073.6875 4178499.75 307.549987793
575068.75 4178500.25 305.950012207
575068.75 4178500.25 305.929992676
575069.1875 4178500.25 306.929992676
575069.1875 4178500.25 306.920013428
575071.3125 4178500.25 305.730010986
575071.3125 4178500.25 305.760009766
575071.75 4178500 305.820007324
575068.75 4178500.75 306.809997559
575068.75 4178500.75 306.850006104
575069.1875 4178500.75 307.420013428
575069.1875 4178500.75 307.399993896
575070.1875 4178500.75 303.899993896
575070.1875 4178500.75 303.920013428
575070.75 4178500.5 302.279998779
575070.75 4178500.5 302.260009766
575071.4375 4178500.75 305.179992676
575071.75 4178500.5 306.480010986
575072 4178500.5 302.029998779
575072.4375 4178500.5 307.920013428
575072.4375 4178500.5 307.899993896
575073 4178500.5 307.260009766
575073 4178500.5 307.279998779
575073.3125 4178500.5 301.660003662
575068 4178500.75 305.230010986
575070.8125 4178501.25 302.309997559
575070.8125 4178501.25 302.279998779
575071.25 4178501 307.839996338
575071.25 4178501 307.829986572
575071.6875 4178501 301.589996338
575071.6875 4178501 307.929992676
575071.6875 4178501 307.910003662
575072.0625 4178501 301.880004883
575072.4375 4178501 308.790008545
575072.4375 4178501 308.760009766
575072.9375 4178501 308.730010986
575072.9375 4178501 308.709991455
575068.9375 4178501.5 304.660003662
575068.9375 4178501.5 304.679992676
575070.375 4178501.5 302.019989014
575070.375 4178501.5 302.040008545
575070.625 4178501.5 305.200012207
575070.6875 4178501.5 305.170013428
575071.6875 4178501.5 308.350006104
575071.6875 4178501.5 308.369995117
575072.5 4178501.5 308.989990234
575072.5 4178501.5 308.959991455
575068.3125 4178501.75 301.459991455
575068.3125 4178501.75 301.470001221
575069.625 4178502 301.829986572
575069.625 4178502 301.799987793
575070.1875 4178501.75 305.420013428
575070.1875 4178501.75 305.440002441
575070.625 4178502 305.910003662
575070.625 4178502 305.929992676
575071.3125 4178501.75 307.649993896
575071.3125 4178501.75 307.670013428
575066.75 4178502.25 305.720001221
575067.625 4178502 304.950012207
575068.25 4178502.25 302.579986572
575068.25 4178502.25 302.600006104
575068.9375 4178502 305.549987793
575068.9375 4178502 305.510009766
575069.3125 4178502 306.429992676
575069.3125 4178502 306.420013428
575070.1875 4178502.25 305.649993896
575070.1875 4178502.25 305.670013428
575071.3125 4178502.25 307.899993896
575071.75 4178502 308.739990234
575072.4375 4178502 309.929992676
575072.4375 4178502 309.910003662
575067.625 4178502.5 305.269989014
575067.875 4178502.5 301.410003662
575068 4178502.5 307.459991455
575069 4178502.75 305.220001221
575069 4178502.75 305.200012207
575069.3125 4178502.5 307.470001221
575069.3125 4178502.5 307.440002441
575070.6875 4178502.5 306.019989014
575070.6875 4178502.5 306
575071.75 4178502.75 309.209991455
575071.75 4178502.75 309.179992676
575066.375 4178503 304.899993896
575066.8125 4178503 305.190002441
575066.8125 4178503 305.160003662
575067.5625 4178503 306.660003662
575067.5625 4178503 306.690002441
575067.875 4178503 302.029998779
575068 4178503 307.540008545
575068 4178503 307.519989014
575068.3125 4178502.75 302.570007324
575068.875 4178503 307.470001221
575068.875 4178503 307.510009766
575069.3125 4178503 307.640014648
575069.3125 4178503 307.649993896
575070.25 4178503 305.570007324
575070.25 4178503 305.540008545
575070.75 4178503 305.940002441
575070.75 4178503 305.959991455
575071.4375 4178503 307.010009766
575066.875 4178503.5 305.130004883
575066.875 4178503.5 305.089996338
575068.0625 4178503.5 307.619995117
575068.0625 4178503.5 307.589996338
575070.1875 4178503.5 306.970001221
575070.1875 4178503.5 306.989990234
575070.625 4178503.5 308.119995117
575070.625 4178503.5 308.089996338
575071.5 4178503.5 306.679992676
575071.5 4178503.5 306.660003662
575065.6875 4178503.75 303.619995117
575065.6875 4178503.75 303.640014648
575066.4375 4178503.75 304.970001221
575066.4375 4178503.75 304.950012207
575066.875 4178504 306.149993896
