# .PCD v.7 - Point Cloud Data file format
VERSION .7
FIELDS x y z
SIZE 4 4 4
TYPE F F F
COUNT 1 1 1
WIDTH 1380
HEIGHT 1
VIEWPOINT 0 0 0 1 0 0 0
POINTS 1380
DATA ascii
575068.25 4178420 295.869995117
575068.25 4178420 295.839996338
575069.5 4178419.75 295.820007324
575069.5 4178419.75 295.839996338
575070.0625 4178420 295.850006104
575070.0625 4178420 295.820007324
575070.6875 4178420 295.859985352
575070.6875 4178420 295.880004883
575073 4178420 295.760009766
575073 4178420 295.779998779
575074.125 4178419.75 295.660003662
575074.1875 4178419.75 295.640014648
575074.6875 4178419.75 295.910003662
575074.6875 4178419.75 295.899993896
575075.8125 4178419.75 295.869995117
575075.8125 4178419.75 295.850006104
575076.4375 4178420 296.019989014
575076.4375 4178420 296
575077.5625 4178420 295.880004883
575077.5625 4178420 295.850006104
575078.75 4178420 296.010009766
575078.75 4178420 295.989990234
575079.3125 4178420 296.019989014
575079.3125 4178420 296
575079.8125 4178419.75 296.160003662
575079.8125 4178419.75 296.130004883
575080.4375 4178420 296.369995117
575080.4375 4178420 296.350006104
575081.5 4178420 296.559997559
575081.5 4178420 296.529998779
575082.0625 4178419.75 296.380004883
575082.0625 4178419.75 296.399993896
575082.625 4178420 296.279998779
575082.625 4178420 296.269989014
575083.75 4178420 296.609985352
575083.75 4178420 296.589996338
575085.4375 4178420 296.5
575085.4375 4178420 296.480010986
575088.6875 4178420 296.880004883
575088.6875 4178420 296.850006104
575089.75 4178419.75 296.899993896
575089.75 4178419.75 296.880004883
575090.3125 4178420 296.529998779
575090.3125 4178420 296.570007324
575092.9375 4178420 297.269989014
575092.9375 4178420 297.25
575093.5 4178420 296.970001221
575093.5 4178420 297
575094.5 4178419.75 297.399993896
575094.5 4178419.75 297.359985352
575095.0625 4178419.75 297.380004883
575095.0625 4178419.75 297.399993896
575095.625 4178419.75 297.359985352
575095.625 4178419.75 297.329986572
575096.1875 4178420 297.739990234
575096.1875 4178420 297.709991455
575097.25 4178419.75 297.350006104
575097.25 4178419.75 297.369995117
575098.375 4178419.75 297.529998779
575098.375 4178419.75 297.549987793
575099.4375 4178419.75 297.739990234
575099.4375 4178419.75 297.720001221
575101.125 4178419.75 297.609985352
575101.125 4178419.75 297.600006104
575101.6875 4178420 297.950012207
575101.6875 4178420 297.950012207
575102.8125 4178420 297.779998779
575102.8125 4178420 297.809997559
575103.9375 4178419.75 297.720001221
575103.9375 4178419.75 297.739990234
575062.6875 4178420.25 296.019989014
575062.6875 4178420.25 296.049987793
575063.3125 4178420.25 296.179992676
575063.3125 4178420.25 296.160003662
575063.9375 4178420.5 296.089996338
575064 4178420.5 296.059997559
575064.5625 4178420.25 296.200012207
575064.5625 4178420.25 296.209991455
575065.1875 4178420.25 296.079986572
575065.1875 4178420.25 296.089996338
575065.875 4178420.25 295.739990234
575065.875 4178420.25 295.730010986
575066.4375 4178420 296.070007324
575066.4375 4178420 296.079986572
575067.0625 4178420 295.809997559
575067.0625 4178420 295.829986572
575067.625 4178420.25 296.149993896
575067.625 4178420.25 296.160003662
575068.875 4178420.25 296.149993896
575068.875 4178420.25 296.179992676
575069.5625 4178420.5 295.739990234
575069.5625 4178420.5 295.709991455
575071.3125 4178420.25 295.609985352
575071.3125 4178420.25 295.640014648
575071.875 4178420.25 295.320007324
575071.875 4178420.25 295.299987793
575072.5 4178420.25 295.609985352
575072.5 4178420.25 295.640014648
575073.0625 4178420.5 295.820007324
575073.0625 4178420.5 295.799987793
575073.5625 4178420.25 295.940002441
575073.5625 4178420.25 295.920013428
575074.1875 4178420.5 295.820007324
575074.1875 4178420.5 295.790008545
575074.75 4178420.25 295.859985352
575074.75 4178420.25 295.829986572
575075.3125 4178420.25 295.769989014
575075.3125 4178420.25 295.75
575075.875 4178420.25 296.029998779
575075.875 4178420.25 296
575077 4178420.25 295.910003662
575077 4178420.25 295.890014648
575078.1875 4178420.25 296.049987793
575078.1875 4178420.25 296.070007324
575079.875 4178420.25 296.010009766
575079.875 4178420.25 296.029998779
575081 4178420 296.149993896
575081 4178420 296.119995117
575081.5625 4178420.5 296.070007324
575081.5625 4178420.5 296.109985352
575082.125 4178420.5 296.25
575082.125 4178420.5 296.230010986
575082.6875 4178420.5 296.320007324
575082.6875 4178420.5 296.339996338
575083.1875 4178420.25 296.480010986
575083.25 4178420.25 296.470001221
575084.3125 4178420 296.730010986
575084.3125 4178420 296.739990234
575084.875 4178420.25 296.570007324
575084.875 4178420.25 296.589996338
575085.5 4178420.5 296.399993896
575085.5 4178420.5 296.369995117
575086 4178420.25 296.459991455
575086 4178420.25 296.450012207
575086.5625 4178420.25 296.420013428
575086.5625 4178420.25 296.390014648
575087.125 4178420.25 296.190002441
575087.125 4178420.25 296.209991455
575087.625 4178420.25 296.649993896
575087.625 4178420.25 296.679992676
575088.1875 4178420.25 296.459991455
575088.1875 4178420.25 296.470001221
575089.25 4178420.25 296.649993896
575089.25 4178420.25 296.679992676
575089.8125 4178420.25 296.959991455
575089.8125 4178420.25 296.929992676
575090.875 4178420.25 296.820007324
575090.875 4178420.25 296.790008545
575091.3125 4178420.25 296.829986572
575091.375 4178420.25 296.790008545
575091.875 4178420.25 296.839996338
575091.875 4178420.25 296.850006104
575092.4375 4178420 297.049987793
575092.4375 4178420 297.070007324
575094 4178420.25 296.940002441
575094 4178420.25 296.910003662
575094.5625 4178420.25 297.239990234
575094.5625 4178420.25 297.25
575095.125 4178420.25 297.369995117
575095.125 4178420.25 297.339996338
575095.625 4178420.25 297.260009766
575095.625 4178420.25 297.299987793
575096.75 4178420.25 297.369995117
575096.75 4178420.25 297.339996338
575097.3125 4178420.5 297.339996338
575097.3125 4178420.5 297.359985352
575097.8125 4178420 297.660003662
575097.8125 4178420 297.640014648
575098.4375 4178420.5 297.549987793
575098.4375 4178420.5 297.529998779
575098.9375 4178420.25 297.600006104
575098.9375 4178420.25 297.579986572
575099.5 4178420.25 297.570007324
575099.5 4178420.25 297.549987793
575100 4178420.25 297.75
575100 4178420.25 297.730010986
575100.625 4178420.25 297.480010986
575100.625 4178420.25 297.489990234
575101.1875 4178420.25 297.540008545
575101.1875 4178420.25 297.570007324
575102.25 4178420.25 297.730010986
575102.25 4178420.25 297.760009766
575103.375 4178420.25 297.940002441
575103.375 4178420.25 297.959991455
575103.9375 4178420.5 297.700012207
575104 4178420.5 297.679992676
575104.5 4178420.25 297.959991455
575104.5 4178420.25 297.929992676
575105.0625 4178420.25 297.929992676
575105.0625 4178420.25 297.950012207
575106.25 4178420.5 298
575062.75 4178420.75 296
575062.75 4178420.75 295.980010986
575063.375 4178421 296.209991455
575063.375 4178421 296.179992676
575064.625 4178420.75 296.109985352
575064.625 4178420.75 296.130004883
575065.25 4178420.75 295.739990234
575065.25 4178420.75 295.75
575065.9375 4178420.75 295.739990234
575065.9375 4178420.75 295.720001221
575066.5 4178420.75 295.899993896
575066.5 4178420.75 295.880004883
575067.125 4178420.75 295.950012207
575067.125 4178420.75 295.929992676
575067.75 4178420.75 295.850006104
575067.75 4178420.75 295.869995117
575068.3125 4178420.75 295.929992676
575068.3125 4178420.75 295.910003662
575068.9375 4178420.75 295.619995117
575068.9375 4178420.75 295.649993896
575070.125 4178420.5 295.670013428
575070.125 4178420.5 295.649993896
575070.75 4178420.75 295.679992676
575070.75 4178420.75 295.720001221
575071.3125 4178420.75 295.489990234
575071.375 4178420.75 295.470001221
575071.9375 4178420.75 295.579986572
575071.9375 4178420.75 295.570007324
575072.5 4178420.75 295.549987793
575072.5 4178420.75 295.529998779
575073.625 4178420.75 295.799987793
575073.625 4178420.75 295.779998779
575074.75 4178420.75 295.739990234
575074.75 4178420.75 295.769989014
575075.375 4178420.75 295.75
575075.375 4178420.75 295.720001221
575075.9375 4178420.75 295.799987793
575075.9375 4178420.75 295.790008545
575076.5 4178420.5 295.959991455
575076.5 4178420.5 295.929992676
575077.0625 4178420.75 296.010009766
575077.0625 4178420.75 296
575077.625 4178420.5 296.010009766
575077.625 4178420.5 295.989990234
575078.25 4178420.75 295.890014648
575078.25 4178420.75 295.880004883
575078.75 4178420.5 296.109985352
575078.75 4178420.5 296.070007324
575079.3125 4178420.75 295.989990234
575079.3125 4178420.75 295.970001221
575080.4375 4178420.5 296.269989014
575080.4375 4178420.5 296.299987793
575081.0625 4178420.75 296.290008545
575081.0625 4178420.75 296.260009766
575083.25 4178420.75 296.570007324
575083.25 4178420.75 296.549987793
575083.75 4178420.75 296.540008545
575083.75 4178420.75 296.510009766
575084.375 4178420.75 296.690002441
575084.375 4178420.75 296.660003662
575084.9375 4178420.75 296.570007324
575084.9375 4178420.75 296.589996338
575086 4178420.75 296.769989014
575086.0625 4178420.75 296.739990234
575086.5625 4178420.75 296.679992676
575086.5625 4178420.75 296.720001221
575087.125 4178420.75 296.420013428
575087.1875 4178420.75 296.380004883
575087.6875 4178420.75 296.799987793
575087.6875 4178420.75 296.769989014
575088.1875 4178420.75 296.790008545
575088.1875 4178420.75 296.790008545
575088.75 4178420.5 296.529998779
575088.75 4178420.5 296.510009766
575089.3125 4178420.75 296.579986572
575089.3125 4178420.75 296.559997559
575090.375 4178420.75 296.690002441
575090.375 4178420.75 296.700012207
575090.875 4178420.75 297.100006104
575090.875 4178420.75 297.119995117
575091.375 4178420.75 296.820007324
575091.375 4178420.75 296.790008545
575091.9375 4178420.75 297.079986572
575091.9375 4178420.75 297.109985352
575092.4375 4178420.75 297.109985352
575092.4375 4178420.75 297.140014648
575093 4178420.5 296.950012207
575093 4178420.5 296.970001221
575093.5 4178420.5 297.040008545
575093.5 4178420.5 297.019989014
575094.0625 4178420.75 297.029998779
575094.0625 4178420.75 297.010009766
575095.1875 4178421 297.119995117
575095.1875 4178421 297.140014648
575096.25 4178420.75 297.440002441
575096.25 4178420.75 297.420013428
575096.75 4178420.75 297.489990234
575096.75 4178420.75 297.519989014
575097.875 4178420.75 297.720001221
575097.875 4178420.75 297.75
575099 4178420.75 297.399993896
575099 4178420.75 297.410003662
575100.125 4178420.75 297.230010986
575100.125 4178420.75 297.209991455
575100.6875 4178420.75 297.170013428
575100.6875 4178420.75 297.140014648
575101.25 4178421 297.179992676
575101.25 4178421 297.170013428
575101.75 4178420.75 297.880004883
575101.75 4178420.75 297.890014648
575102.3125 4178420.75 297.890014648
575102.3125 4178420.75 297.859985352
575102.875 4178420.5 297.570007324
575102.875 4178420.5 297.540008545
575106.875 4178420.75 297.899993896
575106.875 4178420.75 297.920013428
575109.25 4178420.5 297.970001221
575109.25 4178420.5 297.929992676
575109.875 4178420.75 297.920013428
575109.875 4178420.75 297.950012207
575110.4375 4178420.5 297.859985352
575110.4375 4178420.5 297.890014648
575064 4178421 296.140014648
575064 4178421 296.109985352
575066.5 4178421.25 295.769989014
575066.5 4178421.25 295.790008545
575067.1875 4178421.25 295.730010986
575067.1875 4178421.25 295.709991455
575068.375 4178421.25 295.769989014
575068.375 4178421.25 295.739990234
575069.5625 4178421 295.609985352
575069.5625 4178421 295.649993896
575070.1875 4178421.25 295.779998779
575070.1875 4178421.25 295.799987793
575070.8125 4178421.25 295.380004883
575070.8125 4178421.25 295.350006104
575073.0625 4178421 295.950012207
575073.125 4178421 295.920013428
575074.25 4178421 295.970001221
575074.25 4178421 295.980010986
575076.5 4178421.25 295.769989014
575076.5 4178421.25 295.75
575077.6875 4178421.25 296.119995117
575077.6875 4178421.25 296.089996338
575078.8125 4178421.25 296.040008545
575078.8125 4178421.25 296.010009766
575079.375 4178421.25 295.799987793
575079.375 4178421.25 295.820007324
575079.9375 4178421 296.079986572
575079.9375 4178421 296.049987793
575080.5 4178421.25 296.279998779
575080.5 4178421.25 296.269989014
575081.125 4178421.25 296.140014648
575081.125 4178421.25 296.109985352
575081.625 4178421 296.339996338
575081.625 4178421 296.309997559
575082.1875 4178421 296.470001221
575082.1875 4178421 296.470001221
575082.6875 4178421 296.459991455
575082.6875 4178421 296.450012207
575083.8125 4178421.25 296.559997559
575083.8125 4178421.25 296.519989014
575084.4375 4178421.25 296.339996338
575084.4375 4178421.25 296.329986572
575085.5 4178421 296.440002441
575085.5 4178421 296.399993896
575088.75 4178421 297.010009766
575088.75 4178421 297.040008545
575089.875 4178421 296.820007324
575089.875 4178421 296.799987793
575090.375 4178421.25 296.660003662
575090.375 4178421.25 296.679992676
575092.5 4178421.25 297.089996338
575092.5 4178421.25 297.070007324
575093.0625 4178421.25 297.049987793
575093.0625 4178421.25 297.010009766
575093.5625 4178421.25 297.109985352
575093.5625 4178421.25 297.079986572
575094.625 4178421 297.130004883
575094.625 4178421 297.089996338
575095.6875 4178421 297.450012207
575095.6875 4178421 297.470001221
575096.3125 4178421.25 297.25
575096.3125 4178421.25 297.209991455
575097.375 4178421 297.369995117
575097.375 4178421 297.390014648
575097.9375 4178421.25 297.019989014
575097.9375 4178421.25 297.040008545
575098.5 4178421 297.369995117
575098.5 4178421 297.380004883
575099.5625 4178421 297.160003662
575099.5625 4178421 297.140014648
575101.8125 4178421.25 297.279998779
575101.8125 4178421.25 297.260009766
575102.9375 4178421.25 297.459991455
575102.9375 4178421.25 297.480010986
575105.125 4178421 297.829986572
575105.125 4178421 297.799987793
575105.6875 4178421 297.970001221
575105.6875 4178421 297.950012207
575106.3125 4178421 297.700012207
575106.3125 4178421 297.690002441
575107.5625 4178421.25 297.540008545
575107.5625 4178421.25 297.559997559
575108.75 4178421 297.579986572
575108.75 4178421 297.609985352
575109.3125 4178421.25 297.809997559
575109.3125 4178421.25 297.829986572
575110.5 4178421.25 297.890014648
575110.5 4178421.25 297.869995117
575111.125 4178421.25 297.910003662
575111.125 4178421.25 297.890014648
575062.125 4178421.5 295.989990234
575062.125 4178421.5 296
575062.75 4178421.5 295.959991455
575062.75 4178421.5 295.980010986
575063.4375 4178421.5 296.079986572
575063.4375 4178421.5 296.040008545
575064.0625 4178421.5 295.779998779
575064.0625 4178421.5 295.799987793
575064.6875 4178421.25 296.029998779
575064.6875 4178421.25 296.070007324
575065.3125 4178421.5 295.630004883
575065.3125 4178421.5 295.600006104
575066 4178421.5 295.489990234
575066 4178421.5 295.519989014
575067.75 4178421.25 295.600006104
575067.75 4178421.25 295.609985352
575069 4178421.25 295.640014648
575069 4178421.25 295.600006104
575069.625 4178421.5 295.5
575069.625 4178421.5 295.529998779
575071.375 4178421.5 295.660003662
575071.375 4178421.5 295.640014648
575072 4178421.25 295.600006104
575072 4178421.25 295.589996338
575072.5625 4178421.5 295.630004883
575072.5625 4178421.5 295.640014648
575073.125 4178421.75 295.929992676
575073.125 4178421.75 295.959991455
575073.6875 4178421.25 295.640014648
575073.6875 4178421.25 295.660003662
575074.25 4178421.5 296.010009766
575074.25 4178421.5 296.019989014
575074.8125 4178421.5 295.730010986
575074.8125 4178421.5 295.709991455
575075.375 4178421.5 295.790008545
575075.375 4178421.5 295.769989014
575075.9375 4178421.5 295.859985352
575075.9375 4178421.5 295.829986572
575077.125 4178421.5 296.130004883
575077.125 4178421.5 296.119995117
575078.25 4178421.25 296.220001221
575078.25 4178421.25 296.25
575080 4178421.5 296.260009766
575080 4178421.5 296.269989014
575081.6875 4178421.75 296.279998779
575081.6875 4178421.75 296.309997559
575082.25 4178421.5 296.579986572
575082.25 4178421.5 296.609985352
575082.75 4178421.75 296.279998779
575082.75 4178421.75 296.299987793
575083.3125 4178421.5 296.290008545
575083.3125 4178421.5 296.260009766
575085 4178421.5 296.630004883
575085 4178421.5 296.609985352
575085.5625 4178421.75 296.390014648
575085.5625 4178421.75 296.359985352
575086.125 4178421.25 296.320007324
575086.125 4178421.25 296.299987793
575086.625 4178421.5 296.529998779
575086.625 4178421.5 296.510009766
575087.1875 4178421.25 296.390014648
575087.1875 4178421.25 296.420013428
575087.75 4178421.25 296.519989014
575087.75 4178421.25 296.529998779
575088.25 4178421.5 296.660003662
575088.25 4178421.5 296.640014648
575089.3125 4178421.25 296.700012207
575089.3125 4178421.25 296.720001221
575089.9375 4178421.5 296.700012207
575089.9375 4178421.5 296.679992676
575090.9375 4178421.5 297.100006104
575090.9375 4178421.5 297.089996338
575091.4375 4178421.25 296.769989014
575091.4375 4178421.25 296.790008545
575092 4178421.5 297.040008545
575092 4178421.5 297.029998779
575094.125 4178421.25 297.260009766
575094.125 4178421.25 297.290008545
575094.6875 4178421.5 297.119995117
575094.6875 4178421.5 297.140014648
575095.1875 4178421.5 297.230010986
575095.1875 4178421.5 297.25
575095.75 4178421.5 296.940002441
575095.75 4178421.5 296.920013428
575096.875 4178421.25 297.160003662
575096.875 4178421.25 297.170013428
575097.4375 4178421.5 297.059997559
575097.4375 4178421.5 297.049987793
575098.5 4178421.5 297.5
575098.5 4178421.5 297.519989014
575099 4178421.25 297.480010986
575099 4178421.25 297.470001221
575099.625 4178421.5 297.480010986
575099.625 4178421.5 297.459991455
575100.125 4178421.5 297.739990234
575100.125 4178421.5 297.709991455
575100.75 4178421.25 297.489990234
575100.75 4178421.25 297.480010986
575101.25 4178421.5 297.549987793
575101.25 4178421.5 297.540008545
575102.375 4178421.5 297.720001221
575102.375 4178421.5 297.760009766
575103.4375 4178421.25 297.739990234
575103.4375 4178421.25 297.760009766
575104.0625 4178421.5 297.570007324
575104.0625 4178421.5 297.589996338
575104.625 4178421.5 297.640014648
575104.625 4178421.5 297.619995117
575105.1875 4178421.5 297.950012207
575105.1875 4178421.5 297.929992676
575105.75 4178421.5 297.920013428
575105.75 4178421.5 297.940002441
575106.375 4178421.5 297.809997559
575106.375 4178421.5 297.769989014
575106.9375 4178421.25 297.579986572
575106.9375 4178421.25 297.549987793
575108.125 4178421.5 297.959991455
575108.125 4178421.5 297.940002441
575108.75 4178421.5 297.920013428
575108.75 4178421.5 297.940002441
575109.9375 4178421.5 297.869995117
575109.9375 4178421.5 297.839996338
575111.75 4178421.75 298.029998779
575111.75 4178421.75 298.010009766
575062.1875 4178422 296.200012207
575062.1875 4178422 296.220001221
575062.8125 4178422 296.119995117
575062.8125 4178422 296.149993896
575063.5 4178422 295.959991455
575063.5 4178422 295.940002441
575064.75 4178422 295.579986572
575064.75 4178422 295.549987793
575065.375 4178422 295.470001221
575065.375 4178422 295.450012207
575066 4178422 295.399993896
575066 4178422 295.429992676
575066.5625 4178422 295.829986572
575066.5625 4178422 295.799987793
575067.1875 4178421.75 295.779998779
575067.1875 4178421.75 295.760009766
575067.8125 4178422 295.670013428
575067.8125 4178422 295.640014648
575068.4375 4178421.75 295.5
575068.4375 4178421.75 295.529998779
575069 4178422 295.670013428
575069 4178422 295.649993896
575070.25 4178421.75 295.570007324
575070.25 4178421.75 295.549987793
575070.8125 4178421.75 295.619995117
575070.8125 4178421.75 295.600006104
575071.4375 4178422 295.839996338
575071.4375 4178422 295.809997559
575072 4178422 295.630004883
575072 4178422 295.649993896
575072.5625 4178422 295.869995117
575072.5625 4178422 295.850006104
575073.75 4178422 295.630004883
575073.75 4178422 295.609985352
575074.875 4178422 295.779998779
575074.875 4178422 295.809997559
575075.4375 4178422 295.799987793
575075.4375 4178422 295.829986572
575076 4178422 295.869995117
575076 4178422 295.850006104
575076.5625 4178421.75 295.910003662
575076.5625 4178421.75 295.880004883
575077.125 4178422 296.109985352
575077.125 4178422 296.140014648
575077.75 4178421.75 296.029998779
575077.75 4178421.75 296.059997559
575078.3125 4178422 296.019989014
575078.3125 4178422 295.989990234
575078.875 4178421.75 295.929992676
575078.875 4178421.75 295.899993896
575079.4375 4178421.75 296.010009766
575079.4375 4178421.75 295.980010986
575080 4178422 296.179992676
575080 4178422 296.200012207
575080.5625 4178421.75 296.320007324
575080.5625 4178421.75 296.299987793
575081.125 4178421.75 296.25
575081.125 4178421.75 296.239990234
575083.375 4178422 296.010009766
575083.375 4178422 295.980010986
575083.875 4178421.75 296.190002441
575083.875 4178421.75 296.209991455
575084.5 4178421.75 296.279998779
575084.5 4178421.75 296.260009766
575085 4178422 296.679992676
575085 4178422 296.660003662
575086.125 4178422 296.690002441
575086.125 4178422 296.649993896
575086.6875 4178422 296.519989014
575086.6875 4178422 296.489990234
575087.25 4178422 296.549987793
575087.25 4178422 296.570007324
575087.8125 4178422 296.470001221
575087.8125 4178422 296.470001221
575088.3125 4178422 296.970001221
575088.3125 4178422 296.929992676
575088.8125 4178421.75 296.970001221
575088.8125 4178421.75 296.989990234
575089.375 4178422 296.799987793
575089.375 4178422 296.769989014
575090.4375 4178421.75 296.540008545
575090.4375 4178421.75 296.519989014
575091 4178422 296.679992676
575091 4178422 296.700012207
575091.5 4178422 296.829986572
575091.5 4178422 296.829986572
575092.0625 4178422 296.709991455
575092.0625 4178422 296.739990234
575092.5625 4178421.75 297
575092.5625 4178421.75 296.970001221
575093.0625 4178421.75 297.209991455
575093.0625 4178421.75 297.230010986
575093.625 4178421.75 297.220001221
575093.625 4178421.75 297.179992676
575094.1875 4178422 297.299987793
575094.1875 4178422 297.279998779
575094.75 4178422 296.920013428
575094.75 4178422 296.880004883
575095.25 4178422 297.059997559
575095.25 4178422 297.040008545
575096.3125 4178421.75 297.290008545
575096.3125 4178421.75 297.260009766
575096.875 4178422 297.399993896
575096.875 4178422 297.410003662
575097.9375 4178421.75 297.5
575098 4178421.75 297.480010986
575099.0625 4178422 297.760009766
575099.0625 4178422 297.730010986
575100.1875 4178422 297.660003662
575100.1875 4178422 297.630004883
575100.75 4178422 297.640014648
575100.75 4178422 297.619995117
575101.3125 4178422 297.75
575101.3125 4178422 297.720001221
575101.8125 4178421.75 297.640014648
575101.8125 4178421.75 297.640014648
575102.4375 4178422 297.670013428
575102.4375 4178422 297.679992676
575102.9375 4178421.75 297.959991455
575103.5 4178422 297.959991455
575103.5 4178422 297.929992676
575104.625 4178422 297.640014648
575104.625 4178422 297.670013428
575106.9375 4178422 297.869995117
575106.9375 4178422 297.869995117
575107.5625 4178421.75 297.929992676
575107.5625 4178421.75 297.899993896
575108.1875 4178422 297.910003662
575108.1875 4178422 297.890014648
575109.375 4178421.75 298.010009766
575109.375 4178421.75 297.980010986
575110.5625 4178421.75 297.869995117
575110.5625 4178421.75 297.850006104
575061.5625 4178422.25 295.799987793
575061.5625 4178422.25 295.779998779
575064.125 4178422.25 295.619995117
575064.125 4178422.25 295.600006104
575066.625 4178422.5 295.399993896
575066.625 4178422.5 295.369995117
575067.25 4178422.5 295.720001221
575067.25 4178422.5 295.700012207
575068.5 4178422.5 295.640014648
575068.5 4178422.5 295.600006104
575069.6875 4178422.25 295.410003662
575069.6875 4178422.25 295.390014648
575070.25 4178422.5 295.660003662
575070.25 4178422.5 295.630004883
575070.875 4178422.5 295.640014648
575070.875 4178422.5 295.670013428
575073.1875 4178422.25 296.059997559
575073.1875 4178422.25 296.040008545
575074.3125 4178422.25 295.760009766
575074.3125 4178422.25 295.739990234
575076.625 4178422.25 296.040008545
575076.625 4178422.25 296.070007324
575077.75 4178422.25 295.859985352
575077.75 4178422.25 295.880004883
575078.9375 4178422.25 295.980010986
575078.9375 4178422.25 295.959991455
575079.5 4178422.5 295.929992676
575079.5 4178422.5 295.940002441
575080.5625 4178422.25 296.290008545
575080.625 4178422.25 296.279998779
575081.1875 4178422.5 296.309997559
575081.1875 4178422.5 296.279998779
575081.6875 4178422.25 296.320007324
575081.6875 4178422.25 296.290008545
575082.25 4178422.25 296.429992676
575082.25 4178422.25 296.399993896
575082.8125 4178422.25 296.100006104
575082.8125 4178422.25 296.119995117
575083.9375 4178422.5 296.390014648
575083.9375 4178422.5 296.369995117
575084.5 4178422.5 296.290008545
575084.5 4178422.5 296.260009766
575085.625 4178422.25 296.489990234
575085.625 4178422.25 296.519989014
575087.25 4178422.5 296.75
575087.25 4178422.5 296.739990234
575088.875 4178422.25 296.720001221
575088.875 4178422.25 296.690002441
575089.9375 4178422 296.859985352
575089.9375 4178422 296.829986572
575090.5 4178422.5 296.570007324
575090.5 4178422.5 296.609985352
575092.625 4178422.5 296.700012207
575092.625 4178422.5 296.679992676
575093.125 4178422.25 296.980010986
575093.125 4178422.25 297.010009766
575093.6875 4178422.25 296.880004883
575093.6875 4178422.25 296.850006104
575095.8125 4178422 297.149993896
575095.8125 4178422 297.170013428
575096.375 4178422.5 297.540008545
575096.375 4178422.5 297.559997559
575097.5 4178422.25 297.200012207
575097.5 4178422.25 297.220001221
575098 4178422.5 297.399993896
575098 4178422.5 297.380004883
575098.5625 4178422.25 297.459991455
575098.5625 4178422.25 297.440002441
575103 4178422.25 297.880004883
575103 4178422.25 297.850006104
575104.125 4178422.25 297.769989014
575104.125 4178422.25 297.790008545
575105.25 4178422 297.929992676
575105.25 4178422 297.950012207
575105.75 4178422.25 297.989990234
575105.8125 4178422.25 297.959991455
575106.4375 4178422.25 297.989990234
575106.4375 4178422.25 297.970001221
575107.625 4178422.25 298.019989014
575062.1875 4178422.5 296.119995117
575062.25 4178422.5 296.079986572
575062.875 4178422.5 295.829986572
575062.875 4178422.5 295.799987793
575063.5 4178422.5 295.920013428
575063.5 4178422.5 295.929992676
575064.1875 4178422.75 295.450012207
575064.1875 4178422.75 295.410003662
575064.8125 4178422.5 295.690002441
575064.8125 4178422.5 295.720001221
575065.4375 4178422.5 295.299987793
575065.4375 4178422.5 295.320007324
575066.0625 4178422.5 295.380004883
575066.0625 4178422.5 295.380004883
575067.875 4178422.5 295.609985352
575067.875 4178422.5 295.589996338
575069.0625 4178422.5 295.720001221
575069.0625 4178422.5 295.739990234
575069.75 4178422.75 295.309997559
575069.75 4178422.75 295.279998779
575071.4375 4178422.5 295.959991455
575071.4375 4178422.5 295.989990234
575072.0625 4178422.5 295.929992676
575072.0625 4178422.5 295.920013428
575072.625 4178422.5 295.970001221
575072.625 4178422.5 295.989990234
575073.25 4178422.75 295.829986572
575073.25 4178422.75 295.799987793
575073.75 4178422.5 295.989990234
575073.75 4178422.5 296
575074.375 4178422.75 295.820007324
575074.375 4178422.75 295.809997559
575074.9375 4178422.75 295.820007324
575074.9375 4178422.75 295.839996338
575075.5 4178422.5 295.799987793
575075.5 4178422.5 295.829986572
575076 4178422.5 296.029998779
575076 4178422.5 296.019989014
575077.1875 4178422.5 295.940002441
575077.1875 4178422.5 295.980010986
575078.375 4178422.5 296.049987793
575078.375 4178422.5 296.019989014
575080.0625 4178422.75 296.019989014
575080.0625 4178422.75 296.049987793
575081.75 4178422.75 296.239990234
575081.75 4178422.75 296.209991455
575082.3125 4178422.75 296.369995117
575082.3125 4178422.75 296.390014648
575082.875 4178422.75 296.269989014
575082.875 4178422.75 296.239990234
575083.375 4178422.5 296.540008545
575083.375 4178422.5 296.559997559
575085.0625 4178422.5 296.489990234
575085.0625 4178422.5 296.480010986
575085.6875 4178422.75 296.450012207
575085.6875 4178422.75 296.429992676
575086.1875 4178422.5 296.489990234
575086.1875 4178422.5 296.519989014
575086.75 4178422.5 296.429992676
575086.75 4178422.5 296.410003662
575087.8125 4178422.5 296.529998779
575087.8125 4178422.5 296.510009766
575088.375 4178422.5 296.75
575088.375 4178422.5 296.769989014
575088.9375 4178422.75 296.630004883
575088.9375 4178422.75 296.649993896
575089.4375 4178422.5 296.700012207
575089.4375 4178422.5 296.679992676
575090 4178422.75 297.209991455
575090 4178422.75 297.230010986
575091 4178422.5 296.950012207
575091 4178422.5 296.929992676
575091.5 4178422.5 297.019989014
575091.5 4178422.5 296.989990234
575092.0625 4178422.5 297.179992676
575092.0625 4178422.5 297.149993896
575094.1875 4178422.5 297.140014648
575094.25 4178422.5 297.119995117
575094.75 4178422.75 297.109985352
575094.75 4178422.75 297.079986572
575095.3125 4178422.75 297.010009766
575095.3125 4178422.75 297.029998779
575095.8125 4178422.75 297.299987793
575095.8125 4178422.75 297.279998779
575096.9375 4178422.5 297.279998779
575096.9375 4178422.5 297.25
575097.5 4178422.75 297.299987793
575097.5 4178422.75 297.279998779
575098.625 4178422.75 297.350006104
575098.625 4178422.75 297.369995117
575099.125 4178422.5 297.429992676
575099.125 4178422.5 297.410003662
575099.6875 4178422.75 297.920013428
575100.25 4178422.5 297.559997559
575100.25 4178422.5 297.529998779
575100.8125 4178422.5 297.720001221
575100.8125 4178422.5 297.739990234
575101.3125 4178422.75 297.720001221
575101.3125 4178422.75 297.75
575102.4375 4178422.5 297.709991455
575102.4375 4178422.5 297.700012207
575104.125 4178422.75 297.880004883
575104.125 4178422.75 297.890014648
575104.6875 4178422.5 297.730010986
575104.6875 4178422.5 297.739990234
575105.25 4178422.75 297.970001221
575105.25 4178422.75 297.950012207
575105.8125 4178422.75 297.839996338
575105.8125 4178422.75 297.829986572
575107 4178422.5 297.940002441
575107 4178422.5 297.959991455
575061 4178423 295.859985352
575061 4178423 295.839996338
575061.625 4178423 295.600006104
575061.625 4178423 295.589996338
575062.25 4178423.25 295.799987793
575062.25 4178423.25 295.799987793
575062.9375 4178423.25 295.609985352
575062.9375 4178423.25 295.630004883
575063.5625 4178423.25 295.700012207
575063.5625 4178423.25 295.679992676
575064.8125 4178423 295.5
575064.8125 4178423 295.519989014
575065.5 4178423.25 295.299987793
575065.5 4178423.25 295.309997559
575066.125 4178423.25 295.260009766
575066.125 4178423.25 295.279998779
575066.6875 4178423 295.410003662
575066.6875 4178423 295.390014648
575067.3125 4178423 295.630004883
575067.3125 4178423 295.619995117
575067.9375 4178423 295.269989014
575067.9375 4178423 295.290008545
575068.5625 4178423 295.410003662
575068.5625 4178423 295.429992676
575069.125 4178423 295.350006104
575069.125 4178423 295.390014648
575070.3125 4178423 295.709991455
575070.3125 4178423 295.690002441
575070.9375 4178423 295.549987793
575070.9375 4178423 295.529998779
575071.5 4178423.25 295.779998779
575071.5 4178423.25 295.799987793
575072.0625 4178423 295.970001221
575072.0625 4178423 295.950012207
575072.6875 4178423.25 295.980010986
575072.6875 4178423.25 296.010009766
575073.8125 4178423 296.100006104
575073.8125 4178423 296.070007324
575074.9375 4178423.25 296.029998779
575074.9375 4178423.25 296.070007324
575075.5625 4178423.25 295.700012207
575075.5625 4178423.25 295.679992676
575076.0625 4178423.25 295.890014648
575076.0625 4178423.25 295.869995117
575076.625 4178423 296.130004883
575076.625 4178423 296.109985352
575077.25 4178423.25 295.980010986
575077.25 4178423.25 296.010009766
575077.8125 4178423 295.910003662
575077.8125 4178423 295.929992676
575078.375 4178423 295.910003662
575078.375 4178423 295.899993896
575079 4178423 295.880004883
575079 4178423 295.850006104
575079.5 4178423 295.940002441
575079.5 4178423 295.920013428
575080.125 4178423.25 296.070007324
575080.125 4178423.25 296.100006104
575080.625 4178423 296.320007324
575080.625 4178423 296.299987793
575081.25 4178423 296.329986572
575081.25 4178423 296.350006104
575083.4375 4178423.25 296.540008545
575083.4375 4178423.25 296.510009766
575084 4178423 296.209991455
575084 4178423 296.190002441
575084.5625 4178423 296.510009766
575084.5625 4178423 296.529998779
575085.125 4178423.25 296.339996338
575085.125 4178423.25 296.320007324
575086.25 4178423 296.299987793
575086.25 4178423 296.329986572
575086.8125 4178423.25 296.459991455
575086.8125 4178423.25 296.480010986
575087.3125 4178423 296.559997559
575087.3125 4178423 296.589996338
575087.875 4178423 296.450012207
575087.875 4178423 296.489990234
575088.375 4178423.25 296.850006104
575088.375 4178423.25 296.820007324
575089.5 4178423.25 296.739990234
575089.5 4178423.25 296.709991455
575090.5 4178423 296.850006104
575090.5 4178423 296.820007324
575091.0625 4178423.25 297.329986572
575091.0625 4178423.25 297.350006104
575091.5625 4178423 296.989990234
575091.5625 4178423 297.010009766
575092.125 4178423.25 297.220001221
575092.125 4178423.25 297.260009766
575092.625 4178423 296.980010986
575092.625 4178423 297.010009766
575093.1875 4178423 297.279998779
575093.1875 4178423 297.290008545
575093.6875 4178423 297.269989014
575093.6875 4178423 297.25
575094.25 4178423 297.269989014
575094.25 4178423 297.309997559
575094.75 4178423.25 297.420013428
575094.8125 4178423.25 297.410003662
575095.375 4178423.25 297.059997559
575095.375 4178423.25 297.089996338
575095.875 4178423.25 297.529998779
575095.875 4178423.25 297.510009766
575096.4375 4178423 297.179992676
575096.4375 4178423 297.209991455
575097 4178423 297.260009766
575097 4178423 297.269989014
575098.0625 4178423 297.410003662
575098.0625 4178423 297.369995117
575099.1875 4178423 297.549987793
575099.1875 4178423 297.579986572
575100.25 4178423.25 297.540008545
575100.25 4178423.25 297.559997559
575100.875 4178423.25 297.899993896
575100.875 4178423.25 297.869995117
575101.375 4178423.25 297.739990234
575101.375 4178423.25 297.769989014
575101.9375 4178423 297.609985352
575101.9375 4178423 297.630004883
575102.5 4178423.25 297.760009766
575102.5 4178423.25 297.779998779
575103 4178423 297.839996338
575103 4178423 297.820007324
575104.75 4178423.25 297.660003662
575104.75 4178423.25 297.690002441
575061.0625 4178423.5 295.709991455
575061.0625 4178423.5 295.739990234
575061.6875 4178423.5 295.519989014
575061.6875 4178423.5 295.5
575064.25 4178423.25 295.25
575064.25 4178423.25 295.230010986
575066.75 4178423.75 295.170013428
575066.75 4178423.75 295.160003662
575067.375 4178423.75 295.260009766
575067.375 4178423.75 295.239990234
575068.5625 4178423.5 295.660003662
575068.5625 4178423.5 295.690002441
575069.1875 4178423.75 295.630004883
575069.1875 4178423.75 295.660003662
575069.75 4178423.25 295.600006104
575069.75 4178423.25 295.589996338
575070.3125 4178423.5 295.970001221
575070.3125 4178423.5 295.959991455
575071 4178423.5 295.600006104
575071 4178423.5 295.619995117
575073.3125 4178423.5 295.779998779
575073.3125 4178423.5 295.799987793
575074.4375 4178423.25 295.859985352
575074.4375 4178423.25 295.880004883
575076.6875 4178423.5 295.950012207
575076.6875 4178423.5 295.929992676
575077.875 4178423.5 295.980010986
575077.875 4178423.5 295.959991455
575078.4375 4178423.75 296.019989014
575078.4375 4178423.75 296.029998779
575079 4178423.5 296.049987793
575079 4178423.5 296.019989014
575079.5 4178423.5 296.720001221
575079.5 4178423.5 296.739990234
575080.6875 4178423.5 296.269989014
575080.6875 4178423.5 296.25
575081.25 4178423.5 296.369995117
575081.25 4178423.5 296.339996338
575081.8125 4178423.5 296.350006104
575081.8125 4178423.5 296.320007324
575082.375 4178423.25 296.5
575082.375 4178423.25 296.480010986
575082.875 4178423.5 296.410003662
575082.875 4178423.5 296.390014648
575084 4178423.5 296.25
575084 4178423.5 296.279998779
575084.625 4178423.5 296.420013428
575084.625 4178423.5 296.399993896
575085.75 4178423.5 296.290008545
575085.75 4178423.5 296.269989014
575087.375 4178423.75 296.510009766
575087.375 4178423.75 296.540008545
575089 4178423.5 296.549987793
575089 4178423.5 296.579986572
575090 4178423.25 296.980010986
575090.0625 4178423.25 296.950012207
575090.5625 4178423.5 296.839996338
575090.5625 4178423.5 296.820007324
575091.625 4178423.75 296.929992676
575091.625 4178423.75 296.890014648
575092.6875 4178423.75 297.130004883
575092.6875 4178423.75 297.160003662
575093.25 4178423.5 297.309997559
575093.25 4178423.5 297.350006104
575093.75 4178423.5 297.119995117
575093.75 4178423.5 297.089996338
575096.5 4178423.5 297.359985352
575096.5 4178423.5 297.380004883
575097 4178423.75 297.190002441
575097.0625 4178423.75 297.170013428
575097.5625 4178423.25 297.329986572
575097.5625 4178423.25 297.309997559
575098.125 4178423.5 297.329986572
575098.125 4178423.5 297.299987793
575098.6875 4178423.25 297.429992676
575098.6875 4178423.25 297.459991455
575102 4178423.5 297.829986572
575102 4178423.5 297.850006104
575104.1875 4178423.25 297.950012207
575104.1875 4178423.25 297.910003662
575105.3125 4178423.25 297.839996338
575105.3125 4178423.25 297.869995117
575105.875 4178423.25 297.950012207
575105.875 4178423.25 297.970001221
575061.75 4178424 295.320007324
575061.75 4178424 295.309997559
575062.3125 4178423.75 295.630004883
575062.3125 4178423.75 295.600006104
575063 4178423.75 295.410003662
575063 4178423.75 295.399993896
575063.625 4178423.75 295.399993896
575063.625 4178423.75 295.429992676
575064.25 4178424 295.299987793
575064.25 4178424 295.279998779
575064.875 4178423.75 295.429992676
575064.875 4178423.75 295.410003662
575065.5 4178423.75 295.279998779
575065.5 4178423.75 295.299987793
575066.1875 4178423.75 295.299987793
575066.1875 4178423.75 295.320007324
575068 4178423.75 295.350006104
575068 4178423.75 295.369995117
575069.8125 4178424 295.75
575069.8125 4178424 295.760009766
575071.5625 4178423.75 295.899993896
575071.5625 4178423.75 295.869995117
575072.125 4178423.75 296.010009766
575072.125 4178423.75 295.989990234
575072.75 4178423.75 295.929992676
575072.75 4178423.75 295.899993896
575073.3125 4178424 295.760009766
575073.3125 4178424 295.779998779
575073.875 4178423.75 295.980010986
575073.875 4178423.75 296
575074.4375 4178424 295.989990234
575074.4375 4178424 295.959991455
575075 4178423.75 295.730010986
575075 4178423.75 295.760009766
575075.5625 4178423.75 295.730010986
575075.5625 4178423.75 295.739990234
575076.125 4178423.75 296.019989014
575076.125 4178423.75 296.040008545
575077.25 4178423.75 296.089996338
575077.25 4178423.75 296.079986572
575080.1875 4178423.75 295.989990234
575080.1875 4178423.75 296.010009766
575081.8125 4178424 296.420013428
575081.8125 4178424 296.410003662
575082.4375 4178424 296.209991455
575082.4375 4178424 296.209991455
575082.9375 4178424 296.339996338
575082.9375 4178424 296.320007324
575083.5 4178423.75 296.290008545
575083.5 4178423.75 296.320007324
575085.1875 4178423.75 296.179992676
575085.1875 4178423.75 296.160003662
575085.75 4178424 296.320007324
575085.75 4178424 296.339996338
575086.3125 4178423.75 296.380004883
575086.3125 4178423.75 296.359985352
575086.8125 4178423.75 296.489990234
575086.875 4178423.75 296.470001221
575087.9375 4178423.75 296.359985352
575087.9375 4178423.75 296.390014648
575088.4375 4178423.75 296.859985352
575088.4375 4178423.75 296.820007324
575089.0625 4178424 296.559997559
575089.0625 4178424 296.549987793
575089.5 4178423.75 296.790008545
575089.5 4178423.75 296.769989014
575090.0625 4178423.75 296.820007324
575090.0625 4178423.75 296.839996338
575091.125 4178423.75 297.179992676
575091.125 4178423.75 297.209991455
575092.1875 4178423.75 297.140014648
575092.1875 4178423.75 297.170013428
575093.8125 4178424 296.989990234
575093.8125 4178424 297.019989014
575094.3125 4178423.75 297.149993896
575094.3125 4178423.75 297.170013428
575094.8125 4178423.75 297.329986572
575094.8125 4178423.75 297.299987793
575095.375 4178423.75 297.089996338
575095.4375 4178423.75 297.070007324
575095.9375 4178423.75 297.609985352
575095.9375 4178423.75 297.640014648
575097.625 4178424 297.760009766
575097.625 4178424 297.769989014
575098.75 4178424 297.369995117
575098.75 4178424 297.390014648
575099.1875 4178423.75 297.850006104
575099.1875 4178423.75 297.820007324
575100.3125 4178423.75 297.899993896
575100.3125 4178423.75 297.920013428
575101.4375 4178423.75 297.769989014
575101.4375 4178423.75 297.75
575104.25 4178423.75 297.950012207
575104.75 4178423.75 297.929992676
575104.75 4178423.75 297.950012207
575060.375 4178424 296.25
575060.375 4178424 296.279998779
575061.0625 4178424 295.549987793
575061.0625 4178424 295.570007324
575062.375 4178424.25 295.269989014
575062.375 4178424.25 295.290008545
575063.0625 4178424.25 295.230010986
575063.0625 4178424.25 295.209991455
575063.6875 4178424.5 295.239990234
575063.6875 4178424.5 295.220001221
575065 4178424.25 295.019989014
575065 4178424.25 295.010009766
575065.5625 4178424.25 295.299987793
575065.5625 4178424.25 295.309997559
575066.1875 4178424.25 295.25
575066.1875 4178424.25 295.279998779
575066.75 4178424.25 295.390014648
575066.75 4178424.25 295.429992676
575067.4375 4178424.25 295.410003662
575067.4375 4178424.25 295.380004883
575068 4178424.25 295.309997559
575068 4178424.25 295.299987793
575068.625 4178424.25 295.679992676
575068.625 4178424.25 295.700012207
575069.25 4178424.25 295.529998779
575069.25 4178424.25 295.549987793
575070.375 4178424.25 296.010009766
575070.375 4178424.25 295.980010986
575071 4178424.25 295.549987793
575071 4178424.25 295.540008545
575071.625 4178424.25 295.709991455
575071.625 4178424.25 295.730010986
575072.1875 4178424.25 295.890014648
575072.1875 4178424.25 295.880004883
575072.75 4178424.25 295.829986572
575072.75 4178424.25 295.859985352
575073.875 4178424.25 295.980010986
575073.9375 4178424.25 295.950012207
575075.0625 4178424.5 295.709991455
575075.0625 4178424.5 295.679992676
575075.625 4178424.25 295.869995117
575075.625 4178424.25 295.880004883
575076.1875 4178424.25 295.790008545
575076.1875 4178424.25 295.820007324
575076.75 4178424 295.929992676
575076.75 4178424 295.950012207
575077.3125 4178424.25 296.220001221
575077.3125 4178424.25 296.25
575077.9375 4178424 296.059997559
575077.9375 4178424 296.029998779
575078.5 4178424.25 296.190002441
575078.5 4178424.25 296.160003662
575079.0625 4178424 296.059997559
575079.0625 4178424 296.100006104
575079.5625 4178424.25 296.730010986
575079.5625 4178424.25 296.760009766
575080.25 4178424.5 296.209991455
575080.25 4178424.5 296.200012207
575080.75 4178424 296.320007324
575080.75 4178424 296.309997559
575081.3125 4178424.25 296.369995117
575081.3125 4178424.25 296.339996338
575083.5625 4178424.25 296.149993896
575083.5625 4178424.25 296.119995117
575084.0625 4178424.25 296.209991455
575084.0625 4178424.25 296.179992676
575084.6875 4178424.25 296.179992676
575084.6875 4178424.25 296.170013428
575085.25 4178424.25 296.089996338
575085.25 4178424.25 296.109985352
575086.3125 4178424.25 296.609985352
575086.3125 4178424.25 296.630004883
575086.875 4178424.25 296.489990234
575086.875 4178424.25 296.510009766
575087.4375 4178424.25 296.350006104
575087.4375 4178424.25 296.320007324
575088 4178424.25 296.470001221
575088 4178424.25 296.489990234
575088.5 4178424.25 297.010009766
575088.5 4178424.25 296.989990234
575089.5625 4178424.25 296.950012207
575089.5625 4178424.25 296.940002441
575090.125 4178424.5 296.989990234
575090.125 4178424.5 296.980010986
575090.625 4178424.25 297.179992676
575090.625 4178424.25 297.149993896
575091.1875 4178424.25 296.929992676
575091.1875 4178424.25 296.910003662
575091.6875 4178424.25 296.700012207
575091.6875 4178424.25 296.679992676
575092.25 4178424.25 297.130004883
575092.25 4178424.25 297.149993896
575092.75 4178424.25 297.029998779
575092.75 4178424.25 297.019989014
575093.25 4178424 297.089996338
575093.25 4178424 297.059997559
575094.375 4178424.25 297.279998779
575094.375 4178424.25 297.260009766
575094.875 4178424.5 297.589996338
575094.875 4178424.5 297.619995117
575095.4375 4178424.5 297.049987793
575095.4375 4178424.5 297.070007324
575096 4178424.5 297.070007324
575096 4178424.5 297.059997559
575096.5625 4178424.25 297.279998779
575096.5625 4178424.25 297.260009766
575097.0625 4178424.25 297.529998779
575097.0625 4178424.25 297.5
575098.125 4178424.25 297.549987793
575098.125 4178424.25 297.579986572
575099.25 4178424.25 297.640014648
575099.25 4178424.25 297.670013428
575100.9375 4178424.25 297.709991455
575100.9375 4178424.25 297.690002441
575101.5 4178424.5 297.600006104
575101.5 4178424.5 297.570007324
575102.0625 4178424.25 297.630004883
575102.0625 4178424.25 297.649993896
575060.5 4178424.75 295.790008545
575060.5 4178424.75 295.769989014
575061.1875 4178424.75 295.239990234
575061.1875 4178424.75 295.260009766
575061.75 4178424.75 295.309997559
575061.75 4178424.75 295.339996338
575064.3125 4178424.5 295.429992676
575064.3125 4178424.5 295.450012207
575066.8125 4178424.75 295.429992676
575066.8125 4178424.75 295.410003662
575067.4375 4178424.75 295.269989014
575067.4375 4178424.75 295.25
575068.625 4178424.75 295.950012207
575068.625 4178424.75 295.940002441
575069.25 4178424.75 295.540008545
575069.25 4178424.75 295.510009766
575069.875 4178424.5 295.720001221
575069.875 4178424.5 295.700012207
575070.4375 4178424.75 295.519989014
575070.4375 4178424.75 295.549987793
575071.0625 4178424.75 295.369995117
575071.0625 4178424.75 295.410003662
575072.8125 4178424.75 295.899993896
575072.8125 4178424.75 295.920013428
575073.375 4178424.5 295.649993896
575073.375 4178424.5 295.640014648
575073.9375 4178424.75 295.980010986
575073.9375 4178424.75 295.959991455
575074.5 4178424.5 295.920013428
575074.5 4178424.5 295.890014648
575076.8125 4178424.75 295.880004883
575076.8125 4178424.75 295.899993896
575077.9375 4178424.75 296.089996338
575077.9375 4178424.75 296.070007324
575079.0625 4178424.75 296.100006104
575079.0625 4178424.75 296.079986572
575079.625 4178424.75 296.220001221
575079.625 4178424.75 296.179992676
575080.75 4178424.75 296.320007324
575080.75 4178424.75 296.350006104
575081.375 4178424.75 296.149993896
575081.375 4178424.75 296.140014648
575081.9375 4178424.5 296.079986572
575081.9375 4178424.5 296.100006104
575082.5 4178424.5 296.040008545
575082.5 4178424.5 296.070007324
575083 4178424.5 296.309997559
575083 4178424.5 296.279998779
575084.125 4178424.75 296.329986572
575084.125 4178424.75 296.299987793
575084.6875 4178424.75 296.320007324
575084.6875 4178424.75 296.350006104
575085.8125 4178424.5 296.510009766
575085.8125 4178424.5 296.480010986
575087.5 4178424.75 296.380004883
575087.5 4178424.75 296.359985352
575088 4178424.75 296.829986572
575088 4178424.75 296.820007324
575089.0625 4178424.5 296.660003662
575089.0625 4178424.5 296.640014648
575090.625 4178424.75 297.410003662
575090.625 4178424.75 297.390014648
575091.75 4178424.75 296.809997559
575091.75 4178424.75 296.779998779
575092.75 4178424.75 297.279998779
575092.75 4178424.75 297.239990234
575093.3125 4178424.75 297.220001221
575093.3125 4178424.75 297.190002441
575093.8125 4178424.5 297.209991455
575093.8125 4178424.5 297.239990234
575094.4375 4178424.75 297.190002441
575096.5625 4178424.75 297.5
575096.5625 4178424.75 297.480010986
575097.125 4178424.75 297.600006104
575097.125 4178424.75 297.630004883
575097.6875 4178424.5 297.369995117
575097.6875 4178424.5 297.339996338
575098.1875 4178424.75 297.679992676
575098.1875 4178424.75 297.690002441
575098.75 4178424.5 297.559997559
575098.75 4178424.5 297.540008545
575102.0625 4178424.75 297.880004883
575102.0625 4178424.75 297.850006104
575103.75 4178424.75 297.950012207
575103.75 4178424.75 297.940002441
575106 4178424.5 297.980010986
575106 4178424.5 297.950012207
575059.875 4178425 295.839996338
575059.875 4178425 295.869995117
575061.8125 4178425.25 295.239990234
575061.8125 4178425.25 295.260009766
575062.4375 4178425 295.380004883
575062.4375 4178425 295.359985352
575063.0625 4178425 295.339996338
575063.0625 4178425 295.359985352
575063.75 4178425 295.200012207
575063.75 4178425 295.239990234
575064.375 4178425 295.410003662
575064.375 4178425 295.380004883
575065 4178424.75 295.290008545
575065 4178424.75 295.320007324
575065.625 4178425 295.309997559
575065.625 4178425 295.290008545
575066.25 4178425 295.450012207
575066.25 4178425 295.420013428
575068.0625 4178424.75 295.480010986
575068.0625 4178424.75 295.440002441
