# .PCD v.7 - Point Cloud Data file format
VERSION .7
FIELDS x y z
SIZE 4 4 4
TYPE F F F
COUNT 1 1 1
WIDTH 269
HEIGHT 1
VIEWPOINT 0 0 0 1 0 0 0
POINTS 269
DATA ascii
574999.1875 4178618 306.279998779
574997.75 4178618.5 306.209991455
574998 4178618.5 305.829986572
574998 4178618.5 305.850006104
574999 4178618.75 305.859985352
574995.625 4178619 306.040008545
574996.625 4178619 305.440002441
574996.625 4178619 305.459991455
574996.75 4178619 306.540008545
574996.8125 4178618.75 305.600006104
574999.25 4178618.75 305.839996338
574996.5625 4178619.25 306.609985352
574997.0625 4178619.25 302.760009766
574997.875 4178619.25 305.399993896
574997.875 4178619.25 305.380004883
574998 4178619.25 302.910003662
574998.0625 4178619.25 305.470001221
574998.0625 4178619.25 305.470001221
574999.0625 4178619.25 305.640014648
574995.375 4178619.75 306.820007324
574995.375 4178619.75 306.799987793
574995.625 4178619.75 306.700012207
574995.6875 4178619.5 305.549987793
574995.6875 4178619.5 305.579986572
574995.6875 4178619.5 302.350006104
574996.8125 4178619.75 305.910003662
574999.375 4178619.5 304.600006104
575000.3125 4178619.75 305.720001221
575000.4375 4178619.5 307.380004883
574995.75 4178620.25 302.179992676
574995.75 4178620.25 302.160003662
574996.4375 4178620 308.799987793
574996.4375 4178620 308.809997559
574996.6875 4178620.25 308.649993896
574996.6875 4178620.25 305.730010986
574996.6875 4178620.25 308.679992676
574998 4178620 304.369995117
574998.1875 4178620 304.579986572
574998.1875 4178620 304.579986572
574998.875 4178620.25 308.910003662
574998.875 4178620.25 308.940002441
574999.125 4178620.25 309.079986572
574999.1875 4178620 304.609985352
574999.1875 4178620 304.579986572
574999.375 4178620 305.429992676
575000.25 4178620 307
575000.5 4178620.25 306.890014648
574994.5 4178620.75 307
574994.5 4178620.75 307.019989014
574995.4375 4178620.5 306.299987793
574995.625 4178620.5 306.399993896
574995.625 4178620.5 306.420013428
574996.875 4178620.25 305.760009766
574996.875 4178620.25 305.730010986
574997.8125 4178620.75 307.269989014
574997.8125 4178620.75 307.25
574998.25 4178620.5 304.339996338
574998.25 4178620.5 304.320007324
574999.125 4178620.5 305.369995117
574999.3125 4178620.25 306.089996338
574994.3125 4178621 306.910003662
574994.9375 4178621 300.959991455
574995.4375 4178621 306.899993896
574995.625 4178620.75 307.040008545
574996 4178620.75 302.209991455
574996.5 4178620.75 308.609985352
574996.5 4178620.75 308.619995117
574996.75 4178620.75 308.230010986
574996.75 4178620.75 308.200012207
574996.9375 4178621 302.549987793
574998 4178620.75 304.230010986
574998 4178620.75 304.209991455
574998.1875 4178620.75 305.160003662
574998.1875 4178620.75 305.149993896
574999 4178621 308.260009766
574999 4178621 308.239990234
574999.125 4178620.75 308.970001221
574999.125 4178620.75 308.989990234
575000.3125 4178620.75 306.790008545
574992.375 4178621.25 303.839996338
574992.5625 4178621.25 303.980010986
574994.5 4178621 307.339996338
574994.5 4178621 307.320007324
574994.9375 4178621.25 301.350006104
574994.9375 4178621.25 301.339996338
574995.75 4178621.25 302.630004883
574996.375 4178621.5 310.75
574996.375 4178621.5 310.760009766
574996.4375 4178621 309.640014648
574996.4375 4178621 309.670013428
574996.625 4178621 309.489990234
574997.625 4178621.25 309.920013428
574997.8125 4178621.25 310.130004883
574997.8125 4178621.25 310.119995117
574998.1875 4178621.25 305.75
574998.1875 4178621.25 305.720001221
574999.1875 4178621.25 308.980010986
575000.3125 4178621.25 307.119995117
575000.5625 4178621.25 306.609985352
574992.5625 4178621.75 304.410003662
574993.4375 4178621.5 304.5
574993.625 4178621.75 304.239990234
574994.375 4178621.75 306.760009766
574994.375 4178621.75 306.720001221
574994.5 4178621.75 307.119995117
574994.5 4178621.75 307.149993896
574995.4375 4178621.5 307.459991455
574995.4375 4178621.5 307.429992676
574995.625 4178621.75 307.700012207
574995.625 4178621.75 307.679992676
574995.6875 4178621.5 306.720001221
574995.6875 4178621.5 306.700012207
574996.6875 4178621.75 309.079986572
574996.6875 4178621.75 309.049987793
574997.625 4178621.75 310.540008545
574997.625 4178621.75 310.570007324
574997.9375 4178621.5 306.119995117
574998.1875 4178621.75 305.959991455
575000.3125 4178621.75 307.230010986
575000.5 4178621.75 307.420013428
574992.375 4178621.75 304.179992676
574992.5625 4178622.25 304.959991455
574992.5625 4178622.25 304.989990234
574993.5625 4178622 305.600006104
574993.5625 4178622 305.579986572
574994.3125 4178622 307.779998779
574994.3125 4178622 307.760009766
574994.5 4178622 307.890014648
574994.5 4178622 307.890014648
574994.9375 4178622 299.739990234
574994.9375 4178622 299.720001221
574995.4375 4178622 308.059997559
574995.4375 4178622 308.049987793
574995.625 4178622.25 308.179992676
574995.625 4178622.25 308.209991455
574995.8125 4178622 302.700012207
574996.0625 4178622 302.089996338
574997 4178622 305.109985352
574997.8125 4178622.25 311.260009766
574997.8125 4178622.25 311.279998779
574997.875 4178622 309.970001221
574997.875 4178622 309.940002441
574998 4178622.25 305.709991455
574998.9375 4178622 309.320007324
574998.9375 4178622 309.329986572
574999.1875 4178622 308.679992676
574999.1875 4178622 308.709991455
575000.25 4178622 308.579986572
575000.25 4178622 308.600006104
575000.4375 4178621.75 309.010009766
575000.4375 4178621.75 309.029998779
574992.375 4178622.25 304.899993896
574992.375 4178622.25 304.920013428
574993.375 4178622.5 305.929992676
574993.375 4178622.5 305.940002441
574993.4375 4178622.75 307.859985352
574993.4375 4178622.75 307.839996338
574993.5 4178622.25 304.209991455
574993.5 4178622.25 304.179992676
574993.5625 4178622.5 306.100006104
574993.5625 4178622.5 306.070007324
574994.3125 4178622.5 307.910003662
574994.3125 4178622.5 307.880004883
574995.4375 4178622.5 307.940002441
574995.4375 4178622.5 307.920013428
574996.8125 4178622.5 308.170013428
574996.8125 4178622.5 308.140014648
574997.5625 4178622.5 311.920013428
574997.5625 4178622.5 311.890014648
574997.625 4178622.25 310.420013428
574997.625 4178622.25 310.399993896
574997.75 4178622.5 312.109985352
574997.75 4178622.5 312.140014648
574999.25 4178622.25 305.540008545
574999.25 4178622.5 308.25
574999.25 4178622.5 308.269989014
574992.625 4178622.75 304.630004883
574994.5625 4178622.75 307.670013428
574994.5625 4178622.75 307.690002441
574995.6875 4178622.75 307.890014648
574995.6875 4178622.75 307.910003662
574996.6875 4178622.75 307.459991455
574996.6875 4178622.75 307.440002441
574998.8125 4178622.75 311.679992676
574998.8125 4178622.75 311.690002441
574999.0625 4178622.75 308.549987793
574999.25 4178623 308.799987793
574992.375 4178623.25 305.600006104
574992.375 4178623.5 305.559997559
574992.4375 4178623 304.350006104
574992.5 4178623.25 305.700012207
574992.5 4178623.25 305.720001221
574993.4375 4178623.25 305.600006104
574993.4375 4178623.25 305.570007324
574994.3125 4178623.25 308.100006104
574994.3125 4178623.25 308.119995117
574994.5 4178623 308.130004883
574994.5 4178623 308.119995117
574995.5 4178623.25 307.790008545
574995.5 4178623.25 307.760009766
574995.625 4178623.25 308.329986572
574995.625 4178623.25 308.299987793
574997.5625 4178623 312.260009766
574997.75 4178623 312.079986572
574999.1875 4178623.25 310.260009766
574992.5 4178623.5 306.079986572
574992.5 4178623.5 306.049987793
574994.375 4178623.75 308.390014648
574994.375 4178623.75 308.410003662
574994.5 4178623.5 308.519989014
574994.5 4178623.5 308.489990234
574995.5 4178623.75 308.140014648
574995.5 4178623.75 308.119995117
574996.75 4178623.5 307.209991455
574997.0625 4178623.5 305.690002441
574998.875 4178623.5 310.910003662
574998.9375 4178623.5 310.880004883
574999.125 4178623.5 311.010009766
574999.125 4178623.5 310.980010986
574992.3125 4178623.75 306.190002441
574992.3125 4178623.75 306.160003662
574992.5625 4178624.25 305.970001221
574992.5625 4178624.25 305.940002441
574993.375 4178624.25 307.059997559
574993.375 4178624.25 307.040008545
574993.5 4178623.75 305.690002441
574993.5 4178623.75 305.660003662
574993.5625 4178624 306.75
574993.5625 4178624 306.720001221
574993.6875 4178623.75 304.929992676
574993.6875 4178623.75 304.910003662
574994.375 4178624.25 308.75
574994.375 4178624.25 308.769989014
574994.5 4178624 309.149993896
574994.5 4178624 309.130004883
574995.8125 4178624 307.019989014
574995.8125 4178624 307.019989014
574997.9375 4178624.25 307.399993896
574998.1875 4178624 307.649993896
574998.875 4178624 311.269989014
574998.9375 4178624 311.25
574999.0625 4178624 311.690002441
574992.4375 4178624.5 305.630004883
574992.4375 4178624.5 305.609985352
574993.5625 4178624.5 307.179992676
574997.0625 4178624.25 303.589996338
574998.0625 4178624.25 309.260009766
574998.0625 4178624.25 309.279998779
574998.875 4178624.5 311.920013428
574998.875 4178624.5 311.899993896
574993.4375 4178624.75 306.929992676
574994.375 4178624.75 308.730010986
574994.375 4178624.75 308.720001221
574994.5625 4178624.75 308.450012207
574994.5625 4178624.75 308.480010986
574995.625 4178624.75 306.910003662
574995.625 4178624.75 306.880004883
574995.875 4178624.75 306.160003662
574995.875 4178624.75 306.190002441
574997.125 4178624.75 305.410003662
574997.875 4178625 309.350006104
574998.125 4178625 308.859985352
574997.1875 4178625.25 305.380004883
574995.875 4178625.75 304.640014648
574996 4178625.75 304.989990234
574997 4178625.75 305.529998779
574997.1875 4178626 305.380004883
574997.1875 4178626 305.339996338
574997 4178626.25 305.220001221
