# .PCD v.7 - Point Cloud Data file format
VERSION .7
FIELDS x y z
SIZE 4 4 4
TYPE F F F
COUNT 1 1 1
WIDTH 475
HEIGHT 1
VIEWPOINT 0 0 0 1 0 0 0
POINTS 475
DATA ascii
574988.625 4178627 303.869995117
574989.5625 4178626.75 302.179992676
574989.75 4178626.75 302.5
574986.6875 4178627 300.619995117
574987.3125 4178627 307.529998779
574987.75 4178627.25 302.299987793
574988.3125 4178627 307.799987793
574989.5625 4178627.25 302.489990234
574985.375 4178627.5 304.290008545
574985.5625 4178627.5 304.260009766
574986.6875 4178627.75 300.529998779
574987.1875 4178627.5 307.480010986
574987.375 4178627.5 307.489990234
574987.5625 4178627.5 302.269989014
574988.3125 4178627.5 308.470001221
574988.5 4178627.75 303.670013428
574988.75 4178627.5 303.179992676
574985.4375 4178628.25 304.010009766
574986.5 4178627.75 305.190002441
574986.875 4178627.75 300.640014648
574987.8125 4178627.75 301.760009766
574988.25 4178628 307.5
574988.375 4178628 308.170013428
574988.75 4178628 303.489990234
574990.5625 4178628 304
574996.0625 4178628 303.209991455
574984 4178628.5 309.829986572
574984.1875 4178628.5 309.769989014
574984.375 4178628.5 304.570007324
574984.625 4178628.25 304.200012207
574986.375 4178628.25 305.619995117
574986.5 4178628.25 305.709991455
574986.625 4178628.5 302.350006104
574986.6875 4178628.25 300.970001221
574986.875 4178628.25 300.690002441
574987 4178628.5 310.309997559
574987.25 4178628.25 309.450012207
574987.375 4178628.5 305.329986572
574987.375 4178628.5 305.350006104
574987.5 4178628.5 306.329986572
574987.6875 4178628.25 301.369995117
574987.8125 4178628.5 301.670013428
574988.5 4178628.25 303.820007324
574989.4375 4178628.25 305.339996338
574989.5625 4178628.5 306.130004883
574989.6875 4178628.25 304.779998779
574990.625 4178628.5 303.850006104
574990.75 4178628.5 304.839996338
574993.0625 4178628.5 299.339996338
574993.0625 4178628.5 299.309997559
574993.25 4178628.5 299.420013428
574993.25 4178628.5 299.390014648
574994 4178628.5 301.609985352
574994 4178628.5 301.579986572
574994.1875 4178628.5 301.829986572
574994.1875 4178628.5 301.809997559
574994.1875 4178628.5 299.529998779
574994.1875 4178628.5 299.5
574994.3125 4178628.5 299.420013428
574994.3125 4178628.5 299.410003662
574995.1875 4178628.25 302.630004883
574996.125 4178628.5 303.130004883
574996.25 4178628.25 303.320007324
574984.625 4178628.75 304.260009766
574985.1875 4178628.75 310.299987793
574985.5 4178628.75 303.549987793
574985.75 4178628.75 303.049987793
574986.0625 4178628.5 309.619995117
574987.25 4178628.5 309.899993896
574987.75 4178628.75 302.570007324
574988.25 4178628.75 307.200012207
574988.3125 4178628.75 309.529998779
574988.5 4178628.75 307.049987793
574990.4375 4178628.75 306.070007324
574992.125 4178628.5 300.799987793
574992.125 4178628.5 300.779998779
574992.875 4178629 302.700012207
574992.875 4178629 302.700012207
574993 4178628.75 300.649993896
574993 4178628.75 300.660003662
574993.0625 4178628.75 302.140014648
574993.0625 4178628.75 302.130004883
574993.25 4178628.75 300.339996338
574993.25 4178628.75 300.369995117
574994 4178629 302.220001221
574994 4178629 302.190002441
574994.1875 4178628.75 302.079986572
574994.1875 4178628.75 302.059997559
574995 4178628.5 302.760009766
574995.1875 4178628.75 303.089996338
574995.1875 4178628.75 303.070007324
574983.25 4178629.25 308.989990234
574984.0625 4178629.25 309.589996338
574984.25 4178629 309.589996338
574985 4178629 310.130004883
574985.25 4178629.25 310.040008545
574985.6875 4178629 304.049987793
574986 4178629 310.350006104
574986.875 4178629.25 301.779998779
574987.5 4178629.25 304.609985352
574987.625 4178629.25 304.940002441
574987.75 4178629 300.700012207
574988.3125 4178629.25 306.980010986
574988.3125 4178629.25 306.950012207
574988.8125 4178629.25 303.089996338
574989 4178629.25 300.739990234
574989.625 4178629.25 305.619995117
574990.9375 4178629.25 300.480010986
574991.0625 4178629 300.609985352
574991.9375 4178629 300.690002441
574991.9375 4178629 300.660003662
574992 4178629.25 302.760009766
574992.8125 4178629.25 303.470001221
574992.8125 4178629.25 303.450012207
574993.0625 4178629.25 302.920013428
574993.0625 4178629.25 302.910003662
574993.9375 4178629.25 303.429992676
574993.9375 4178629.25 303.450012207
574994.0625 4178629 303.630004883
574994.0625 4178629 303.600006104
574995.0625 4178629.25 302.950012207
574995.0625 4178629.25 302.920013428
574995.1875 4178629 303.339996338
574995.1875 4178629 303.350006104
574996.125 4178629 303.540008545
574996.125 4178629 303.570007324
574984.0625 4178629.75 309.760009766
574984.25 4178629.75 309.410003662
574985.5625 4178629.5 303.260009766
574986.625 4178629.5 304.950012207
574986.625 4178629.75 302.700012207
574986.75 4178629.5 303.089996338
574986.75 4178629.5 303.119995117
574987.1875 4178629.5 308.899993896
574987.375 4178629.5 308.410003662
574988.25 4178629.5 308.589996338
574989.5 4178629.5 305.070007324
574992 4178629.75 303.010009766
574992.25 4178629.5 299.769989014
574992.25 4178629.5 299.75
574992.75 4178629.75 304.670013428
574992.75 4178629.75 304.690002441
574993 4178629.5 304.089996338
574993 4178629.5 304.079986572
574993.875 4178629.5 304.510009766
574993.875 4178629.5 304.529998779
574994 4178629.5 304.209991455
574994.0625 4178629.5 304.190002441
574995.25 4178629.75 303.109985352
574983.375 4178630 307.970001221
574985.125 4178629.75 309.609985352
574985.375 4178630 308.679992676
574986.5625 4178629.75 306.070007324
574987.5625 4178630 304.339996338
574987.75 4178630 303.880004883
574988.5625 4178630 306.859985352
574989.375 4178630.25 307.720001221
574989.4375 4178629.75 306.720001221
574989.5625 4178630 306.929992676
574989.8125 4178630 304.239990234
574990.5625 4178630 305.799987793
574992.3125 4178630 299.220001221
574992.9375 4178629.75 304.869995117
574992.9375 4178629.75 304.859985352
574994.0625 4178630 304.209991455
574995.0625 4178629.75 302.720001221
574995.0625 4178629.75 302.739990234
574983.1875 4178630.25 308.369995117
574984.5625 4178630.5 303.820007324
574984.75 4178630.5 303.950012207
574984.8125 4178630.25 302.829986572
574985.5625 4178630.5 304.209991455
574985.6875 4178630.5 302.339996338
574986.3125 4178630.25 307.679992676
574986.4375 4178630.25 308.149993896
574986.625 4178630.5 305.859985352
574987.375 4178630.5 308.959991455
574987.4375 4178630.25 305.869995117
574987.875 4178630.25 300.049987793
574988.1875 4178630.25 310.029998779
574988.4375 4178630.5 306.709991455
574988.5625 4178630.5 307.269989014
574988.5625 4178630.5 307.299987793
574989.625 4178630.5 306.950012207
574989.625 4178630.5 304.029998779
574989.75 4178630.5 304.649993896
574991.8125 4178630.25 303.239990234
574991.8125 4178630.25 303.260009766
574992 4178630.25 303.209991455
574992 4178630.25 303.25
574992.125 4178630.5 299.519989014
574992.125 4178630.5 299.519989014
574992.8125 4178630.25 304.399993896
574992.8125 4178630.25 304.380004883
574992.9375 4178630.25 304.950012207
574992.9375 4178630.25 304.920013428
574993.875 4178630.25 304.609985352
574993.875 4178630.25 304.589996338
574994.0625 4178630.5 304.429992676
574994.0625 4178630.5 304.450012207
574995.125 4178630.25 303.079986572
574995.3125 4178630.25 302.850006104
574983.1875 4178630.75 308.790008545
574983.3125 4178630.75 309.329986572
574984.25 4178630.75 307.920013428
574985.25 4178630.75 308.320007324
574985.4375 4178630.75 308.450012207
574985.9375 4178630.75 302.019989014
574986.25 4178630.75 308.559997559
574986.4375 4178630.75 308.529998779
574987.3125 4178630.75 308.369995117
574987.3125 4178630.75 308.359985352
574987.4375 4178630.75 306.179992676
574987.625 4178630.5 306.269989014
574987.625 4178630.5 306.25
574988.125 4178630.75 310.470001221
574988.1875 4178630.75 310.450012207
574988.3125 4178630.75 310.390014648
574989 4178630.75 301.690002441
574991.1875 4178630.75 300.440002441
574991.875 4178630.75 303.109985352
574992.0625 4178630.75 303.100006104
574992.3125 4178630.5 299.170013428
574992.8125 4178630.75 304.880004883
574992.8125 4178630.75 304.859985352
574992.9375 4178630.75 305.160003662
574992.9375 4178630.75 305.149993896
574993.875 4178630.75 305.109985352
574993.875 4178630.75 305.079986572
574994.0625 4178631 304.829986572
574983.25 4178631.25 308.790008545
574983.375 4178631.25 308.970001221
574984.1875 4178631 309.130004883
574985.0625 4178631.25 311.019989014
574985.1875 4178631 309.369995117
574985.4375 4178631.25 308.839996338
574985.9375 4178631 302.290008545
574986.4375 4178631.25 308.709991455
574986.75 4178631 302.200012207
574987.1875 4178631 310.119995117
574987.3125 4178631 310.690002441
574987.4375 4178631 308.839996338
574987.6875 4178631.25 305.470001221
574989 4178631 302.149993896
574991 4178631.25 302.929992676
574991 4178631.25 302.950012207
574991 4178631.25 300.519989014
574991.25 4178631.25 300.160003662
574992.75 4178631.25 305.649993896
574992.75 4178631.25 305.630004883
574992.9375 4178631.25 305.899993896
574984.25 4178631.75 308.989990234
574984.375 4178631.5 308.899993896
574986 4178631.75 312.140014648
574986.125 4178631.5 310.480010986
574986.25 4178631.75 311.690002441
574986.25 4178631.25 310.769989014
574986.6875 4178631.5 303.029998779
574987.1875 4178631.5 310.649993896
574987.25 4178631.5 311.619995117
574989.8125 4178631.5 302.470001221
574989.875 4178631.75 304.410003662
574990.0625 4178631.75 301.980010986
574990.6875 4178631.25 304.820007324
574990.6875 4178631.5 304.799987793
574991 4178631.5 301.279998779
574991 4178631.5 301.260009766
574991 4178631.5 303.670013428
574991.5625 4178631.75 307.179992676
574991.5625 4178631.75 307.200012207
574991.75 4178631.5 306.970001221
574991.9375 4178631.5 302.559997559
574992.0625 4178631.25 302.920013428
574992.75 4178631.75 306.010009766
574992.9375 4178631.75 306.339996338
574993.8125 4178631.5 306.140014648
574994 4178631.75 306.339996338
574994 4178631.5 303.890014648
574994 4178631.5 303.899993896
574983.375 4178631.75 309.220001221
574985.5 4178632 307.799987793
574985.8125 4178631.75 301.529998779
574987.1875 4178632 311.029998779
574987.3125 4178632 310.970001221
574990.375 4178632 309.339996338
574990.375 4178632 309.309997559
574990.4375 4178631.75 308.269989014
574990.4375 4178631.75 308.260009766
574990.6875 4178631.75 305.600006104
574990.6875 4178632 308.059997559
574990.6875 4178631.75 305.630004883
574990.6875 4178632 308.089996338
574990.75 4178631.75 307.109985352
574990.75 4178631.75 307.119995117
574991 4178632 303.489990234
574991.5 4178632 308.290008545
574991.5 4178632 308.260009766
574991.875 4178632 303.739990234
574991.875 4178632 303.700012207
574992.125 4178632 302.850006104
574992.125 4178632 302.820007324
574994.3125 4178632 302.450012207
574994.3125 4178632 302.470001221
574984.25 4178632.25 309.170013428
574986.3125 4178632.5 310.760009766
574987.75 4178632.25 305.760009766
574988.6875 4178632.5 307.339996338
574989 4178632.5 303.109985352
574989.125 4178632.5 300.829986572
574989.4375 4178632.5 308.269989014
574989.625 4178632.5 305.869995117
574989.625 4178632.5 305.859985352
574989.6875 4178632.25 304.470001221
574989.6875 4178632.25 304.450012207
574989.8125 4178632.5 305.309997559
574989.8125 4178632.5 305.279998779
574989.875 4178632.25 304.450012207
574989.875 4178632.25 304.429992676
574990 4178632.25 301.079986572
574990 4178632.25 301.040008545
574990.125 4178632.5 301.119995117
574990.5625 4178632.25 309.420013428
574990.5625 4178632.25 309.410003662
574991.5 4178632.5 309.019989014
574991.5 4178632.5 308.989990234
574991.75 4178632.25 307.579986572
574991.75 4178632.25 307.600006104
574992.0625 4178632.25 303.630004883
574992.75 4178632.25 306.209991455
574992.9375 4178632.25 306.149993896
574993.875 4178632.25 306.130004883
574994.0625 4178632.25 305.869995117
574987.1875 4178632.5 311.059997559
574987.3125 4178632.5 311.190002441
574988.5 4178632.75 307.369995117
574988.9375 4178632.75 303.679992676
574988.9375 4178632.75 303.679992676
574989 4178632.5 300.640014648
574989.75 4178632.75 306.950012207
574989.75 4178632.75 306.929992676
574992.0625 4178632.75 304.239990234
574992.0625 4178632.75 304.220001221
574993.875 4178632.75 306.809997559
574994 4178632.5 306.920013428
574986.375 4178633 308.940002441
574986.5625 4178633.25 305.869995117
574987.25 4178633.25 310.880004883
574987.4375 4178633.25 310.540008545
574988.6875 4178633 307.489990234
574988.8125 4178633.25 303.230010986
574988.8125 4178633.25 303.209991455
574989.5 4178633.25 307.630004883
574989.5 4178633.25 307.619995117
574989.625 4178633.25 308.890014648
574989.6875 4178633 307.350006104
574989.6875 4178633 307.329986572
574990.5625 4178633 307.899993896
574990.5625 4178633 307.869995117
574991.9375 4178633.25 306.200012207
574991.9375 4178633.25 306.160003662
574992.75 4178633.25 306.989990234
574992.75 4178633.25 306.970001221
574992.9375 4178633.25 304.940002441
574992.9375 4178633.25 306.75
574993.0625 4178633 305.25
574986.8125 4178633.75 305.609985352
574989.0625 4178633.75 302.679992676
574990.5625 4178633.75 307.850006104
574991.75 4178633.75 306.480010986
574991.875 4178633.5 306.920013428
574992.875 4178633.5 307.790008545
574988.0625 4178634 300.579986572
574988.125 4178634 301.279998779
574989.625 4178634 307.059997559
574991 4178634 304.489990234
574991.75 4178633.75 306.459991455
574992.75 4178633.75 307.519989014
574988.0625 4178634.5 300.730010986
574988.1875 4178634.5 301.329986572
574989 4178634.25 301.790008545
574989.125 4178634.25 302.140014648
574990.625 4178634.25 307.690002441
574990.625 4178634.25 307.709991455
574990.8125 4178634.25 307.700012207
574990.8125 4178634.25 307.679992676
574991 4178634.25 305.470001221
574992 4178634.25 305.910003662
574992 4178634.5 305.869995117
574992.8125 4178634.5 307.519989014
574989 4178634.75 301.679992676
574989 4178634.75 301.690002441
574990.625 4178634.75 308.440002441
574991.875 4178634.5 305.480010986
574988.0625 4178635 301.299987793
574988.1875 4178635 301.359985352
574989.25 4178635 301.609985352
574989.25 4178635 301.640014648
574989.875 4178635.25 304.600006104
574989.875 4178635.25 304.619995117
574990.0625 4178635.25 302.029998779
574990.25 4178635 301.369995117
574990.75 4178635 308.709991455
574991 4178635.25 305.679992676
574991 4178635.25 305.709991455
574991.6875 4178635 308.309997559
574992 4178635.25 306.850006104
574988.125 4178635.75 300.850006104
574988.25 4178635.75 300.709991455
574988.75 4178635.5 305.809997559
574989 4178635.75 305.380004883
574989.0625 4178635.25 301.730010986
574989.0625 4178635.25 301.700012207
574989.1875 4178635.5 302
574989.8125 4178635.5 307.799987793
574989.8125 4178635.5 307.790008545
574989.875 4178635.5 306.489990234
574990.0625 4178635.5 304.309997559
574990.0625 4178635.5 304.290008545
574990.25 4178635.5 301.700012207
574990.25 4178635.5 301.720001221
574990.6875 4178635.5 307.829986572
574991.6875 4178635.75 308.570007324
574991.875 4178635.25 308.540008545
574991.875 4178635.25 308.559997559
574989.75 4178636 306.299987793
574989.875 4178635.75 304.640014648
574990.625 4178635.75 308.829986572
574990.625 4178635.75 308.799987793
574990.8125 4178635.75 308.339996338
574990.8125 4178635.75 308.329986572
574991.875 4178635.75 308.570007324
574992.125 4178635.75 303.25
574988.8125 4178636.25 305.720001221
574988.9375 4178636.5 306.519989014
574989 4178636.25 305.410003662
574989.1875 4178636.25 300.320007324
574989.375 4178636.25 300.779998779
574990.6875 4178636.5 308.799987793
574990.8125 4178636.25 308.700012207
574990.8125 4178636.25 308.670013428
574991.75 4178636.25 308.529998779
574988.75 4178636.5 306.540008545
574989.75 4178636.75 307.529998779
574989.8125 4178636.5 306.329986572
574989.8125 4178636.5 306.299987793
574989.8125 4178636.5 308.170013428
574990 4178636.5 306.029998779
574990 4178636.5 306.010009766
574991.3125 4178636.5 302.420013428
574989 4178637 306.089996338
574989.6875 4178637.25 308.470001221
574989.6875 4178637.25 308.489990234
574989.875 4178637 308.130004883
574989.875 4178637 308.109985352
574990.9375 4178637.25 305.670013428
574990.9375 4178637 307.489990234
574991.1875 4178637 301.820007324
574988.8125 4178637.25 305.940002441
574989 4178637.5 306.209991455
574990.8125 4178637.25 307.75
574990.9375 4178637.25 308.149993896
574988.8125 4178637.75 306.679992676
574989 4178638 306.859985352
574990.75 4178637.75 308.420013428
574988.875 4178638.5 306.619995117
574988.9375 4178638.25 307.359985352
574989.875 4178638.25 308.220001221
574989.9375 4178638.25 308.200012207
574990.0625 4178638.25 305.75
574990.0625 4178638.25 305.779998779
574988.875 4178639 306.779998779
574989 4178639 307.140014648
574989.875 4178638.75 306.660003662
574988.875 4178639.5 306.959991455
574989.0625 4178639.5 306.630004883
