# .PCD v.7 - Point Cloud Data file format
VERSION .7
FIELDS x y z
SIZE 4 4 4
TYPE F F F
COUNT 1 1 1
WIDTH 217
HEIGHT 1
VIEWPOINT 0 0 0 1 0 0 0
POINTS 217
DATA ascii
575002.5 4178520.75 293.559997559
575002.5 4178520.75 293.519989014
575002.5625 4178521.25 293.390014648
575002.5625 4178521.25 293.410003662
575003.3125 4178521.25 293.600006104
575003.75 4178521.75 293.579986572
575003.75 4178521.75 293.600006104
575002.25 4178522 293.299987793
575002.25 4178522 293.320007324
575002.625 4178522 293.350006104
575002.625 4178522 293.329986572
575003.375 4178522 293.609985352
575003.375 4178522 293.579986572
575001.4375 4178522.25 293.200012207
575001.4375 4178522.25 293.230010986
575002.625 4178522.5 293.260009766
575002.625 4178522.5 293.299987793
575003.8125 4178522.25 293.510009766
575003.8125 4178522.25 293.540008545
575004.9375 4178522.25 293.660003662
575001.0625 4178522.75 292.970001221
575001.0625 4178522.75 292.989990234
575001.5 4178523 293.070007324
575001.5 4178523 293.089996338
575002.25 4178522.75 293.200012207
575002.25 4178522.75 293.220001221
575003.8125 4178523 293.390014648
575003.8125 4178523 293.380004883
575001.125 4178523.25 293.040008545
575001.125 4178523.25 293.019989014
575002.3125 4178523.25 293.079986572
575002.3125 4178523.25 293.059997559
575002.6875 4178523.25 293.269989014
575002.6875 4178523.25 293.299987793
575003.4375 4178523 293.480010986
575003.4375 4178523 293.459991455
575005 4178523 293.600006104
575005 4178523 293.570007324
575001.5 4178523.5 293.089996338
575001.5 4178523.5 293.070007324
575002.6875 4178523.75 293.200012207
575002.6875 4178523.75 293.179992676
575003.4375 4178523.75 293.549987793
575003.4375 4178523.75 293.540008545
575003.875 4178523.5 293.399993896
575003.875 4178523.5 293.429992676
575004.625 4178523.5 293.570007324
575004.625 4178523.5 293.549987793
575005 4178523.5 293.609985352
575005 4178523.5 293.630004883
575006.125 4178523.75 293.700012207
575000.375 4178524 292.820007324
575000.375 4178524 292.859985352
575001.125 4178523.75 292.989990234
575001.125 4178523.75 292.980010986
575001.5625 4178524 293.220001221
575001.5625 4178524 293.239990234
575002.3125 4178523.75 293.25
575002.3125 4178523.75 293.279998779
575003.875 4178524 293.380004883
575003.875 4178524 293.410003662
575000 4178524.5 292.880004883
575000 4178524.5 292.850006104
575000.375 4178524.5 293.089996338
575000.375 4178524.5 293.070007324
575001.1875 4178524.5 292.970001221
575001.1875 4178524.5 292.929992676
575002.375 4178524.5 293.160003662
575002.375 4178524.5 293.140014648
575002.75 4178524.25 293.190002441
575002.75 4178524.25 293.170013428
575003.5 4178524.25 293.579986572
575003.5 4178524.25 293.609985352
575001.5625 4178524.75 293.059997559
575001.5625 4178524.75 293.049987793
575002.75 4178525 293.350006104
575002.75 4178525 293.320007324
575003.5 4178525 293.519989014
575003.5 4178525 293.540008545
575003.9375 4178524.75 293.279998779
575003.9375 4178524.75 293.260009766
575007.3125 4178524.5 293.739990234
575000 4178525 292.730010986
575000 4178525 292.739990234
575000.4375 4178525.25 292.790008545
575000.4375 4178525.25 292.760009766
575001.1875 4178525 292.989990234
575001.1875 4178525 293
575001.625 4178525.25 293.209991455
575001.625 4178525.25 293.230010986
575002.375 4178525 293.390014648
575002.375 4178525 293.380004883
575003.9375 4178525.25 293.320007324
575003.9375 4178525.25 293.339996338
575000 4178525.5 293.019989014
575000 4178525.5 293
575001.25 4178525.5 293.109985352
575001.25 4178525.5 293.089996338
575002.375 4178525.5 293.410003662
575002.375 4178525.5 293.410003662
575002.75 4178525.5 293.359985352
575002.75 4178525.5 293.369995117
575003.5625 4178525.5 293.410003662
575003.5625 4178525.5 293.390014648
574999.25 4178526 292.929992676
574999.25 4178526 292.950012207
575000.4375 4178525.75 292.910003662
575000.4375 4178525.75 292.929992676
575001.6875 4178526 292.970001221
575001.6875 4178526 293.010009766
575002.8125 4178526 293.299987793
575002.8125 4178526 293.269989014
575003.5625 4178526 293.609985352
575003.5625 4178526 293.589996338
575004 4178525.75 293.470001221
575004 4178525.75 293.440002441
575005.125 4178526 293.630004883
575005.125 4178526 293.600006104
575005.9375 4178526 293.630004883
575005.9375 4178526 293.660003662
574998.8125 4178526.5 292.859985352
574998.8125 4178526.5 292.839996338
575000.0625 4178526.25 293
575000.0625 4178526.25 293.019989014
575000.4375 4178526.25 293.399993896
575000.4375 4178526.25 293.380004883
575001.25 4178526.25 293.119995117
575001.25 4178526.25 293.100006104
575001.6875 4178526.5 293.130004883
575001.6875 4178526.5 293.100006104
575002.4375 4178526.25 293.399993896
575002.4375 4178526.25 293.390014648
575004 4178526.5 293.609985352
575004 4178526.5 293.619995117
574999.25 4178526.75 293.230010986
574999.25 4178526.75 293.209991455
575000.0625 4178526.75 293.160003662
575000.0625 4178526.75 293.149993896
575000.5 4178526.75 293.339996338
575000.5 4178526.75 293.309997559
575001.25 4178526.75 293.239990234
575001.25 4178526.75 293.239990234
575002.5 4178526.75 293.299987793
575002.5 4178526.75 293.309997559
575002.875 4178526.75 293.220001221
575002.875 4178526.75 293.239990234
575003.625 4178526.75 293.459991455
575003.625 4178526.75 293.470001221
575004.8125 4178526.5 293.549987793
575004.8125 4178526.5 293.510009766
575005.1875 4178526.5 293.559997559
575005.1875 4178526.5 293.529998779
575005.9375 4178526.5 293.630004883
575005.9375 4178526.5 293.660003662
574998.875 4178527 293.109985352
574998.875 4178527 293.100006104
574999.25 4178527.25 293.149993896
574999.25 4178527.25 293.170013428
575001.6875 4178527 293.399993896
575001.6875 4178527 293.429992676
575002.875 4178527.25 293.299987793
575002.875 4178527.25 293.290008545
575003.625 4178527.25 293.470001221
575003.625 4178527.25 293.429992676
575004.0625 4178527 293.510009766
575004.0625 4178527 293.489990234
575004.8125 4178527.25 293.519989014
575004.8125 4178527.25 293.510009766
575005.1875 4178527 293.450012207
575005.1875 4178527 293.410003662
575006 4178527.25 293.519989014
575006 4178527.25 293.540008545
574998.875 4178527.5 293.160003662
574998.875 4178527.5 293.149993896
575000.125 4178527.5 293.149993896
575000.125 4178527.5 293.119995117
575000.5 4178527.5 293.420013428
575000.5 4178527.5 293.450012207
575001.3125 4178527.25 293.470001221
575001.3125 4178527.25 293.489990234
575001.6875 4178527.5 293.549987793
575001.6875 4178527.5 293.559997559
575004.0625 4178527.5 293.570007324
575004.0625 4178527.5 293.600006104
575005.1875 4178527.75 293.679992676
575005.1875 4178527.75 293.670013428
574998.0625 4178527.75 293.170013428
574998.0625 4178527.75 293.190002441
574999.25 4178527.75 293.410003662
574999.25 4178527.75 293.390014648
575004.875 4178527.75 293.5
575004.875 4178527.75 293.529998779
575006 4178527.75 293.679992676
575006 4178527.75 293.649993896
574997.6875 4178528.25 293.279998779
574997.6875 4178528.25 293.309997559
574998.0625 4178528.5 293.350006104
574998.0625 4178528.5 293.339996338
574998.875 4178528 293.399993896
574998.875 4178528 293.420013428
574999.3125 4178528.5 293.380004883
574999.3125 4178528.5 293.399993896
574997.6875 4178528.75 293.429992676
574997.6875 4178528.75 293.399993896
574998.9375 4178528.75 293.420013428
574998.9375 4178528.75 293.390014648
575000.5625 4178528.5 293.510009766
575000.5625 4178528.5 293.519989014
575001.75 4178528.75 293.470001221
575001.75 4178528.75 293.450012207
575002.5625 4178528.5 293.549987793
575002.5625 4178528.5 293.519989014
574996.9375 4178529.5 293.149993896
574996.9375 4178529.5 293.179992676
574996.5625 4178530.25 293.320007324
574996.5625 4178530.25 293.299987793
574996.9375 4178530 293.429992676
