# .PCD v.7 - Point Cloud Data file format
VERSION .7
FIELDS x y z
SIZE 4 4 4
TYPE F F F
COUNT 1 1 1
WIDTH 262
HEIGHT 1
VIEWPOINT 0 0 0 1 0 0 0
POINTS 262
DATA ascii
574915.0625 4178740 310.079986572
574916 4178740 309.600006104
574916.25 4178740 309.799987793
574913.6875 4178740.75 309.75
574914.75 4178740.5 310.359985352
574915 4178740.75 310.290008545
574916 4178740.75 310.489990234
574916 4178740.75 310.510009766
574916.25 4178740.5 310.130004883
574913.375 4178741 309.839996338
574913.625 4178741.25 309.5
574914.6875 4178741.25 310.130004883
574915.8125 4178741.25 309.470001221
574916.125 4178741 309.630004883
574917.0625 4178741.25 309.470001221
574917.375 4178741 309.600006104
574918.3125 4178741 309.730010986
574918.5625 4178741.25 310.119995117
574914.5625 4178741.5 309.799987793
574914.8125 4178741.75 309.540008545
574915.75 4178741.75 309.390014648
574916.0625 4178741.75 309.549987793
574916.8125 4178741.5 307.399993896
574917.0625 4178741.25 309.489990234
574917.25 4178741.75 309.630004883
574917.25 4178741.75 309.600006104
574918.25 4178741.5 309.359985352
574919.4375 4178741.5 308.970001221
574919.625 4178741.5 308.940002441
574914.4375 4178741.75 308.510009766
574915.9375 4178742 308.690002441
574915.9375 4178742 308.720001221
574916.75 4178742 307.200012207
574917.125 4178742 308.690002441
574918.5 4178741.75 309.839996338
574919.3125 4178742 309.070007324
574919.5625 4178742 309.209991455
574920.5 4178742 309.260009766
574920.75 4178741.75 308.859985352
574914.8125 4178742.5 310.540008545
574915.6875 4178742.25 309.450012207
574917 4178742.5 307.950012207
574918 4178742.5 308.410003662
574918 4178742.5 308.390014648
574918.25 4178742.25 310.380004883
574918.375 4178742.25 309.140014648
574918.375 4178742.25 309.140014648
574918.4375 4178742.5 297.529998779
574911.8125 4178742.5 305.690002441
574915.8125 4178742.5 308.269989014
574915.8125 4178742.5 308.25
574916.75 4178742.75 308.459991455
574916.9375 4178742.75 307.279998779
574916.9375 4178743 307.299987793
574917.9375 4178742.75 307.660003662
574918.3125 4178742.75 309
574919.3125 4178742.75 297.559997559
574911.5 4178743.25 305.929992676
574911.75 4178743.25 305.630004883
574914.5 4178743.25 308.450012207
574914.75 4178743 310.630004883
574915.6875 4178743 310.350006104
574915.6875 4178743 310.329986572
574915.6875 4178743 307.700012207
574915.6875 4178743 307.679992676
574917.75 4178743 306.420013428
574917.9375 4178743.25 305.589996338
574919.25 4178743.25 297.489990234
574919.5625 4178743 297.730010986
574921.625 4178743 298.820007324
574921.75 4178743 297.820007324
574912.8125 4178743.5 304.239990234
574913.375 4178743.75 309.989990234
574915.625 4178743.75 310.760009766
574916.8125 4178743.75 310.179992676
574916.8125 4178743.75 310.209991455
574916.875 4178743.5 307.869995117
574916.875 4178743.5 307.899993896
574917.625 4178743.5 305.570007324
574918.375 4178743.5 300.480010986
574919.5 4178743.5 297.489990234
574921.5 4178743.25 297.859985352
574922.875 4178743.25 297.929992676
574911.5 4178744 306.950012207
574913.125 4178744 310.790008545
574914.25 4178744 306.440002441
574916.6875 4178743.75 306.279998779
574917.5625 4178744 305.239990234
574917.875 4178743.75 305.459991455
574918.375 4178743.75 298.600006104
574918.375 4178743.75 298.570007324
574919.1875 4178744 297.910003662
574913.25 4178744.25 310.130004883
574913.3125 4178744.25 310.160003662
574914.25 4178744.5 310.100006104
574914.5625 4178744.25 310.540008545
574915.5625 4178744 310.470001221
574915.8125 4178744.25 310.959991455
574916.75 4178744.25 297.140014648
574916.8125 4178744.5 310.959991455
574916.8125 4178744.5 310.989990234
574917.4375 4178744.5 304.920013428
574917.4375 4178744.5 304.940002441
574917.5 4178744 301.940002441
574917.75 4178744.25 305.040008545
574917.75 4178744.25 305.070007324
574918.0625 4178744 298.369995117
574918.3125 4178744 300.869995117
574919.1875 4178744.5 298.140014648
574919.4375 4178744.25 297.859985352
574921.625 4178744.25 297.829986572
574911.6875 4178744.5 306.549987793
574911.9375 4178744.75 310.109985352
574912 4178744.75 310.130004883
574912.625 4178744.75 306.559997559
574912.875 4178744.5 306.119995117
574912.875 4178744.75 309.329986572
574912.875 4178744.5 306.089996338
574912.875 4178744.75 309.359985352
574913 4178744.5 310.450012207
574913 4178744.5 310.459991455
574913.125 4178744.75 309.190002441
574914.0625 4178744.5 308.510009766
574914.0625 4178744.5 308.540008545
574914.25 4178744.75 308.149993896
574915.25 4178744.5 307.600006104
574915.25 4178744.5 307.619995117
574915.5 4178744.75 307.679992676
574915.5 4178744.75 307.649993896
574915.5 4178744.75 310.809997559
574915.5 4178744.75 310.790008545
574916.4375 4178744.75 307.880004883
574916.4375 4178744.75 307.899993896
574916.6875 4178744.75 307.329986572
574916.6875 4178744.75 307.320007324
574916.9375 4178744.75 296.929992676
574917 4178744.75 310.679992676
574918.3125 4178744.5 298.899993896
574918.875 4178744.75 305.390014648
574919.3125 4178744.75 297.809997559
574911.3125 4178745 306.420013428
574911.5625 4178745 306.320007324
574912.5625 4178745.25 306.390014648
574912.8125 4178745.25 306.600006104
574914 4178745.25 308.339996338
574914 4178745.25 308.369995117
574914.625 4178745.25 298.839996338
574916.25 4178745 306.299987793
574916.25 4178745 306.279998779
574916.3125 4178745 303.609985352
574916.3125 4178745 303.630004883
574916.625 4178745.25 307.070007324
574916.625 4178745.25 307.049987793
574916.75 4178745 310.779998779
574916.75 4178745 310.790008545
574917.5 4178745.25 306.429992676
574917.5 4178745.25 306.410003662
574917.75 4178745 306.450012207
574918.6875 4178745.25 306.019989014
574918.8125 4178745 306.989990234
574919.125 4178745.25 298.869995117
574912.6875 4178745.5 305.089996338
574912.8125 4178745.5 309.859985352
574913.625 4178745.5 304.549987793
574915.6875 4178745.5 300.75
574916.875 4178745.5 297.850006104
574917.6875 4178745.75 306.320007324
574917.6875 4178745.75 306.339996338
574917.8125 4178745.5 297.440002441
574918.375 4178745.5 300.779998779
574918.5 4178745.5 304.720001221
574920.3125 4178745.75 297.529998779
574912.5 4178745.75 306.779998779
574913 4178745.75 309.510009766
574913.8125 4178746 307.359985352
574914.3125 4178746 310.220001221
574914.3125 4178746 310.190002441
574914.875 4178746 302.679992676
574914.9375 4178746 306.670013428
574914.9375 4178746 306.700012207
574915.125 4178745.75 307.890014648
574915.125 4178745.75 307.910003662
574915.25 4178745.75 306.720001221
574915.25 4178745.75 306.700012207
574915.3125 4178745.75 310.019989014
574915.3125 4178745.75 310.040008545
574915.5625 4178745.75 309.679992676
574915.5625 4178745.75 309.700012207
574916.25 4178745.75 307.290008545
574916.25 4178745.75 307.279998779
574916.3125 4178746 305.339996338
574916.3125 4178746 305.320007324
574916.75 4178746 297.059997559
574917.25 4178746 304.890014648
574917.4375 4178745.75 306.279998779
574917.4375 4178745.75 306.260009766
574917.5625 4178746 305.480010986
574917.5625 4178746 305.510009766
574918 4178746 297.329986572
574918.0625 4178745.75 300.570007324
574918.4375 4178746 304.350006104
574918.4375 4178746 304.339996338
574914.125 4178746.25 311.309997559
574914.125 4178746.25 311.329986572
574914.1875 4178746.25 308.720001221
574914.5625 4178746.25 302.670013428
574915.125 4178746 305.859985352
574915.125 4178746 305.880004883
574915.5 4178746.25 299.5
574915.5 4178746.25 299.519989014
574915.75 4178746.25 302.109985352
574915.75 4178746.25 302.100006104
574916 4178746.5 302.049987793
574916 4178746.5 302.070007324
574916.125 4178746 306.220001221
574916.125 4178746 306.239990234
574916.5625 4178746.25 297.730010986
574916.8125 4178746.25 300.75
574916.8125 4178746.25 300.730010986
574917.75 4178746 297.239990234
574918.625 4178746.25 304.470001221
574913.75 4178746.75 307.75
574914.0625 4178746.5 308.140014648
574914.3125 4178746.75 311.130004883
574914.8125 4178746.75 303.010009766
574914.875 4178746.5 306.450012207
574914.875 4178746.5 306.470001221
574916 4178746.5 305.549987793
574916.3125 4178746.75 305.970001221
574916.3125 4178746.75 305.989990234
574917.4375 4178746.5 304.799987793
574918.375 4178746.5 304.760009766
574915.9375 4178747 302.239990234
574915.9375 4178747 302.269989014
574917.0625 4178747 301.399993896
574917.25 4178747 306.299987793
574917.25 4178747 306.320007324
574917.75 4178747 299.100006104
574915.3125 4178747.25 298.959991455
574915.5625 4178747.5 302.170013428
574915.8125 4178747.5 301.440002441
574915.8125 4178747.5 301.470001221
574916.6875 4178747.25 300.529998779
574917 4178747.5 301.369995117
574915.4375 4178748 298.239990234
574916.875 4178748 300.839996338
574918 4178747.75 299.790008545
574915.0625 4178748.25 297.880004883
574916.25 4178748.25 297.019989014
574916.4375 4178748.25 299.470001221
574917.875 4178748 301.299987793
574916.8125 4178748.5 300.899993896
574917.8125 4178748.75 301.859985352
574915.3125 4178749.25 298.420013428
574916.1875 4178748.75 297.480010986
574917.6875 4178749 300.429992676
574917.9375 4178749 300.359985352
574916.5625 4178749.5 299.640014648
574916.75 4178749.25 301.540008545
574915.25 4178749.75 298.660003662
574916 4178749.75 296.899993896
574917.4375 4178750 299.489990234
