# .PCD v.7 - Point Cloud Data file format
VERSION .7
FIELDS x y z
SIZE 4 4 4
TYPE F F F
COUNT 1 1 1
WIDTH 756
HEIGHT 1
VIEWPOINT 0 0 0 1 0 0 0
POINTS 756
DATA ascii
574926.75 4178730.5 300.140014648
574929.5625 4178730.5 299.149993896
574929.75 4178730.5 299.570007324
574927.5625 4178731 300.399993896
574927.5625 4178731 300.429992676
574927.8125 4178730.75 300.359985352
574927.8125 4178730.75 300.390014648
574932.6875 4178730.75 297.660003662
574932.6875 4178730.75 297.690002441
574934.75 4178730.75 297.640014648
574927.5 4178731.5 300.149993896
574927.6875 4178731.25 299.890014648
574928.5625 4178731 299.950012207
574929.5625 4178731.25 299.989990234
574929.5625 4178731.25 299.970001221
574932.4375 4178731.5 297.690002441
574933.75 4178731.25 298.640014648
574933.75 4178731.25 298.660003662
574928.5 4178731.75 300.089996338
574928.5 4178731.75 300.119995117
574928.75 4178731.5 300.679992676
574928.75 4178731.5 300.679992676
574929.4375 4178731.5 299.339996338
574929.4375 4178731.5 299.369995117
574929.625 4178731.75 299.390014648
574929.625 4178731.75 299.420013428
574932.4375 4178731.5 297.720001221
574932.625 4178731.5 298.119995117
574932.625 4178731.5 298.089996338
574933.5 4178731.5 298.510009766
574933.5 4178731.5 298.480010986
574933.6875 4178731.75 298.239990234
574933.6875 4178731.75 298.260009766
574927.4375 4178731.75 299.709991455
574927.625 4178731.75 300.019989014
574928.375 4178732.25 299.920013428
574928.375 4178732.25 299.940002441
574928.625 4178732 299.760009766
574928.625 4178732 299.779998779
574929.375 4178732.25 299.559997559
574929.375 4178732.25 299.589996338
574931.25 4178732.25 297.579986572
574931.25 4178732.25 297.600006104
574931.5625 4178732.25 298.739990234
574931.5625 4178732.25 298.760009766
574932.375 4178732.25 298.549987793
574932.375 4178732.25 298.570007324
574932.5625 4178732 297.890014648
574932.5625 4178732 297.869995117
574933.5 4178732 298.739990234
574933.5 4178732 298.779998779
574933.5625 4178732 297.429992676
574927.3125 4178732.25 299.059997559
574927.5 4178732.25 299.329986572
574928.25 4178732.5 298.950012207
574928.25 4178732.5 298.970001221
574928.5 4178732.25 298.980010986
574928.5 4178732.25 299
574929.1875 4178732.25 297.709991455
574929.1875 4178732.25 297.739990234
574929.5 4178732.25 299.130004883
574929.5625 4178732.25 299.160003662
574926.25 4178732.75 299.820007324
574929.4375 4178732.75 298.450012207
574929.4375 4178732.75 298.420013428
574930.125 4178733 297.519989014
574931.25 4178732.75 298.179992676
574931.25 4178732.75 298.209991455
574931.5 4178732.75 298.890014648
574931.5 4178732.75 298.910003662
574932.3125 4178732.75 298.690002441
574932.375 4178732.75 298.720001221
574932.5 4178732.75 298.450012207
574932.5 4178732.75 298.420013428
574933.5 4178732.75 297.929992676
574933.5 4178732.75 297.920013428
574926.1875 4178733.25 299.089996338
574928.25 4178733 297.359985352
574929.1875 4178733 298.649993896
574929.1875 4178733 298.619995117
574929.3125 4178733 297.630004883
574929.3125 4178733 297.640014648
574930.3125 4178733.25 297.920013428
574932.25 4178733.25 298.480010986
574932.25 4178733.25 298.450012207
574932.375 4178733.25 297.779998779
574926.125 4178733.75 299.059997559
574927.5 4178733.75 302.769989014
574927.625 4178733.5 302.329986572
574929.0625 4178733.5 297.910003662
574929.1875 4178733.75 297.529998779
574930.0625 4178733.5 297.649993896
574930.0625 4178733.5 297.619995117
574930.25 4178733.75 297.549987793
574930.25 4178733.75 297.540008545
574930.4375 4178733.5 301.640014648
574930.6875 4178733.5 301.820007324
574930.6875 4178733.5 301.850006104
574923.3125 4178734 302.570007324
574925.1875 4178734 301.239990234
574925.4375 4178734.25 301.989990234
574926.6875 4178733.75 303.649993896
574928.5 4178734 303.480010986
574928.5 4178734 303.510009766
574928.6875 4178733.75 302.970001221
574928.6875 4178733.75 302.980010986
574929 4178734 297.429992676
574929 4178734 297.399993896
574930.4375 4178734 301.890014648
574930.5625 4178734 301.290008545
574932.0625 4178734 297.390014648
574924.1875 4178734.25 302.410003662
574924.4375 4178734.5 303.010009766
574925.3125 4178734.5 301.010009766
574926.5 4178734.25 304.220001221
574926.6875 4178734.5 304.470001221
574927.4375 4178734.25 303.179992676
574927.6875 4178734.5 303.619995117
574929.125 4178734.25 297.309997559
574929.5 4178734.5 301.459991455
574922.9375 4178734.75 301.640014648
574923.125 4178735 301.309997559
574924.125 4178734.75 302.260009766
574924.3125 4178735 302.609985352
574925.125 4178734.75 301.390014648
574926.3125 4178735 300.649993896
574926.5 4178735 304.679992676
574927.375 4178734.75 303.040008545
574927.5625 4178735 303.269989014
574928 4178734.75 299.559997559
574928.25 4178734.75 299.670013428
574928.4375 4178734.75 303.950012207
574928.4375 4178734.75 303.940002441
574928.6875 4178734.5 303.820007324
574929.375 4178734.5 302.799987793
574930.3125 4178735 300.170013428
574922.875 4178735.25 301.670013428
574926.625 4178735.25 304.359985352
574927.25 4178735.25 302.910003662
574928.375 4178735.25 303.579986572
574928.375 4178735.25 303.600006104
574928.625 4178735.25 304.209991455
574928.625 4178735.25 304.239990234
574930.0625 4178735.25 300.230010986
574922 4178735.5 301.910003662
574923.0625 4178735.75 302.160003662
574924.25 4178735.5 302.859985352
574927.4375 4178735.5 302.760009766
574928.3125 4178735.75 303.429992676
574928.8125 4178735.75 298.029998779
574928.8125 4178735.75 298.040008545
574929 4178735.5 298.149993896
574922.8125 4178736 301.609985352
574925.25 4178736 304.559997559
574925.4375 4178735.75 304.049987793
574926.3125 4178735.75 304.059997559
574927.1875 4178735.75 302.700012207
574927.375 4178736 302.859985352
574928.375 4178736 302.5
574928.375 4178736 302.529998779
574929.375 4178736 304.200012207
574929.625 4178736 304.720001221
574929.9375 4178736 297.619995117
574931.125 4178736.25 301.299987793
574931.125 4178736.25 301.320007324
574931.25 4178735.75 302.140014648
574931.4375 4178735.75 301.75
574931.875 4178735.75 297.850006104
574931.875 4178735.75 297.829986572
574921.8125 4178736.5 301.799987793
574923 4178736.25 302.010009766
574924.0625 4178736.5 301.529998779
574925.1875 4178736.5 304.649993896
574925.1875 4178736.5 304.630004883
574926.5 4178736.5 305.209991455
574926.5 4178736.5 305.179992676
574929.25 4178736.5 304.040008545
574929.25 4178736.5 304.059997559
574929.5 4178736.25 303.850006104
574931.3125 4178736.25 301.359985352
574931.3125 4178736.25 301.390014648
574922.8125 4178736.5 302.420013428
574922.9375 4178737 302.279998779
574923.8125 4178736.75 301.640014648
574925 4178736.75 302.880004883
574925 4178736.75 302.899993896
574925.4375 4178736.75 305.220001221
574925.4375 4178736.75 305.239990234
574926.3125 4178736.75 305.760009766
574927.0625 4178737 302.619995117
574927.1875 4178736.75 303.920013428
574927.3125 4178736.75 303.299987793
574928.125 4178736.75 303.010009766
574928.125 4178736.75 302.989990234
574928.3125 4178736.75 302.940002441
574928.3125 4178736.75 302.970001221
574929.125 4178736.75 300.869995117
574930.0625 4178736.75 301.470001221
574930.125 4178736.75 300.510009766
574921.8125 4178737.25 302.149993896
574923.6875 4178737.25 301.470001221
574924 4178737 301.760009766
574925.3125 4178737 304.399993896
574925.3125 4178737 304.369995117
574926.25 4178737.25 303.049987793
574926.25 4178737.25 303.070007324
574927.1875 4178737 301.910003662
574928.0625 4178737.25 303.269989014
574929 4178737 301.5
574929.9375 4178737.25 301.190002441
574929.9375 4178737.25 301.220001221
574930.9375 4178737 300.649993896
574931.0625 4178737.25 300.040008545
574922.625 4178737.75 302.160003662
574922.875 4178737.5 302.549987793
574922.875 4178737.5 302.559997559
574926.3125 4178737.5 306.369995117
574926.3125 4178737.5 306.350006104
574926.5 4178737.5 306.459991455
574926.5 4178737.5 306.470001221
574927 4178737.5 302.540008545
574927.125 4178737.75 302.070007324
574928.0625 4178737.75 301.579986572
574928.25 4178737.5 303.239990234
574928.875 4178737.5 301.160003662
574929.0625 4178737.25 300.790008545
574929.875 4178737.5 300.859985352
574930.125 4178737.5 301.230010986
574922.75 4178738 301.910003662
574923 4178738 306.679992676
574923.1875 4178737.75 306.070007324
574924.875 4178738 301.320007324
574925.125 4178738 305.910003662
574925.375 4178738 306.239990234
574925.375 4178738 306.220001221
574926.0625 4178738.25 304.429992676
574926.1875 4178737.75 305.510009766
574926.1875 4178737.75 305.529998779
574926.1875 4178738 303.829986572
574927 4178738 301.119995117
574927 4178738 301.140014648
574927.8125 4178738 301.380004883
574928.8125 4178738 300.920013428
574928.8125 4178738 300.899993896
574929 4178738 300.880004883
574929 4178738 300.910003662
574929.5 4178738 297.459991455
574929.75 4178737.75 297.510009766
574922.5625 4178738.25 302.429992676
574923.75 4178738.25 302.660003662
574926.75 4178738.25 301.049987793
574926.75 4178738.25 301.089996338
574928.4375 4178738.25 297.329986572
574928.625 4178738.5 297.859985352
574928.6875 4178738.5 300.320007324
574929.4375 4178738.5 297.5
574929.6875 4178738.5 297.829986572
574922.0625 4178738.75 297.809997559
574922.0625 4178739 297.839996338
574922.5 4178738.75 301.929992676
574922.75 4178738.75 301.989990234
574922.9375 4178738.75 307.109985352
574924.0625 4178738.75 307.149993896
574924.3125 4178739 307.299987793
574924.625 4178738.5 301.589996338
574924.8125 4178738.75 301.519989014
574925.125 4178738.5 306.339996338
574925.25 4178738.5 305.940002441
574925.25 4178738.5 305.970001221
574925.875 4178738.5 301.369995117
574926.125 4178738.5 303.929992676
574928 4178738.75 304.299987793
574928.25 4178739 304.690002441
574928.375 4178739 297.609985352
574922.3125 4178739 298.399993896
574922.3125 4178739 298.380004883
574922.5625 4178739 300.910003662
574923.125 4178739.25 307.489990234
574923.5625 4178739.25 302.260009766
574923.5625 4178739.25 302.220001221
574923.8125 4178739 302.429992676
574923.8125 4178739 302.420013428
574924 4178739.25 307.190002441
574925 4178739 305.679992676
574926.125 4178739.25 306.75
574926.125 4178739.25 306.730010986
574927.9375 4178739.25 303.940002441
574927.9375 4178739.25 303.959991455
574928.25 4178739 304.709991455
574928.5625 4178739 297.570007324
574928.9375 4178739.25 304.390014648
574929.125 4178739.25 304.170013428
574929.125 4178739.25 304.140014648
574922 4178739.5 298.220001221
574922.25 4178739.5 297.970001221
574922.25 4178739.5 297.950012207
574922.9375 4178739.5 307.559997559
574923.875 4178739.5 306.239990234
574923.875 4178739.5 306.220001221
574924.1875 4178739.25 306.619995117
574926.1875 4178739.5 305.820007324
574926.9375 4178739.75 305.299987793
574928.125 4178739.5 304.339996338
574928.125 4178739.5 304.369995117
574921.9375 4178740 298.010009766
574922.125 4178740 297.739990234
574923.0625 4178739.75 307.220001221
574924.75 4178740 302.140014648
574924.875 4178740 305.630004883
574924.875 4178740 305.609985352
574925.25 4178740 298.339996338
574925.25 4178740 307.399993896
574925.625 4178740 302.679992676
574925.875 4178740.25 302.940002441
574925.875 4178740 305.070007324
574925.875 4178740 305.049987793
574926.0625 4178739.75 306.630004883
574926.0625 4178739.75 306.649993896
574926.0625 4178740 305.320007324
574926.0625 4178740 305.299987793
574927.125 4178740.25 305.350006104
574927.875 4178739.75 304.429992676
574928.9375 4178740 304.980010986
574929.125 4178740 304.869995117
574921.8125 4178740.5 297.350006104
574923.1875 4178740.25 299.790008545
574923.4375 4178740.25 300.329986572
574923.625 4178740.25 304.809997559
574924.6875 4178740.25 304.200012207
574925 4178740.25 305.540008545
574925 4178740.25 305.570007324
574925.375 4178740.25 298.059997559
574926.875 4178740.25 305.279998779
574928.125 4178740.25 305.589996338
574928.8125 4178740.25 304.040008545
574922.0625 4178740.5 297.420013428
574923 4178740.5 298.5
574923.25 4178740.5 298.880004883
574923.8125 4178740.75 307.260009766
574924.0625 4178740.75 307.420013428
574924.0625 4178740.75 307.459991455
574925.875 4178740.75 306.510009766
574926.8125 4178740.75 305.600006104
574927.0625 4178740.75 305.489990234
574927.875 4178740.5 305.380004883
574927.875 4178740.5 305.399993896
574928.0625 4178741 305.559997559
574928.0625 4178741 305.529998779
574929 4178740.5 304.540008545
574923 4178741.25 298.760009766
574923.1875 4178741 298.640014648
574924.1875 4178741 299.890014648
574925.0625 4178741.25 307.220001221
574925.6875 4178741 304.459991455
574925.875 4178741 303.859985352
574926.1875 4178741.25 307.380004883
574926.5 4178741.25 302.399993896
574926.6875 4178741.25 304.320007324
574926.6875 4178741.25 304.350006104
574926.6875 4178741.25 302.549987793
574926.9375 4178741.25 305.140014648
574926.9375 4178741.25 305.100006104
574927.75 4178741 304.739990234
574928.75 4178741 304.809997559
574923.75 4178741.5 307.829986572
574923.75 4178741.5 307.799987793
574923.875 4178741.75 306.459991455
574924 4178741.25 307.600006104
574924 4178741.25 307.619995117
574924.75 4178741.25 306.640014648
574924.75 4178741.25 306.619995117
574925.125 4178741.25 298.929992676
574925.9375 4178741.75 307.859985352
574927.75 4178741.75 305.239990234
574927.75 4178741.75 305.230010986
574927.9375 4178741.25 304.950012207
574923.625 4178741.75 306.899993896
574924.4375 4178741.75 303.899993896
574924.6875 4178742 306.640014648
574924.6875 4178742 306.619995117
574925.0625 4178742 307.959991455
574925.0625 4178742 307.980010986
574925.75 4178742 306.619995117
574926.125 4178741.75 307.570007324
574926.4375 4178741.75 302.489990234
574926.9375 4178742 306.019989014
574927.875 4178742 304.929992676
574924.9375 4178742.5 307.25
574924.9375 4178742.5 307.269989014
574926 4178742.25 306.880004883
574926.8125 4178742.5 305.410003662
574927.625 4178742.25 305.309997559
574924.0625 4178742.75 301.109985352
574924.5 4178742.75 305.470001221
574924.5 4178742.75 305.480010986
574924.5625 4178742.75 304.010009766
574924.8125 4178742.75 306.350006104
574924.8125 4178742.75 306.329986572
574925.6875 4178742.75 304.660003662
574925.8125 4178743 308.279998779
574926.5 4178743 304.809997559
574922.125 4178743.25 301.589996338
574922.125 4178743.25 301.609985352
574924.3125 4178743 304.149993896
574924.3125 4178743 304.179992676
574925.8125 4178743 308.299987793
574926 4178743 307.959991455
574926 4178743 307.950012207
574926.75 4178743 305.059997559
574927.5 4178743.25 303.010009766
574927.625 4178743 306.269989014
574921.875 4178743.75 301.970001221
574922.9375 4178743.5 301.350006104
574922.9375 4178743.5 301.390014648
574923.1875 4178743.5 301.440002441
574924 4178743.5 301.230010986
574925.625 4178743.5 304.709991455
574925.625 4178743.5 304.739990234
574925.75 4178743.5 308.100006104
574925.875 4178743.5 307.760009766
574926.4375 4178743.5 304.799987793
574926.625 4178743.5 304.649993896
574927.25 4178743.25 302.880004883
574922 4178743.75 301.160003662
574922.8125 4178743.75 301
574923.9375 4178744 300.880004883
574924.1875 4178744 301.350006104
574925.25 4178744 303.670013428
574925.625 4178743.75 307.440002441
574925.625 4178743.75 307.459991455
574926 4178744 298.920013428
574926.375 4178744 304.549987793
574926.9375 4178744 297.910003662
574921.9375 4178744.25 300.950012207
574923.8125 4178744.5 300.839996338
574924 4178744.25 299.880004883
574924.25 4178744.25 304.5
574924.5 4178744.25 304.869995117
574924.5 4178744.25 304.899993896
574924.75 4178744.25 307.790008545
574924.8125 4178744.25 299.239990234
574925.375 4178744.25 303.459991455
574925.5625 4178744.25 307.230010986
574926.1875 4178744.25 303.420013428
574926.1875 4178744.25 303.410003662
574926.4375 4178744.5 303.769989014
574926.5625 4178744 304.700012207
574922.8125 4178744.5 301.429992676
574922.8125 4178744.5 301.399993896
574924.6875 4178744.75 298.920013428
574924.9375 4178744.75 299.239990234
574925.125 4178744.5 303.640014648
574925.875 4178744.75 300.600006104
574925.875 4178744.75 300.630004883
574926 4178744.75 300.049987793
574921.75 4178745 302.730010986
574923.125 4178745 302.809997559
574923.125 4178745 302.779998779
574923.75 4178745 300.579986572
574924.875 4178745.25 299.160003662
574925.125 4178745.25 303.980010986
574925.3125 4178745 303.369995117
574925.3125 4178745 303.380004883
574925.8125 4178745.25 300.450012207
574925.8125 4178745.25 300.429992676
574926.1875 4178745 304.350006104
574926.375 4178745 304.019989014
574921.75 4178745.5 303.160003662
574921.75 4178745.5 303.130004883
574922 4178745.25 302.869995117
574924.625 4178745.25 298.989990234
574925.25 4178745.5 303.709991455
574925.6875 4178745.75 299.660003662
574925.9375 4178745.25 299.779998779
574925.9375 4178745.25 299.760009766
574922.9375 4178745.75 304.339996338
574922.9375 4178745.75 304.350006104
574923.125 4178746 304.510009766
574923.125 4178746 304.489990234
574923.75 4178745.75 301.640014648
574921.6875 4178746.25 303.609985352
574921.6875 4178746.25 303.579986572
574921.9375 4178746 303.720001221
574921.9375 4178746 303.75
574924.9375 4178746.25 301.540008545
574924.9375 4178746.25 301.559997559
574921.875 4178746.75 303.980010986
574921.875 4178746.75 303.989990234
574922.9375 4178746.5 305.399993896
574922.9375 4178746.5 305.410003662
574923.125 4178746.75 305.25
574923.125 4178746.75 305.239990234
574924 4178746.5 305.359985352
574924.25 4178746.75 305.420013428
574924.25 4178746.75 305.410003662
574924.75 4178746.5 301.880004883
574924.75 4178746.5 301.920013428
574921.6875 4178747 304.200012207
574921.6875 4178747 304.170013428
574922.4375 4178747.25 301.25
574922.8125 4178747 304.700012207
574922.8125 4178747 304.700012207
574923.6875 4178747 302.640014648
574923.6875 4178747 302.619995117
574923.875 4178747.25 302.630004883
574923.875 4178747.25 302.600006104
574924.125 4178747.25 304.850006104
574924.125 4178747.25 304.880004883
574924.5 4178747.25 299.790008545
574924.6875 4178747 299.679992676
574925 4178747.25 302.989990234
574925 4178747.25 303.010009766
574921.5625 4178747.25 303.429992676
574921.5625 4178747.25 303.450012207
574921.875 4178747.5 304.260009766
574921.875 4178747.5 304.279998779
574922.75 4178747.5 305.160003662
574922.75 4178747.5 305.200012207
574923.0625 4178747.25 305.25
574923.0625 4178747.25 305.269989014
574924 4178747.5 306.429992676
574924 4178747.5 306.459991455
574924.8125 4178747.5 304.059997559
574924.8125 4178747.5 304.089996338
574919.5 4178747.75 305.929992676
574921.5 4178748 301.489990234
574921.5 4178748 301.480010986
574922.75 4178748 303.149993896
574922.75 4178748 303.160003662
574923.0625 4178748 306.029998779
574923.0625 4178748 306.049987793
574923.6875 4178748 303.619995117
574923.6875 4178748 303.640014648
574919.375 4178748.25 305.730010986
574919.625 4178748 305.309997559
574921.25 4178748 301.700012207
574921.25 4178748 301.679992676
574921.5 4178748 304.279998779
574921.5 4178748 304.309997559
574921.8125 4178748 304.709991455
574921.8125 4178748 304.690002441
574922.5 4178748.25 303.130004883
574922.5 4178748.25 303.149993896
574922.75 4178748.25 305.760009766
574923.5 4178748 301.850006104
574923.5 4178748 301.869995117
574923.625 4178748 301.089996338
574923.875 4178748 303.739990234
574923.875 4178748 303.760009766
574919.25 4178748.75 305.019989014
574920.5 4178748.5 306.059997559
574920.8125 4178748.75 306.820007324
574921 4178748.75 300.059997559
574921.25 4178748.75 299.899993896
574922.4375 4178748.75 303.329986572
574922.4375 4178748.75 303.299987793
574922.75 4178748.75 303.649993896
574922.75 4178748.75 303.619995117
574923.4375 4178748.5 301.760009766
574923.4375 4178748.5 301.739990234
574919.625 4178749 306.350006104
574922.25 4178749 301.480010986
574922.625 4178749.25 303.239990234
574922.625 4178749.25 303.25
574923.6875 4178749 302.380004883
574923.6875 4178749 302.410003662
574918.0625 4178749.5 305.649993896
574918.375 4178749.5 306.049987793
574919.1875 4178749.25 305.010009766
574919.5625 4178749.5 306.549987793
574920.5625 4178749.25 307.130004883
574920.5625 4178749.25 307.119995117
574920.6875 4178749.25 306.630004883
574923.375 4178749.25 302.510009766
574923.5625 4178749.5 302.429992676
574919.125 4178750 305.109985352
574920.5 4178749.75 307.170013428
574920.5 4178749.75 307.190002441
574920.625 4178750 306.510009766
574920.625 4178750 306.540008545
574921.3125 4178749.75 301.609985352
574921.5625 4178749.75 306.790008545
574921.5625 4178749.75 306.760009766
574921.8125 4178749.75 306.839996338
574922 4178749.75 299.959991455
574922.3125 4178749.75 300.519989014
574923.3125 4178749.75 302.5
574919.5 4178750.25 307.109985352
574919.5625 4178750.25 307.140014648
574920.375 4178750.25 306.459991455
574921.4375 4178750.25 306.399993896
574921.6875 4178750.25 306.239990234
574920.25 4178750.75 306.089996338
574920.25 4178750.75 306.059997559
574918.0625 4178751 307.739990234
574918.375 4178751.25 307.970001221
574918.375 4178751.25 307.950012207
574919.25 4178751 308.119995117
574919.5 4178751 307.399993896
574919.5 4178751 307.429992676
574920.125 4178751 305.239990234
574920.125 4178751 305.230010986
574920.75 4178751 309.140014648
574920.75 4178751 309.109985352
574921.75 4178751.25 308.309997559
574922.6875 4178751 308.880004883
574922.6875 4178751 308.839996338
574922.875 4178750.75 299.149993896
574919.0625 4178751.25 303.809997559
574919.4375 4178751.5 307.859985352
574919.4375 4178751.5 307.839996338
574919.8125 4178751.5 299.720001221
574921.625 4178751.5 309.640014648
574921.625 4178751.5 309.630004883
574918.0625 4178751.75 308.179992676
574918.25 4178751.75 307.730010986
574919.1875 4178751.75 308.149993896
574919.1875 4178751.5 308.130004883
574920.6875 4178751.75 309.579986572
574920.6875 4178751.75 309.609985352
574920.6875 4178752 298.130004883
574921.625 4178751.75 298.679992676
574917.9375 4178752.25 307.989990234
574918.1875 4178752.25 307.899993896
574919.125 4178752.25 308.040008545
574919.125 4178752.25 308.019989014
574919.375 4178752.25 308.119995117
574920.3125 4178752.25 308.660003662
574920.3125 4178752.25 308.700012207
574920.5625 4178752.25 309.190002441
574920.5625 4178752.25 309.160003662
574921.5625 4178752 310.130004883
574921.5625 4178752 310.149993896
574921.8125 4178752 309.890014648
574921.8125 4178752 309.920013428
574917.875 4178752.75 307.700012207
574919.0625 4178752.75 307.790008545
574919.0625 4178752.75 307.809997559
574919.25 4178752.75 307.380004883
574919.25 4178752.75 307.410003662
574919.9375 4178752.75 305.049987793
574920.125 4178752.5 304.489990234
574920.5 4178752.75 308.820007324
574921.5 4178752.5 309.829986572
574921.5 4178752.5 309.850006104
574921.625 4178752.5 299.940002441
574921.625 4178752.5 299.920013428
574921.75 4178752.75 309.899993896
574921.75 4178752.75 309.869995117
574921.875 4178752.5 299.450012207
574921.875 4178752.5 299.440002441
574918.125 4178752.75 307.739990234
574918.125 4178752.75 307.760009766
574918.875 4178752.75 305.980010986
574918.875 4178752.75 305.950012207
574919.125 4178753 306.339996338
574919.125 4178753 306.350006104
574920.0625 4178753 304.989990234
574920.1875 4178752.75 308.529998779
574920.25 4178752.75 308.540008545
574921.1875 4178753.25 307.399993896
574921.1875 4178753.25 307.399993896
574921.4375 4178753 309.760009766
574921.4375 4178753 309.75
574916.8125 4178753.5 307.570007324
574917.75 4178753.25 307.220001221
574918 4178753.25 307.059997559
574921.4375 4178753.25 307.609985352
574921.4375 4178753.25 307.630004883
574917.75 4178754 307.690002441
574917.75 4178754 307.709991455
574920.375 4178753.75 308.720001221
574920.375 4178753.75 299.929992676
574921.125 4178753.75 307.600006104
574921.125 4178753.75 307.570007324
574918.0625 4178754.25 309.059997559
574918.0625 4178754.25 309.079986572
574919 4178754 309.380004883
574919 4178754 309.399993896
574919.25 4178754.25 309.609985352
574919.25 4178754.25 309.589996338
574920.0625 4178754 308.760009766
574920.0625 4178754 308.739990234
574920.6875 4178754.25 300.75
574916.5625 4178754.75 309.410003662
574916.875 4178754.5 309.140014648
574919 4178754.75 309.839996338
574920.0625 4178754.75 309.630004883
574920.3125 4178754.5 309.470001221
574920.3125 4178754.75 309.489990234
574916.8125 4178755 309.109985352
574919 4178755.25 308.230010986
574919 4178755.25 308.220001221
574919.1875 4178754.75 309.25
574919.1875 4178754.75 309.279998779
574920.0625 4178754.75 309.649993896
574916.5 4178755.25 309.359985352
574917.9375 4178755.25 311.959991455
574917.9375 4178755.25 311.970001221
574918.1875 4178755.5 312.010009766
574918.1875 4178755.5 311.989990234
574918.875 4178755.25 309.179992676
574920 4178755.25 309.679992676
574920 4178755.25 309.709991455
574920.25 4178755.25 309.380004883
574920.25 4178755.25 309.410003662
574916.8125 4178756 310.769989014
574916.8125 4178756 310.75
574917.875 4178755.75 311.470001221
574917.875 4178755.75 311.489990234
574918.0625 4178756 311.320007324
574918.0625 4178756 311.309997559
574919 4178755.75 308.700012207
574919 4178755.75 308.670013428
574919.9375 4178755.75 309.160003662
574919.9375 4178755.75 309.140014648
574916.5 4178756.25 310.679992676
574918.6875 4178756.25 308.920013428
574918.6875 4178756.25 308.929992676
574918.9375 4178756.25 311.350006104
574918.9375 4178756.25 311.329986572
574916.8125 4178756.75 311.690002441
574917.75 4178756.5 311.579986572
574917.75 4178756.5 311.600006104
574917.8125 4178756.75 309.480010986
574918 4178756.5 311.720001221
574918 4178756.5 311.75
574918.9375 4178756.5 308.75
574918.9375 4178756.5 308.730010986
574915.5 4178757.25 311.130004883
574916.5 4178757 311.809997559
574916.5 4178757 311.829986572
574917.6875 4178756.75 311.299987793
574917.6875 4178757 311.329986572
574918.625 4178756.75 309.149993896
574918.625 4178756.75 309.179992676
574916.4375 4178757.25 311.149993896
574916.8125 4178757.5 312.390014648
574916.8125 4178757.5 312.420013428
574917.5625 4178757.25 310.559997559
574917.75 4178757.5 310.190002441
574917.75 4178757.5 310.170013428
574916.3125 4178758 311.070007324
574916.625 4178757.75 311.190002441
574917.5 4178757.75 310.260009766
574917.625 4178757.75 308.859985352
574916.3125 4178758.5 311.320007324
574916.5625 4178758.25 311.239990234
574917.5625 4178758.75 312.140014648
574917.5625 4178758.75 312.170013428
574918.375 4178758.5 308.540008545
574918.375 4178758.5 308.519989014
574917.75 4178759 312.070007324
574917.75 4178759 312.100006104
574917.5 4178759.25 312.660003662
574917.6875 4178759.5 311.570007324
