# .PCD v.7 - Point Cloud Data file format
VERSION .7
FIELDS x y z
SIZE 4 4 4
TYPE F F F
COUNT 1 1 1
WIDTH 893
HEIGHT 1
VIEWPOINT 0 0 0 1 0 0 0
POINTS 893
DATA ascii
575089.875 4178375 303.209991455
575089.875 4178375 303.170013428
575090.5 4178375 303.369995117
575090.5 4178375 303.339996338
575089.9375 4178375.5 303.010009766
575089.9375 4178375.5 303.019989014
575090.5625 4178375.75 303.119995117
575090.5625 4178375.75 303.109985352
575091.0625 4178375.75 302.910003662
575091.0625 4178375.75 302.899993896
575091.6875 4178375.75 302.779998779
575091.6875 4178375.75 302.809997559
575089.5 4178376 303.140014648
575089.5 4178376 303.119995117
575090 4178376 302.959991455
575090 4178376 302.970001221
575092.1875 4178376 302.869995117
575092.1875 4178376 302.899993896
575088.9375 4178376.5 303.239990234
575088.9375 4178376.5 303.25
575089.5625 4178376.5 303.140014648
575089.5625 4178376.5 303.119995117
575090.625 4178376.25 302.820007324
575090.625 4178376.25 302.829986572
575091.125 4178376.25 302.660003662
575091.125 4178376.25 302.640014648
575091.75 4178376.25 302.619995117
575091.75 4178376.25 302.600006104
575092.25 4178376.5 302.829986572
575092.25 4178376.5 302.809997559
575092.875 4178376.5 302.739990234
575092.875 4178376.5 302.720001221
575090.0625 4178376.75 302.739990234
575090.0625 4178376.75 302.700012207
575090.6875 4178376.75 302.920013428
575090.6875 4178376.75 302.910003662
575091.125 4178376.75 302.760009766
575091.125 4178376.75 302.790008545
575091.75 4178376.75 302.480010986
575091.75 4178376.75 302.510009766
575093.375 4178377 302.410003662
575093.375 4178377 302.440002441
575088.5625 4178377.25 303.109985352
575088.5625 4178377.25 303.100006104
575089 4178377 303.170013428
575089 4178377 303.190002441
575089.625 4178377 303.089996338
575089.625 4178377 303.070007324
575090.0625 4178377.25 303.049987793
575090.0625 4178377.25 303.070007324
575091.1875 4178377.25 302.829986572
575091.1875 4178377.25 302.850006104
575092.25 4178377.25 302.809997559
575092.25 4178377.25 302.850006104
575092.9375 4178377.25 302.690002441
575092.9375 4178377.25 302.700012207
575094 4178377.25 302.700012207
575094 4178377.25 302.679992676
575089.0625 4178377.75 302.959991455
575089.0625 4178377.75 302.950012207
575089.6875 4178377.75 302.910003662
575089.6875 4178377.75 302.880004883
575090.75 4178377.5 302.779998779
575090.75 4178377.5 302.760009766
575091.8125 4178377.5 302.720001221
575091.8125 4178377.5 302.739990234
575092.3125 4178377.75 302.790008545
575092.3125 4178377.75 302.799987793
575092.9375 4178377.75 302.589996338
575092.9375 4178377.75 302.609985352
575093.4375 4178377.5 302.440002441
575093.4375 4178377.5 302.429992676
575094.0625 4178377.75 302.519989014
575094.0625 4178377.75 302.549987793
575094.5625 4178377.5 302.450012207
575094.5625 4178377.5 302.420013428
575088.5625 4178377.75 303.179992676
575088.625 4178377.75 303.160003662
575090.125 4178377.75 302.869995117
575090.125 4178377.75 302.899993896
575090.75 4178378 302.880004883
575090.75 4178378 302.859985352
575091.25 4178378 302.799987793
575091.25 4178378 302.809997559
575091.875 4178378 302.730010986
575091.875 4178378 302.690002441
575093.5 4178378 302.529998779
575093.5 4178378 302.489990234
575094.5625 4178378 302.390014648
575094.5625 4178378 302.359985352
575095.1875 4178377.75 302.220001221
575095.1875 4178377.75 302.230010986
575095.6875 4178378 302.470001221
575095.6875 4178378 302.450012207
575088.0625 4178378.5 303.059997559
575088.0625 4178378.5 303.079986572
575088.6875 4178378.25 302.880004883
575088.6875 4178378.25 302.859985352
575089.125 4178378.25 302.730010986
575089.125 4178378.25 302.700012207
575089.6875 4178378.25 303.029998779
575089.6875 4178378.25 303.010009766
575090.1875 4178378.5 302.799987793
575090.1875 4178378.5 302.779998779
575090.8125 4178378.5 302.549987793
575090.8125 4178378.5 302.540008545
575091.3125 4178378.5 302.549987793
575091.3125 4178378.5 302.519989014
575091.9375 4178378.5 302.529998779
575091.9375 4178378.5 302.570007324
575092.375 4178378.25 302.559997559
575092.375 4178378.25 302.540008545
575093 4178378.25 302.380004883
575093 4178378.25 302.410003662
575094.125 4178378.25 302.410003662
575094.125 4178378.25 302.410003662
575095.25 4178378.5 302.149993896
575095.25 4178378.5 302.119995117
575095.75 4178378.5 302.190002441
575095.75 4178378.5 302.170013428
575096.375 4178378.5 302.160003662
575096.375 4178378.5 302.140014648
575088.75 4178379 302.649993896
575088.75 4178379 302.630004883
575089.1875 4178378.75 302.679992676
575089.1875 4178378.75 302.670013428
575089.75 4178378.75 302.720001221
575089.75 4178378.75 302.75
575092.4375 4178379 302.720001221
575092.4375 4178379 302.700012207
575093.0625 4178379 302.450012207
575093.0625 4178379 302.459991455
575093.5625 4178378.75 302.489990234
575093.5625 4178378.75 302.5
575094.1875 4178379 302.230010986
575094.1875 4178379 302.200012207
575094.625 4178378.5 302.160003662
575094.6875 4178378.5 302.119995117
575087.625 4178379 302.769989014
575087.625 4178379 302.790008545
575088.125 4178379 302.950012207
575088.125 4178379 302.929992676
575090.25 4178379 302.570007324
575090.25 4178379 302.589996338
575090.875 4178379 302.380004883
575090.875 4178379 302.399993896
575091.375 4178379 302.559997559
575091.375 4178379 302.549987793
575092 4178379.25 302.399993896
575092 4178379.25 302.369995117
575093.5625 4178379.25 302.410003662
575093.5625 4178379.25 302.420013428
575094.6875 4178379.25 301.929992676
575094.6875 4178379.25 301.950012207
575095.3125 4178379 302.109985352
575095.3125 4178379 302.130004883
575095.8125 4178379 302.019989014
575095.8125 4178379 301.989990234
575096.375 4178379 302.239990234
575096.375 4178379 302.260009766
575096.9375 4178379 301.929992676
575096.9375 4178379 301.910003662
575097.5 4178379 302.109985352
575097.5 4178379 302.089996338
575087.125 4178379.75 302.829986572
575087.6875 4178379.5 302.630004883
575087.6875 4178379.5 302.609985352
575088.1875 4178379.75 302.890014648
575088.1875 4178379.75 302.859985352
575088.75 4178379.5 302.480010986
575088.75 4178379.5 302.450012207
575089.25 4178379.25 302.660003662
575089.25 4178379.25 302.679992676
575089.8125 4178379.25 302.700012207
575089.8125 4178379.25 302.709991455
575090.3125 4178379.5 302.420013428
575090.3125 4178379.5 302.390014648
575090.9375 4178379.75 302.260009766
575090.9375 4178379.75 302.279998779
575091.4375 4178379.75 302.299987793
575091.4375 4178379.75 302.329986572
575092 4178379.75 302.220001221
575092 4178379.75 302.190002441
575092.5 4178379.5 302.660003662
575092.5 4178379.5 302.649993896
575093.125 4178379.5 302.470001221
575093.125 4178379.5 302.489990234
575094.25 4178379.5 302.049987793
575094.25 4178379.5 302.070007324
575095.3125 4178379.5 302.25
575095.3125 4178379.5 302.269989014
575095.875 4178379.75 301.929992676
575095.875 4178379.75 301.920013428
575096.4375 4178379.75 301.850006104
575096.4375 4178379.75 301.859985352
575097 4178379.5 301.829986572
575097 4178379.5 301.850006104
575097.5625 4178379.75 301.929992676
575097.5625 4178379.75 301.899993896
575098.0625 4178379.5 302.119995117
575098.0625 4178379.5 302.140014648
575087.125 4178379.75 302.850006104
575087.75 4178380.25 302.679992676
575087.75 4178380.25 302.660003662
575088.8125 4178380 302.429992676
575088.8125 4178380 302.410003662
575089.3125 4178380 302.320007324
575089.3125 4178380 302.309997559
575089.875 4178380 302.700012207
575089.875 4178380 302.679992676
575090.375 4178380.25 302.339996338
575090.375 4178380.25 302.359985352
575092.5625 4178380 302.369995117
575092.5625 4178380 302.350006104
575093.1875 4178380 302.019989014
575093.1875 4178380 302
575093.625 4178379.75 302.309997559
575093.625 4178379.75 302.290008545
575094.3125 4178380 301.859985352
575094.3125 4178380 301.850006104
575094.75 4178379.75 301.920013428
575094.75 4178379.75 301.910003662
575095.4375 4178380.25 301.700012207
575095.4375 4178380.25 301.690002441
575097 4178380.25 301.690002441
575097 4178380.25 301.670013428
575098.0625 4178380 301.989990234
575098.0625 4178380 301.950012207
575099.1875 4178380 301.929992676
575087.1875 4178380.25 302.720001221
575087.1875 4178380.25 302.700012207
575088.25 4178380.25 302.489990234
575088.25 4178380.25 302.470001221
575089.3125 4178380.5 302.679992676
575089.3125 4178380.5 302.649993896
575089.9375 4178380.5 302.510009766
575089.9375 4178380.5 302.540008545
575091 4178380.25 302.140014648
575091 4178380.25 302.109985352
575091.5 4178380.25 302.089996338
575091.5 4178380.25 302.109985352
575092.0625 4178380.25 302.339996338
575092.0625 4178380.25 302.299987793
575093.6875 4178380.5 302
575093.6875 4178380.5 301.959991455
575094.8125 4178380.25 301.890014648
575094.8125 4178380.25 301.869995117
575095.9375 4178380.25 301.869995117
575095.9375 4178380.25 301.880004883
575096.5 4178380.25 301.809997559
575096.5 4178380.25 301.769989014
575097.625 4178380.25 301.739990234
575097.625 4178380.25 301.760009766
575098.75 4178380.25 301.920013428
575098.75 4178380.25 301.940002441
575086.75 4178380.75 303.029998779
575086.75 4178380.75 303.010009766
575087.25 4178381 302.720001221
575087.25 4178381 302.739990234
575087.75 4178380.75 302.679992676
575087.75 4178380.75 302.700012207
575088.3125 4178380.75 302.410003662
575088.3125 4178380.75 302.440002441
575088.875 4178380.75 302.510009766
575088.875 4178380.75 302.549987793
575090.4375 4178380.75 302.350006104
575090.4375 4178380.75 302.339996338
575091.0625 4178380.75 302.260009766
575091.0625 4178380.75 302.25
575091.5 4178380.75 302
575091.5 4178380.75 302.029998779
575092.125 4178380.75 301.859985352
575092.125 4178380.75 301.850006104
575092.625 4178380.5 301.940002441
575092.625 4178380.5 301.970001221
575093.25 4178380.75 301.859985352
575093.25 4178380.75 301.880004883
575094.3125 4178380.75 301.980010986
575094.3125 4178380.75 301.950012207
575094.875 4178381 301.799987793
575094.875 4178381 301.769989014
575096 4178380.75 301.600006104
575096 4178380.75 301.579986572
575096.5625 4178380.75 301.730010986
575096.5625 4178380.75 301.700012207
575098.1875 4178380.5 301.679992676
575098.1875 4178380.5 301.660003662
575098.8125 4178380.75 301.700012207
575098.8125 4178380.75 301.690002441
575099.25 4178380.5 301.679992676
575099.25 4178380.5 301.660003662
575099.875 4178380.75 301.799987793
575099.875 4178380.75 301.779998779
575086.75 4178381.25 303.119995117
575086.75 4178381.25 303.140014648
575087.8125 4178381.25 302.510009766
575087.8125 4178381.25 302.540008545
575088.9375 4178381.25 302.359985352
575088.9375 4178381.25 302.339996338
575089.375 4178381 302.769989014
575089.375 4178381 302.779998779
575090 4178381 302.510009766
575090 4178381 302.519989014
575090.5 4178381.25 302.339996338
575090.5 4178381.25 302.329986572
575092.6875 4178381.25 301.880004883
575092.6875 4178381.25 301.910003662
575093.3125 4178381.25 301.730010986
575093.3125 4178381.25 301.709991455
575093.75 4178381 302.010009766
575093.75 4178381 302.029998779
575094.375 4178381.25 301.829986572
575094.375 4178381.25 301.859985352
575098.1875 4178381.25 301.809997559
575098.1875 4178381.25 301.829986572
575099.9375 4178381.25 301.809997559
575099.9375 4178381.25 301.799987793
575086.25 4178381.5 302.910003662
575086.25 4178381.5 302.869995117
575087.25 4178381.5 302.589996338
575087.3125 4178381.5 302.570007324
575088.3125 4178381.25 302.510009766
575088.3125 4178381.25 302.470001221
575089.4375 4178381.75 302.260009766
575089.4375 4178381.75 302.279998779
575090 4178381.75 302.410003662
575090 4178381.75 302.440002441
575091.0625 4178381.5 302.359985352
575091.0625 4178381.5 302.329986572
575091.5625 4178381.5 302.100006104
575091.5625 4178381.5 302.079986572
575092.1875 4178381.5 302.019989014
575092.1875 4178381.5 301.989990234
575093.8125 4178381.5 301.790008545
575093.8125 4178381.5 301.769989014
575094.9375 4178381.5 301.549987793
575094.9375 4178381.5 301.529998779
575098.8125 4178381.25 301.649993896
575098.8125 4178381.25 301.670013428
575100.4375 4178381.5 301.709991455
575100.5 4178381.5 301.690002441
575101.0625 4178381.25 302.100006104
575101.0625 4178381.25 302.119995117
575085.75 4178382 302.700012207
575085.75 4178382 302.690002441
575086.8125 4178381.75 302.920013428
575086.8125 4178381.75 302.890014648
575087.3125 4178382 302.399993896
575087.375 4178382 302.369995117
575087.875 4178381.75 302.359985352
575087.875 4178381.75 302.339996338
575088.375 4178382 302.390014648
575088.375 4178382 302.359985352
575089 4178381.75 302.309997559
575089 4178381.75 302.329986572
575090.5 4178381.75 302.369995117
575090.5 4178381.75 302.350006104
575091.125 4178382 302.320007324
575091.125 4178382 302.339996338
575091.625 4178382 302.019989014
575091.625 4178382 302.010009766
575092.25 4178382 302.049987793
575092.25 4178382 302.079986572
575092.75 4178381.75 301.989990234
575092.75 4178381.75 302.010009766
575093.375 4178381.75 301.609985352
575093.375 4178381.75 301.640014648
575094.4375 4178381.75 301.559997559
575094.4375 4178381.75 301.570007324
575095 4178382 301.619995117
575095 4178382 301.640014648
575096.0625 4178382 301.559997559
575096.0625 4178382 301.579986572
575098.875 4178382 301.700012207
575098.875 4178382 301.720001221
575100.5 4178382 301.839996338
575100.5 4178382 301.809997559
575085.8125 4178382.5 302.510009766
575085.8125 4178382.5 302.549987793
575086.25 4178382.25 302.839996338
575086.25 4178382.25 302.820007324
575086.875 4178382.5 302.670013428
575086.875 4178382.5 302.690002441
575087.9375 4178382.5 302.489990234
575087.9375 4178382.5 302.459991455
575088.4375 4178382.5 302.320007324
575088.4375 4178382.5 302.299987793
575089 4178382.5 302.239990234
575089 4178382.5 302.220001221
575089.5 4178382.25 302.480010986
575089.5 4178382.25 302.470001221
575090.0625 4178382.25 302.350006104
575090.0625 4178382.25 302.369995117
575090.5625 4178382.5 302.190002441
575090.5625 4178382.5 302.160003662
575092.75 4178382.25 301.690002441
575092.8125 4178382.25 301.670013428
575093.375 4178382.25 301.890014648
575093.375 4178382.25 301.859985352
575093.875 4178382.25 301.959991455
575093.875 4178382.25 301.929992676
575094.5 4178382.25 301.799987793
575094.5 4178382.5 301.820007324
575085.25 4178382.75 302.470001221
575085.25 4178382.75 302.489990234
575086.3125 4178382.75 303.170013428
575086.3125 4178382.75 303.200012207
575087.375 4178382.75 302.25
575087.375 4178382.75 302.230010986
575089.5625 4178382.75 302.200012207
575089.5625 4178382.75 302.170013428
575090.125 4178382.75 302.399993896
575090.125 4178382.75 302.369995117
575091.1875 4178382.5 302.390014648
575091.1875 4178382.5 302.410003662
575091.6875 4178382.5 301.959991455
575091.6875 4178382.5 301.980010986
575092.3125 4178382.5 301.540008545
575092.3125 4178382.5 301.510009766
575093.9375 4178382.75 301.630004883
575093.9375 4178382.75 301.649993896
575095 4178382.75 301.649993896
575095 4178382.75 301.619995117
575101.6875 4178382.5 301.790008545
575101.6875 4178382.5 301.779998779
575085.875 4178383 302.589996338
575085.875 4178383 302.570007324
575086.9375 4178383 302.420013428
575086.9375 4178383 302.399993896
575087.4375 4178383.25 302.320007324
575087.4375 4178383.25 302.339996338
575088 4178383 302.239990234
575088 4178383 302.200012207
575088.5 4178383 302.130004883
575088.5 4178383 302.149993896
575089.0625 4178383 302.109985352
575089.0625 4178383 302.079986572
575090.625 4178383 302.279998779
575090.625 4178383 302.299987793
575091.25 4178383.25 302.239990234
575091.25 4178383.25 302.220001221
575091.75 4178383.25 302.140014648
575091.75 4178383.25 302.109985352
575092.3125 4178383.25 301.779998779
575092.3125 4178383.25 301.809997559
575092.8125 4178383 301.600006104
575092.8125 4178383 301.630004883
575093.4375 4178383 301.739990234
575093.4375 4178383 301.700012207
575094.5625 4178383 301.559997559
575094.5625 4178383 301.559997559
575084.875 4178383.75 302.369995117
575084.875 4178383.75 302.399993896
575085.3125 4178383.25 302.359985352
575085.3125 4178383.25 302.359985352
575085.9375 4178383.75 302.350006104
575085.9375 4178383.75 302.329986572
575086.375 4178383.25 302.929992676
575086.375 4178383.25 302.910003662
575087 4178383.5 302.5
575087 4178383.5 302.519989014
575088 4178383.5 302.420013428
575088 4178383.5 302.440002441
575088.5625 4178383.75 302.089996338
575088.5625 4178383.75 302.109985352
575089.125 4178383.5 302.279998779
575089.125 4178383.5 302.260009766
575089.625 4178383.5 302.160003662
575089.625 4178383.5 302.149993896
575090.1875 4178383.5 302.329986572
575090.1875 4178383.5 302.320007324
575090.6875 4178383.5 302.260009766
575090.6875 4178383.5 302.25
575091.8125 4178383.75 301.730010986
575091.8125 4178383.75 301.700012207
575092.875 4178383.5 301.480010986
575092.875 4178383.5 301.510009766
575093.5 4178383.5 301.489990234
575093.5 4178383.5 301.510009766
575085.375 4178384 302.559997559
575085.375 4178384 302.579986572
575086.4375 4178384 302.290008545
575086.4375 4178384 302.260009766
575087.5 4178383.75 302.350006104
575087.5 4178383.75 302.359985352
575089.625 4178384 302.140014648
575089.625 4178384 302.109985352
575090.25 4178384 302.279998779
575090.25 4178384 302.269989014
575091.3125 4178383.75 301.760009766
575091.3125 4178383.75 301.739990234
575092.375 4178383.75 301.700012207
575092.375 4178383.75 301.720001221
575092.9375 4178384 301.640014648
575092.9375 4178384 301.630004883
575084.3125 4178384.25 302.450012207
575084.3125 4178384.25 302.429992676
575084.9375 4178384.25 302.299987793
575084.9375 4178384.25 302.320007324
575086 4178384.25 302.070007324
575086 4178384.25 302.079986572
575086.5 4178384.5 302.399993896
575086.5 4178384.5 302.380004883
575087.0625 4178384 302.299987793
575087.0625 4178384 302.269989014
575087.5625 4178384.25 302.160003662
575087.5625 4178384.25 302.140014648
575088.0625 4178384.25 302.239990234
575088.0625 4178384.25 302.209991455
575088.625 4178384.25 302.049987793
575088.625 4178384.25 302.029998779
575089.1875 4178384.25 301.989990234
575089.1875 4178384.25 302.019989014
575090.75 4178384.25 301.950012207
575090.75 4178384.25 301.920013428
575091.375 4178384.25 301.690002441
575091.375 4178384.25 301.670013428
575091.8125 4178384.25 301.679992676
575091.8125 4178384.25 301.660003662
575092.4375 4178384.25 301.630004883
575092.4375 4178384.25 301.649993896
575101.3125 4178384.25 301.720001221
575084.375 4178384.75 302.209991455
575084.375 4178384.75 302.230010986
575085 4178384.75 302.140014648
575085 4178384.75 302.100006104
575085.4375 4178384.5 302.339996338
575085.4375 4178384.5 302.309997559
575086.0625 4178384.75 302.299987793
575086.0625 4178384.75 302.320007324
575087.0625 4178384.75 302.299987793
575087.0625 4178384.75 302.269989014
575088.125 4178384.75 302.040008545
575088.125 4178384.75 302.079986572
575088.625 4178384.75 301.980010986
575088.625 4178384.75 301.950012207
575089.25 4178384.75 301.839996338
575089.25 4178384.75 301.850006104
575089.6875 4178384.5 302.089996338
575089.6875 4178384.5 302.119995117
575090.25 4178384.5 302.059997559
575090.25 4178384.5 302.029998779
575090.75 4178384.75 302.029998779
575090.75 4178384.75 302.049987793
575091.875 4178384.75 301.619995117
575091.875 4178384.75 301.600006104
575085.5 4178385 302.010009766
575085.5 4178385 301.989990234
575086.5625 4178385 302.230010986
575086.5625 4178385 302.269989014
575087.125 4178385.25 302.260009766
575087.125 4178385.25 302.239990234
575087.625 4178385 301.890014648
575087.625 4178385 301.910003662
575089.75 4178385.25 301.769989014
575089.75 4178385.25 301.779998779
575090.375 4178385.25 301.720001221
575090.375 4178385.25 301.739990234
575091.375 4178385 301.829986572
575091.375 4178385 301.839996338
575092.5 4178385 301.540008545
575092.5 4178385 301.559997559
575083.9375 4178385.25 302.25
575083.9375 4178385.25 302.230010986
575084.4375 4178385.25 302.019989014
575084.4375 4178385.25 302
575085 4178385.5 302.239990234
575085 4178385.5 302.25
575085.5625 4178385.75 301.989990234
575085.5625 4178385.75 302
575086.0625 4178385.5 302.209991455
575086.125 4178385.5 302.190002441
575086.625 4178385.5 302.160003662
575086.625 4178385.5 302.140014648
575087.625 4178385.5 302.029998779
575087.625 4178385.5 302.019989014
575088.1875 4178385.25 301.880004883
575088.1875 4178385.25 301.859985352
575088.6875 4178385.5 301.779998779
575088.6875 4178385.5 301.790008545
575089.3125 4178385.25 301.769989014
575089.3125 4178385.25 301.790008545
575090.8125 4178385.25 301.829986572
575090.8125 4178385.25 301.850006104
575091.4375 4178385.5 301.489990234
575091.4375 4178385.5 301.459991455
575091.9375 4178385.5 301.529998779
575091.9375 4178385.5 301.510009766
575092.5625 4178385.5 301.559997559
575092.5625 4178385.5 301.570007324
575083.375 4178386 302.179992676
575083.375 4178386 302.200012207
575084 4178386 302.209991455
575084 4178386 302.239990234
575084.4375 4178386 302.320007324
575084.4375 4178386 302.299987793
575085.0625 4178386 302.320007324
575085.0625 4178386 302.299987793
575086.125 4178386 301.959991455
575086.1875 4178386 301.929992676
575087.1875 4178385.75 302.130004883
575087.1875 4178385.75 302.109985352
575088.25 4178386 301.890014648
575088.25 4178386 301.910003662
575088.75 4178386 301.940002441
575088.75 4178386 301.959991455
575089.3125 4178386 301.989990234
575089.3125 4178386 301.959991455
575089.8125 4178385.75 301.929992676
575089.8125 4178385.75 301.910003662
575090.375 4178385.75 301.769989014
575090.375 4178385.75 301.739990234
575090.875 4178386 301.600006104
575090.875 4178386 301.619995117
575084.0625 4178386.5 301.970001221
575084.0625 4178386.5 301.950012207
575084.5 4178386.5 302.25
575084.5 4178386.5 302.220001221
575085.5625 4178386.25 302.089996338
575085.5625 4178386.25 302.119995117
575086.6875 4178386.25 301.899993896
575086.6875 4178386.25 301.869995117
575087.25 4178386.5 302.100006104
575087.25 4178386.5 302.070007324
575087.6875 4178386 301.890014648
575087.6875 4178386 301.869995117
575088.3125 4178386.5 301.959991455
575088.3125 4178386.5 301.940002441
575089.375 4178386.5 301.420013428
575089.4375 4178386.5 301.399993896
575089.875 4178386.25 301.700012207
575089.875 4178386.25 301.720001221
575090.4375 4178386.25 301.579986572
575090.4375 4178386.25 301.600006104
575083 4178386.5 301.859985352
575083 4178386.5 301.829986572
575083.4375 4178386.5 301.820007324
575083.4375 4178386.5 301.839996338
575085.125 4178386.5 302.220001221
575085.125 4178386.5 302.190002441
575085.625 4178386.75 301.950012207
575085.625 4178386.75 301.950012207
575086.1875 4178386.5 302.440002441
575086.1875 4178386.5 302.420013428
575086.6875 4178386.75 301.899993896
575086.6875 4178386.75 301.940002441
575087.75 4178386.75 301.730010986
575087.75 4178386.75 301.739990234
575088.8125 4178386.5 301.890014648
575088.8125 4178386.5 301.910003662
575089.9375 4178386.75 301.5
575089.9375 4178386.75 301.480010986
575083 4178387 301.660003662
575083 4178387 301.660003662
575083.5 4178387 301.940002441
575083.5 4178387 301.910003662
575084.0625 4178387 302.149993896
575084.0625 4178387 302.130004883
575084.5625 4178387 302.119995117
575084.5625 4178387 302.100006104
575085.1875 4178387.25 301.809997559
575085.1875 4178387.25 301.779998779
575086.25 4178387.25 302.130004883
575086.25 4178387.25 302.119995117
575087.3125 4178387 301.700012207
575087.3125 4178387 301.690002441
575087.8125 4178387.25 301.619995117
575087.8125 4178387.25 301.640014648
575088.375 4178387 301.700012207
575088.375 4178387 301.709991455
575088.8125 4178387.25 302.200012207
575088.8125 4178387.25 302.220001221
575089.4375 4178387 301.670013428
575089.4375 4178387 301.649993896
575091 4178387 301.440002441
575091 4178387 301.420013428
575082.4375 4178387.25 301.809997559
575082.4375 4178387.25 301.829986572
575084.125 4178387.75 301.820007324
575084.125 4178387.75 301.799987793
575084.625 4178387.75 301.910003662
575084.625 4178387.5 301.880004883
575085.6875 4178387.5 301.769989014
575085.6875 4178387.5 301.739990234
575086.75 4178387.25 301.859985352
575086.75 4178387.25 301.829986572
575087.375 4178387.5 301.670013428
575087.375 4178387.5 301.649993896
575088.4375 4178387.75 301.429992676
575088.4375 4178387.75 301.399993896
575089.5 4178387.5 301.519989014
575089.5 4178387.5 301.510009766
575090 4178387.5 301.429992676
575090 4178387.5 301.450012207
575082.5 4178388 301.630004883
575082.5 4178388 301.609985352
575083.0625 4178387.75 301.660003662
575083.0625 4178387.75 301.679992676
575083.5625 4178387.75 301.859985352
575083.5625 4178387.75 301.890014648
575085.25 4178387.75 301.670013428
575085.25 4178387.75 301.690002441
575085.75 4178388 301.559997559
575085.75 4178388 301.570007324
575086.3125 4178387.75 301.589996338
575086.3125 4178387.75 301.559997559
575086.8125 4178388 301.720001221
575086.8125 4178388 301.739990234
575087.875 4178387.75 301.709991455
575087.875 4178387.75 301.700012207
575088.9375 4178387.75 301.559997559
575088.9375 4178387.75 301.579986572
575082 4178388.25 301.679992676
575082 4178388.25 301.649993896
575083.125 4178388.25 301.829986572
575083.125 4178388.25 301.850006104
575083.625 4178388.25 301.489990234
575083.625 4178388.25 301.510009766
575084.1875 4178388.25 301.679992676
575084.1875 4178388.25 301.709991455
575084.6875 4178388.25 301.549987793
575084.6875 4178388.25 301.529998779
575085.3125 4178388.25 301.600006104
575085.3125 4178388.25 301.559997559
575086.375 4178388.25 301.410003662
575086.375 4178388.25 301.429992676
575087.375 4178388.25 301.769989014
575087.375 4178388.25 301.760009766
575087.9375 4178388.5 301.440002441
575087.9375 4178388.5 301.410003662
575088.4375 4178388.25 301.480010986
575088.4375 4178388.25 301.459991455
575089 4178388.25 301.559997559
575089 4178388.25 301.559997559
575082.0625 4178388.75 301.200012207
575082.0625 4178388.75 301.179992676
575082.5625 4178388.5 301.679992676
575082.5625 4178388.5 301.700012207
575083.125 4178388.75 301.929992676
575083.125 4178388.75 301.950012207
575083.625 4178388.75 301.700012207
575083.6875 4178388.75 301.679992676
575084.25 4178388.75 301.980010986
575084.25 4178388.75 302
575084.75 4178388.75 301.570007324
575084.75 4178388.75 301.540008545
575085.8125 4178388.5 301.709991455
575085.8125 4178388.5 301.739990234
575086.4375 4178388.75 301.670013428
575086.4375 4178388.75 301.679992676
575086.875 4178388.5 301.589996338
575086.875 4178388.5 301.559997559
575087.4375 4178388.75 301.619995117
575087.4375 4178388.75 301.579986572
575090.0625 4178388.5 301.399993896
575090.0625 4178388.5 301.380004883
575082.625 4178389 301.429992676
575082.625 4178389 301.410003662
575085.3125 4178389 301.799987793
575085.3125 4178389 301.820007324
575085.875 4178389.25 301.570007324
575085.875 4178389.25 301.589996338
575086.9375 4178389 301.350006104
575086.9375 4178389 301.369995117
575088 4178389 301.510009766
575088 4178389 301.489990234
575089 4178388.75 301.410003662
575089 4178388.75 301.390014648
575081.5 4178389.25 301.440002441
575081.5 4178389.25 301.420013428
575082.0625 4178389.25 301.820007324
575082.0625 4178389.25 301.799987793
575083.25 4178389.5 301.470001221
575083.25 4178389.5 301.440002441
575083.75 4178389.5 301.480010986
575083.75 4178389.5 301.470001221
575084.3125 4178389.25 301.679992676
575084.3125 4178389.25 301.690002441
575084.75 4178389.25 301.809997559
575084.75 4178389.25 301.779998779
575085.375 4178389.5 301.529998779
575085.375 4178389.5 301.5
575086.5 4178389.5 301.369995117
575086.5 4178389.5 301.350006104
575087.5 4178389.25 301.399993896
575087.5 4178389.25 301.429992676
575081 4178389.75 301.679992676
575081 4178389.75 301.670013428
575081.5 4178390 301.709991455
575081.5 4178390 301.679992676
575082.125 4178390 301.910003662
575082.125 4178390 301.929992676
575082.625 4178389.75 301.339996338
575082.625 4178389.75 301.320007324
575083.25 4178390 301.329986572
575083.25 4178390 301.309997559
575083.75 4178390 301.309997559
575083.75 4178390 301.339996338
575084.375 4178390 301.489990234
575084.375 4178390 301.470001221
575084.8125 4178390 301.529998779
575084.8125 4178390 301.570007324
575085.9375 4178389.75 301.529998779
575085.9375 4178389.75 301.489990234
575086.5 4178390 301.290008545
575086.5 4178390 301.320007324
575087 4178389.75 301.630004883
575087 4178389.75 301.660003662
575087.5625 4178390 301.920013428
575087.5625 4178390 301.899993896
575081.0625 4178390.25 301.390014648
575081.0625 4178390.25 301.410003662
575082.6875 4178390.25 301.350006104
575082.6875 4178390.25 301.369995117
575089.125 4178390 301.540008545
575089.125 4178390 301.510009766
575080.5 4178390.75 301.299987793
575080.5 4178390.75 301.329986572
575081.5625 4178390.5 301.549987793
575081.5625 4178390.5 301.529998779
575082.1875 4178390.5 301.820007324
575082.1875 4178390.5 301.790008545
575082.75 4178390.75 301.380004883
575082.75 4178390.75 301.399993896
575083.3125 4178390.5 301.350006104
575083.3125 4178390.5 301.320007324
575084.4375 4178390.5 301.239990234
575084.4375 4178390.5 301.279998779
575084.875 4178390.5 301.390014648
575084.875 4178390.5 301.410003662
575086.5625 4178390.5 301.279998779
575086.5625 4178390.5 301.299987793
575080.5625 4178391.25 301.350006104
575080.5625 4178391.25 301.380004883
575081.125 4178391 301.299987793
575081.125 4178391 301.279998779
575081.625 4178391 301.329986572
575081.625 4178391 301.309997559
575082.25 4178391 301.609985352
575082.25 4178391 301.630004883
575080.0625 4178391.5 301.220001221
575080.0625 4178391.5 301.239990234
575081.125 4178391.5 301.510009766
575081.125 4178391.5 301.489990234
575082.8125 4178391.5 301.200012207
575082.8125 4178391.5 301.190002441
575080.0625 4178392 301.260009766
575080.0625 4178392 301.220001221
575080.5625 4178391.75 301.309997559
575080.5625 4178391.75 301.290008545
575082.25 4178391.75 301.579986572
575082.25 4178391.75 301.589996338
575085 4178391.75 301.329986572
575085 4178391.75 301.320007324
575080.625 4178392.25 301.230010986
575080.625 4178392.25 301.239990234
575081.1875 4178392 301.350006104
575081.1875 4178392 301.329986572
575081.75 4178392.25 301.140014648
575081.75 4178392.25 301.170013428
575082.3125 4178392.25 301.489990234
575082.3125 4178392.25 301.510009766
575085.0625 4178392.25 301.299987793
575085.0625 4178392.25 301.269989014
575079.5625 4178392.5 301.450012207
575079.5625 4178392.5 301.420013428
575080.125 4178392.5 301.179992676
575080.125 4178392.5 301.200012207
575081.25 4178392.75 301.119995117
575081.25 4178392.75 301.149993896
575081.8125 4178392.75 301.170013428
575081.8125 4178392.75 301.160003662
575079.125 4178393.25 301.100006104
575079.125 4178393.25 301.089996338
575079.625 4178393 301.230010986
575079.625 4178393 301.209991455
575080.1875 4178393.25 301.130004883
575080.1875 4178393.25 301.140014648
575080.6875 4178393 301.140014648
575080.6875 4178393 301.109985352
575080.75 4178393.5 301.25
575080.75 4178393.5 301.239990234
575078.5625 4178394 301.049987793
575078.5625 4178394 301.040008545
575079.125 4178393.75 301.200012207
575079.125 4178393.75 301.170013428
575079.6875 4178393.75 301.119995117
575079.6875 4178393.75 301.140014648
575079.1875 4178394.25 301.100006104
575079.1875 4178394.25 301.089996338
575079.75 4178394.25 301.079986572
575079.75 4178394.25 301.100006104
575079.75 4178394.75 301.070007324
