# .PCD v.7 - Point Cloud Data file format
VERSION .7
FIELDS x y z
SIZE 4 4 4
TYPE F F F
COUNT 1 1 1
WIDTH 181
HEIGHT 1
VIEWPOINT 0 0 0 1 0 0 0
POINTS 181
DATA ascii
574906.6875 4178760.25 291.230010986
574907 4178760.25 291.130004883
574907.9375 4178760.25 291.059997559
574905.3125 4178760.75 291.010009766
574905.3125 4178760.75 291.029998779
574908.1875 4178760.5 290.440002441
574900.0625 4178761 291.019989014
574900.0625 4178761 290.989990234
574905.625 4178761 291.119995117
574905.625 4178760.75 291.089996338
574906.625 4178760.75 291.220001221
574906.625 4178760.75 291.230010986
574906.9375 4178760.75 291.239990234
574903 4178761 290.850006104
574905.25 4178761.25 290.839996338
574905.25 4178761.25 290.820007324
574905.5 4178761.5 290.989990234
574905.5 4178761.5 291
574906.5 4178761.25 290.970001221
574906.5 4178761.25 290.989990234
574906.8125 4178761.25 290.970001221
574906.8125 4178761.25 291
574907.75 4178761.25 290.700012207
574901.5625 4178761.75 290.799987793
574902.9375 4178761.75 291.089996338
574905.1875 4178761.75 290.890014648
574905.1875 4178761.75 290.910003662
574906.4375 4178761.75 290.359985352
574906.4375 4178761.75 290.380004883
574906.75 4178761.75 290.390014648
574906.75 4178761.75 290.410003662
574902.5 4178762.25 290.869995117
574902.8125 4178762.25 290.739990234
574905.4375 4178762 290.660003662
574905.4375 4178762 290.679992676
574907.6875 4178762 290.510009766
574905.0625 4178762.25 290.959991455
574905.0625 4178762.25 290.950012207
574906.3125 4178762.25 290.260009766
574906.3125 4178762.25 290.269989014
574906.625 4178762.5 290.5
574906.6875 4178762.5 290.529998779
574907.625 4178762.5 290.5
574907.625 4178762.5 290.519989014
574903.75 4178762.75 290.730010986
574904.0625 4178762.75 290.799987793
574906.25 4178763 290.329986572
574906.25 4178763 290.350006104
574906.5625 4178763 290.450012207
574906.5625 4178763 290.480010986
574907.5625 4178763 290.320007324
574907.5625 4178763 290.299987793
574907.875 4178763 290.350006104
574907.875 4178763 290.369995117
574904 4178763.25 291.010009766
574906.1875 4178763.5 290.140014648
574906.1875 4178763.5 290.119995117
574905.25 4178763.75 290.809997559
574905.25 4178763.75 290.829986572
574906.5 4178763.5 290.25
574906.5 4178763.5 290.220001221
574907.4375 4178763.5 290.25
574907.4375 4178763.5 290.230010986
574907.75 4178763.5 290.070007324
574907.75 4178763.5 290.089996338
574903.5625 4178764 290.730010986
574903.9375 4178764 291.049987793
574906.125 4178764 290.429992676
574906.125 4178764 290.450012207
574906.4375 4178764.25 290.5
574906.4375 4178764.25 290.470001221
574907.375 4178764 290.070007324
574907.375 4178764 290.109985352
574907.6875 4178764 289.940002441
574905.1875 4178764.5 291.010009766
574905.1875 4178764.5 290.980010986
574906.0625 4178764.75 290.470001221
574906.0625 4178764.75 290.5
574904.8125 4178764.75 291.100006104
574904.8125 4178764.75 291.119995117
574905 4178764.75 290.100006104
574905 4178764.75 290.100006104
574906.375 4178764.75 290.519989014
574906.375 4178764.75 290.540008545
574907.3125 4178764.75 290.119995117
574903.75 4178765.25 290.989990234
574904.6875 4178765 290.339996338
574904.6875 4178765 290.320007324
574904.9375 4178765.5 290.049987793
574904.9375 4178765.5 290.029998779
574906 4178765.25 290.279998779
574906 4178765.25 290.299987793
574906.25 4178765.5 290.359985352
574906.25 4178765.5 290.329986572
574907.25 4178765.25 290.399993896
574903.3125 4178765.5 290.369995117
574903.625 4178765.5 290.200012207
574903.6875 4178765.5 290.220001221
574904.625 4178765.75 290.339996338
574904.625 4178765.75 290.350006104
574903.25 4178766.25 290.179992676
574903.25 4178766.25 290.200012207
574903.625 4178766.25 290.399993896
574903.625 4178766.25 290.399993896
574904.5625 4178766.25 290.290008545
574904.5625 4178766.25 290.320007324
574904.875 4178766 289.880004883
574904.875 4178766 289.899993896
574905.9375 4178765.75 290.839996338
574905.9375 4178765.75 290.809997559
574906.1875 4178766 290.019989014
574906.1875 4178766 290
574904.8125 4178766.5 289.899993896
574904.8125 4178766.5 289.890014648
574905.8125 4178766.25 290.309997559
574905.8125 4178766.25 290.339996338
574906.125 4178766.5 290.079986572
574906.125 4178766.5 290.059997559
574907.375 4178766.25 289.709991455
574903.1875 4178766.75 290.399993896
574903.1875 4178766.75 290.420013428
574903.5 4178766.75 290.350006104
574903.5 4178766.75 290.380004883
574904.4375 4178766.75 289.760009766
574904.4375 4178766.75 289.790008545
574905.75 4178766.75 289.950012207
574905.75 4178766.75 289.970001221
574903.125 4178767.25 290.410003662
574903.125 4178767.25 290.429992676
574903.4375 4178767.25 289.970001221
574904.375 4178767.25 289.859985352
574904.375 4178767.25 289.890014648
574904.6875 4178767 289.649993896
574904.6875 4178767 289.670013428
574905.625 4178767.25 289.709991455
574905.625 4178767.25 289.690002441
574906 4178767 289.709991455
574906 4178767 289.75
574910.625 4178767.25 288.799987793
574903.3125 4178767.75 289.75
574904.625 4178767.75 289.890014648
574904.625 4178767.75 289.869995117
574905.9375 4178767.5 289.649993896
574905.9375 4178767.5 289.670013428
574907.25 4178767.5 289.5
574903.0625 4178767.75 290.200012207
574904.3125 4178767.75 289.899993896
574904.3125 4178767.75 289.880004883
574905.5625 4178768 289.489990234
574905.5625 4178768 289.470001221
574905.8125 4178768.25 289.390014648
574906.8125 4178768 289.410003662
574907.125 4178768 289.549987793
574907.125 4178768 289.529998779
574908 4178768.25 289.140014648
574908.375 4178768 289.209991455
574908.375 4178768 289.230010986
574903.25 4178768.5 289.809997559
574904.25 4178768.5 289.859985352
574904.25 4178768.5 289.880004883
574904.5625 4178768.25 289.730010986
574904.5625 4178768.25 289.720001221
574905.5 4178768.5 289.410003662
574906.75 4178768.5 289.489990234
574902 4178768.75 290.109985352
574905.8125 4178768.75 289.809997559
574907.0625 4178768.75 289.510009766
574907.9375 4178768.75 289.079986572
574908.3125 4178768.75 289.149993896
574910.375 4178769 288.75
574905.4375 4178769 289.5
574906.6875 4178769 289.149993896
574907 4178769.25 289.190002441
574907.875 4178769.25 289.079986572
574908.25 4178769.25 289.230010986
574909.125 4178769.25 289.109985352
574909.5 4178769.25 289.170013428
574910.6875 4178769 288.679992676
574910.3125 4178769.5 288.959991455
574910.1875 4178770.5 288.709991455
574910.375 4178771.5 288.670013428
