# .PCD v.7 - Point Cloud Data file format
VERSION .7
FIELDS x y z
SIZE 4 4 4
TYPE F F F
COUNT 1 1 1
WIDTH 137
HEIGHT 1
VIEWPOINT 0 0 0 1 0 0 0
POINTS 137
DATA ascii
574939.1875 4178658.25 314.779998779
574939.25 4178658.25 315.440002441
574939.375 4178658.25 315.529998779
574939.375 4178658.25 315.549987793
574939.5 4178658.25 314.970001221
574939.5 4178658.25 314.929992676
574939.8125 4178658.25 311.540008545
574939.8125 4178658.25 299.079986572
574939.8125 4178658.25 309.630004883
574939.9375 4178658 308.220001221
574939.0625 4178658.75 314.929992676
574939.125 4178658.25 314.329986572
574939.125 4178658.5 315.140014648
574939.4375 4178658.5 307.559997559
574939.75 4178658.5 299.309997559
574939.8125 4178658.5 299.790008545
574939.9375 4178658.5 301.910003662
574940.0625 4178658.5 314.589996338
574940.125 4178658.5 314.290008545
574940.125 4178658.5 314.260009766
574940.25 4178658.25 306.220001221
574940.4375 4178658.25 304.440002441
574940.4375 4178658.5 314.899993896
574940.5 4178658.5 302.179992676
574940.5 4178658.25 315.299987793
574940.5625 4178658.25 302.529998779
574940.6875 4178658.5 313.010009766
574939.0625 4178659 314.980010986
574939.625 4178658.75 314.279998779
574939.625 4178658.75 314.299987793
574939.75 4178658.75 300.220001221
574939.875 4178658.75 301.279998779
574940 4178658.75 303.25
574940.0625 4178659 315.070007324
574940.25 4178658.75 315.700012207
574940.4375 4178659 316.369995117
574940.4375 4178659 314.950012207
574940.4375 4178659 316.339996338
574940.5625 4178659 314.880004883
574940.875 4178658.75 309.809997559
574941.0625 4178658.75 307.660003662
574941.3125 4178659 306.440002441
574941.3125 4178659 304.779998779
574941.4375 4178658.75 303.209991455
574941.625 4178659 314.679992676
574939 4178659.5 314.760009766
574939.0625 4178659 314.779998779
574939.375 4178659.25 308.049987793
574939.375 4178659.5 307.75
574939.4375 4178659 308.459991455
574939.4375 4178659 308.440002441
574939.4375 4178659 307.989990234
574939.5 4178659.25 314.109985352
574939.625 4178659.25 314.630004883
574939.625 4178659.25 314.609985352
574939.6875 4178659.25 299.890014648
574939.8125 4178659.25 300.390014648
574940.125 4178659.25 315.25
574940.3125 4178659.25 316.549987793
574940.5 4178659.25 308.25
574940.6875 4178659.5 310.910003662
574941.0625 4178659.25 314.649993896
574941.0625 4178659.25 314.630004883
574941.125 4178659.5 316
574941.1875 4178659.25 315.459991455
574941.1875 4178659 307.570007324
574941.5625 4178659.25 303.609985352
574941.625 4178659.5 314.790008545
574938.9375 4178659.5 314.630004883
574939.375 4178659.5 308.220001221
574939.5625 4178659.75 314.059997559
574939.625 4178659.75 314.549987793
574939.6875 4178659.75 302.019989014
574939.6875 4178659.5 301.519989014
574939.9375 4178659.5 314.510009766
574939.9375 4178659.5 314.480010986
574940 4178659.5 314.630004883
574940 4178659.5 315.029998779
574940 4178659.5 314.640014648
574940 4178659.5 315.049987793
574940.0625 4178659.5 315.059997559
574940.0625 4178659.5 315.079986572
574940.0625 4178659.5 316.010009766
574940.0625 4178659.5 315.980010986
574940.5625 4178659.75 310.029998779
574940.6875 4178659.75 310.649993896
574941 4178659.75 303.959991455
574941 4178659.5 314.790008545
574941.0625 4178659.75 314.690002441
574941.0625 4178659.5 315.279998779
574941.5625 4178659.75 314.350006104
574941.625 4178659.5 314.779998779
574938.9375 4178660 314.489990234
574939.375 4178660.25 309.239990234
574939.375 4178660.25 309.230010986
574939.5 4178660 302.790008545
574939.625 4178660 303.119995117
574939.625 4178660 301.440002441
574939.625 4178660 301.420013428
574939.6875 4178660.25 314.339996338
574939.75 4178660 302.089996338
574939.75 4178660 302.049987793
574939.875 4178660 303.010009766
574939.875 4178660.25 314.640014648
574939.9375 4178660 314.549987793
574939.9375 4178660 314.579986572
574939.9375 4178660 314.480010986
574940.0625 4178660 305.829986572
574940.625 4178659.75 314.75
574940.9375 4178660.25 314.989990234
574941 4178660 315.049987793
574938.9375 4178660.25 315.290008545
574939.125 4178660.25 306.089996338
574939.125 4178660.5 307.429992676
574939.25 4178660.5 308.640014648
574939.25 4178660.5 307.959991455
574939.375 4178660.5 309.230010986
574939.375 4178660.5 309.25
574939.625 4178660.25 314.170013428
574939.8125 4178660.25 303.209991455
574939.8125 4178660.5 314.470001221
574939.8125 4178660.5 314.450012207
574939.875 4178660.5 314.429992676
574939.875 4178660.5 314.450012207
574939.9375 4178660.25 314.760009766
574939.9375 4178660.25 314.790008545
574940.625 4178660.25 314.239990234
574940.6875 4178660.25 314.820007324
574940.875 4178660.25 314.739990234
574940.9375 4178660.25 314.779998779
574941 4178660.5 314.929992676
574941.0625 4178660.25 315.420013428
574939.875 4178660.75 314.549987793
574939.875 4178661 315.329986572
574939.875 4178660.75 314.570007324
574940.5625 4178660.75 314.850006104
574940.6875 4178660.75 315.100006104
