# .PCD v.7 - Point Cloud Data file format
VERSION .7
FIELDS x y z
SIZE 4 4 4
TYPE F F F
COUNT 1 1 1
WIDTH 261
HEIGHT 1
VIEWPOINT 0 0 0 1 0 0 0
POINTS 261
DATA ascii
574907.0625 4178751.5 307.619995117
574909.1875 4178751.5 305.920013428
574909.1875 4178751.5 305.940002441
574909.4375 4178751.5 305.820007324
574906.75 4178751.75 308.149993896
574910.875 4178751.75 307.670013428
574907 4178752.25 308.570007324
574908.375 4178752.25 309.450012207
574910.4375 4178752.25 306.540008545
574910.6875 4178752.25 306.410003662
574906.75 4178752.5 308.709991455
574908 4178752.5 308.739990234
574908.25 4178752.75 308.769989014
574909.3125 4178752.5 308.970001221
574909.5625 4178752.75 308.470001221
574906.625 4178752.75 308.179992676
574906.9375 4178752.75 308.230010986
574907.9375 4178753 308.829986572
574908.125 4178753.25 307.929992676
574908.125 4178753.25 307.910003662
574910.5 4178753.25 308.339996338
574910.75 4178753 308.339996338
574906.875 4178753.5 308.239990234
574907.8125 4178753.5 308.059997559
574909.25 4178753.25 309.079986572
574909.25 4178753.25 309.100006104
574909.5625 4178753.5 309.239990234
574909.5625 4178753.25 309.209991455
574911.8125 4178753.5 306.760009766
574908.0625 4178753.75 307.940002441
574909.1875 4178753.75 308.809997559
574909.5 4178754 309.25
574909.5 4178754 309.260009766
574910.25 4178754 306.769989014
574910.4375 4178753.75 308.329986572
574910.6875 4178753.75 308.380004883
574911.5625 4178753.75 307.299987793
574906.8125 4178754 308.929992676
574907.75 4178754 308
574909.125 4178754.25 308.739990234
574909.125 4178754.25 308.709991455
574911.5 4178754.25 307.029998779
574911.75 4178754 307.010009766
574911.75 4178754 306.989990234
574909 4178754.75 308.320007324
574909 4178754.75 308.299987793
574909.3125 4178754.5 308.470001221
574909.3125 4178754.5 308.440002441
574910.6875 4178754.5 309.399993896
574910.6875 4178754.5 309.429992676
574911.375 4178754.75 306.579986572
574911.6875 4178754.75 306.910003662
574912.625 4178754.75 306.649993896
574910.3125 4178755 309.350006104
574910.625 4178755 309.339996338
574910.625 4178755 309.329986572
574913.875 4178755 306.970001221
574907.8125 4178755.5 307.510009766
574909 4178755.5 309.690002441
574909 4178755.5 309.679992676
574909.3125 4178755.25 309.470001221
574911.375 4178755.5 307.260009766
574911.625 4178755.25 306.690002441
574912.5625 4178755.25 306.839996338
574914.1875 4178755.25 307.640014648
574908.8125 4178755.75 307.760009766
574908.8125 4178755.75 307.769989014
574909 4178755.75 306.899993896
574909 4178755.75 306.920013428
574909.25 4178755.75 308.989990234
574909.25 4178755.75 309.010009766
574910.25 4178755.5 309.239990234
574910.25 4178755.5 309.260009766
574910.5625 4178755.75 309.350006104
574910.5625 4178755.75 309.390014648
574913.8125 4178755.75 307.369995117
574915.3125 4178755.75 306.880004883
574908.875 4178756 305.440002441
574910.1875 4178756 308.970001221
574910.1875 4178756 308.989990234
574910.5 4178756.25 309.239990234
574911.375 4178756.25 308.480010986
574911.625 4178756 307.700012207
574913.75 4178756.25 307.299987793
574914.9375 4178756.25 306.799987793
574915.1875 4178756.25 306.320007324
574908.5625 4178756.5 306.019989014
574911.5625 4178756.75 308.410003662
574912.6875 4178756.5 309.679992676
574914.0625 4178756.5 308.290008545
574914.8125 4178756.75 306.350006104
574915.9375 4178756.75 305.549987793
574907.5625 4178757.25 309.839996338
574907.8125 4178757 309.619995117
574907.8125 4178757 309.609985352
574908 4178756.75 311.220001221
574908.4375 4178757 305.399993896
574908.9375 4178756.75 310.220001221
574910.25 4178757 310.679992676
574910.25 4178757 310.700012207
574911.3125 4178756.75 308.670013428
574911.3125 4178756.75 308.700012207
574913.6875 4178756.75 307.940002441
574913.75 4178757 307.959991455
574914 4178757.25 308.440002441
574914 4178757.25 308.420013428
574915.1875 4178756.75 307.059997559
574915.1875 4178756.75 307.029998779
574915.8125 4178757 304.579986572
574916.125 4178757 304.760009766
574917.3125 4178757 304.760009766
574907.0625 4178757.25 305.480010986
574907.375 4178757.25 305.190002441
574908.9375 4178757.25 308.160003662
574910.125 4178757.5 310.570007324
574910.125 4178757.5 310.589996338
574910.5 4178757.5 300.690002441
574910.5 4178757.25 310.899993896
574910.5 4178757.25 310.920013428
574911.25 4178757.25 308.399993896
574913.6875 4178757.5 308.220001221
574914.75 4178757.25 306.450012207
574915.0625 4178757.25 306.320007324
574906.5 4178758 310.260009766
574907 4178757.75 305.170013428
574907.3125 4178757.75 305.130004883
574907.3125 4178757.75 305.140014648
574907.5 4178757.75 310.209991455
574907.875 4178758 311.209991455
574907.875 4178758 311.179992676
574908.75 4178757.75 310.049987793
574910.4375 4178757.75 310.980010986
574910.4375 4178757.75 310.959991455
574913.9375 4178757.75 308.260009766
574915 4178758 306.489990234
574915.75 4178757.75 304.790008545
574916.0625 4178757.5 304.649993896
574917 4178757.75 305.239990234
574918.3125 4178757.75 303.929992676
574906.8125 4178758 303.390014648
574907.125 4178758.25 303.730010986
574907.125 4178758 303.700012207
574907.6875 4178758.25 309.829986572
574908.625 4178758.25 309.140014648
574908.625 4178758.25 309.119995117
574909 4178758 309.489990234
574909 4178758 309.519989014
574909.25 4178758.25 299.239990234
574909.6875 4178758 303.480010986
574909.875 4178758.25 308.489990234
574909.875 4178758.25 308.510009766
574910.0625 4178758 310.519989014
574910.0625 4178758 310.559997559
574910.25 4178758 309.660003662
574910.3125 4178758 309.690002441
574910.4375 4178758 301.450012207
574910.5 4178758.25 298.730010986
574910.75 4178758.25 301.510009766
574911.375 4178758 297.940002441
574916.875 4178758.25 304.700012207
574917.1875 4178758 304.510009766
574918 4178758 304.059997559
574918 4178758 304.089996338
574906.6875 4178758.5 302.720001221
574906.6875 4178758.5 302.739990234
574910.125 4178758.25 308.239990234
574910.125 4178758.25 308.269989014
574910.375 4178758.75 301.279998779
574910.375 4178758.75 301.299987793
574911.1875 4178758.75 309.75
574911.3125 4178758.5 297.720001221
574917.9375 4178758.5 304.119995117
574918.25 4178758.25 303.929992676
574906.625 4178759 302.829986572
574906.625 4178759 302.790008545
574907.0625 4178758.75 303.859985352
574907.0625 4178758.75 303.890014648
574907.375 4178759 310.299987793
574908.3125 4178758.75 306.410003662
574908.625 4178759 310.190002441
574908.625 4178759 310.209991455
574908.75 4178758.75 297.529998779
574909 4178758.75 310.420013428
574909 4178758.75 310.450012207
574909.5625 4178759 306.609985352
574909.625 4178759 306.630004883
574909.8125 4178759 305.579986572
574910.6875 4178758.75 301.350006104
574911.25 4178759 297.700012207
574906.4375 4178759.25 301.130004883
574906.9375 4178759.25 303.230010986
574906.9375 4178759.25 303.25
574908.25 4178759.5 306.700012207
574908.25 4178759.5 306.670013428
574908.5 4178759 306.010009766
574908.5 4178759 306.029998779
574908.6875 4178759.25 297.179992676
574908.875 4178759.25 310
574908.875 4178759.25 309.970001221
574909.4375 4178759.25 305.109985352
574909.4375 4178759.25 305.089996338
574909.6875 4178759.5 304.880004883
574909.9375 4178759.25 310.5
574909.9375 4178759.25 310.529998779
574910.1875 4178759.25 310.190002441
574910.375 4178759.5 302.709991455
574910.375 4178759.5 302.739990234
574910.5625 4178759.25 300.75
574910.5625 4178759.25 300.739990234
574906.375 4178759.75 301.209991455
574906.8125 4178759.5 302.369995117
574906.8125 4178759.5 302.339996338
574908.125 4178759.75 306.070007324
574908.125 4178759.75 306.100006104
574908.4375 4178759.75 306.160003662
574908.5 4178759.75 306.179992676
574908.5625 4178759.5 310.239990234
574908.625 4178760 297.559997559
574909.5 4178759.75 303.480010986
574909.5 4178759.75 303.470001221
574910.4375 4178759.75 299.959991455
574910.4375 4178759.75 299.950012207
574911.25 4178759.75 298.660003662
574906.75 4178760.25 302.660003662
574908.375 4178760.25 305.679992676
574908.375 4178760.25 305.700012207
574908.9375 4178760 301.089996338
574909.375 4178760 302.529998779
574909.4375 4178760 306.179992676
574909.4375 4178760 306.209991455
574910.3125 4178760 302.309997559
574910.3125 4178760 302.279998779
574907.375 4178760.5 298.739990234
574907.8125 4178760.5 303.670013428
574907.8125 4178760.5 303.660003662
574907.9375 4178760.5 301.320007324
574907.9375 4178760.5 301.350006104
574908.0625 4178760.25 305.950012207
574908.0625 4178760.25 305.970001221
574908.125 4178760.25 303.589996338
574908.125 4178760.25 303.609985352
574908.875 4178760.75 301.470001221
574909.25 4178760.5 302.049987793
574909.25 4178760.5 302.070007324
574909.3125 4178760.25 305.359985352
574909.9375 4178760.5 299.089996338
574910.1875 4178760.25 301.25
574910.1875 4178760.25 301.220001221
574910.4375 4178760.5 301.079986572
574906.625 4178760.75 301.899993896
574906.625 4178760.75 301.880004883
574907.5625 4178761 297.950012207
574907.6875 4178760.75 302.269989014
574907.6875 4178760.75 302.299987793
574907.8125 4178761 301.260009766
574907.8125 4178761 301.290008545
574908.6875 4178761 299.970001221
574907.5625 4178761.25 301.790008545
574908.875 4178761 298.890014648
574909.1875 4178761.25 301.940002441
574909.875 4178761 299.510009766
