# .PCD v.7 - Point Cloud Data file format
VERSION .7
FIELDS x y z
SIZE 4 4 4
TYPE F F F
COUNT 1 1 1
WIDTH 157
HEIGHT 1
VIEWPOINT 0 0 0 1 0 0 0
POINTS 157
DATA ascii
574914.625 4178759.75 308.149993896
574914.9375 4178760.25 309.320007324
574914.9375 4178760.25 309.339996338
574915.6875 4178760.5 307.769989014
574915.6875 4178760.5 307.760009766
574914.625 4178760.75 309.790008545
574914.875 4178760.75 309.410003662
574916.125 4178761 309.890014648
574916.125 4178761 309.869995117
574913.5625 4178761.25 309.230010986
574914.5625 4178761.25 309.510009766
574914.8125 4178761.25 309.089996338
574915.6875 4178761.25 308.549987793
574915.9375 4178761.25 308.549987793
574916 4178761.25 308.579986572
574911.9375 4178761.75 308.380004883
574912.25 4178761.75 308.609985352
574913.25 4178761.5 309.279998779
574914.4375 4178761.75 308.769989014
574915.5625 4178761.75 307.779998779
574915.8125 4178761.75 307.820007324
574910.5625 4178762.25 308.100006104
574910.9375 4178762 308.769989014
574913.5 4178762 309.25
574914.375 4178762.25 308.709991455
574914.6875 4178762 308.869995117
574915.5 4178762.25 307.549987793
574915.75 4178762.25 307.329986572
574911.8125 4178762.25 308.239990234
574912.125 4178762.5 308.510009766
574910.9375 4178762.75 309.230010986
574911.75 4178762.75 308.119995117
574912 4178763 307.980010986
574914.8125 4178763 311.760009766
574914.8125 4178763 311.75
574915.4375 4178762.75 307.720001221
574915.6875 4178762.75 307.630004883
574910.6875 4178763.25 310.420013428
574910.875 4178763.5 309.859985352
574910.875 4178763.5 309.899993896
574911.5625 4178763 306.679992676
574911.875 4178763.25 306.959991455
574913.125 4178763.5 310.290008545
574913.5 4178763.5 311.079986572
574914.4375 4178763.25 310.959991455
574909.375 4178763.75 310.600006104
574910.5 4178763.75 309.660003662
574913.3125 4178763.75 309.489990234
574914.375 4178763.75 310.880004883
574914.75 4178763.5 311.149993896
574908.375 4178764 310.619995117
574909.25 4178764 310
574909.625 4178764 310.209991455
574909.625 4178764 310.200012207
574913 4178764 310.119995117
574910.9375 4178764.25 311.559997559
574913.3125 4178764.5 311.049987793
574913.3125 4178764.75 311.059997559
574914.75 4178764.25 312.149993896
574909.25 4178764.75 310.5
574909.625 4178764.75 311.059997559
574910.375 4178764.75 309.190002441
574910.625 4178764.75 311.649993896
574910.625 4178764.75 311.619995117
574910.8125 4178764.75 310.820007324
574910.8125 4178764.75 310.790008545
574912.75 4178764.75 307.989990234
574913 4178764.75 310.929992676
574913 4178764.75 310.910003662
574913.1875 4178765 310.019989014
574914.4375 4178764.75 313.040008545
574914.4375 4178764.75 313.059997559
574911.75 4178765.25 307.799987793
574912.6875 4178765.25 307.839996338
574914.125 4178765.25 310.399993896
574909.25 4178765.5 311.829986572
574909.5625 4178765.5 312
574909.5625 4178765.5 312.010009766
574910.375 4178765.5 310.760009766
574910.375 4178765.5 310.75
574910.8125 4178765.5 312.029998779
574910.8125 4178765.5 312
574911.6875 4178765.75 311.140014648
574909.125 4178766 310.920013428
574909.5 4178766 311.679992676
574909.5 4178766 311.709991455
574910.3125 4178766.25 310.839996338
574910.6875 4178766 311.149993896
574912.9375 4178766 311.920013428
574913.25 4178766 311.730010986
574913.25 4178766 311.739990234
574911.6875 4178766.5 312.119995117
574911.6875 4178766.5 312.149993896
574912.875 4178766.5 311.829986572
574912.875 4178766.5 308.549987793
574913.1875 4178766.5 311.989990234
574913.1875 4178766.5 312.029998779
574910.375 4178767 312.140014648
574910.6875 4178766.75 311.829986572
574910.6875 4178766.75 311.850006104
574912 4178766.75 313.089996338
574912 4178766.75 313.119995117
574910.625 4178767.25 312.079986572
574910.625 4178767.25 312.059997559
574911.6875 4178767.25 313.420013428
574911.6875 4178767.25 313.399993896
574911.9375 4178767.25 313.140014648
574911.9375 4178767.5 313.170013428
574912.875 4178767.25 313.059997559
574912.875 4178767.25 313.070007324
574910.0625 4178767.75 309.709991455
574910.25 4178767.5 311.989990234
574910.5 4178767.75 311.179992676
574910.5 4178767.75 311.160003662
574911.625 4178767.75 313.179992676
574911.625 4178767.75 313.200012207
574911.8125 4178767.75 311.950012207
574911.8125 4178767.75 311.959991455
574909 4178768.5 309.200012207
574911.5 4178768.25 312.890014648
574911.5 4178768.25 312.910003662
574911.8125 4178768.5 312.739990234
574911.8125 4178768.5 312.700012207
574909.875 4178768.75 309.350006104
574910.25 4178768.75 310.119995117
574911.4375 4178768.75 312.899993896
574911.4375 4178768.75 312.929992676
574908.6875 4178769.25 310.609985352
574909 4178769.25 310.540008545
574908.625 4178769.75 310.649993896
574909.875 4178769.5 310.459991455
574910.375 4178769.75 312.390014648
574909 4178770 311.489990234
574909.8125 4178770 310.720001221
574909.8125 4178770 310.709991455
574910.125 4178769.75 310.420013428
574910.1875 4178769.75 310.450012207
574911.3125 4178769.75 312.579986572
574911.3125 4178769.75 312.549987793
574908.5625 4178770.5 311.149993896
574908.875 4178770.5 311.059997559
574908.5 4178771 310.920013428
574908.5 4178771 310.950012207
574910.25 4178770.75 312.320007324
574908.625 4178771.5 309.779998779
574908.8125 4178771 311.170013428
574908.8125 4178771 311.160003662
574909.625 4178771 310.040008545
574909.625 4178771 310.010009766
574909.9375 4178771 312.709991455
574910.0625 4178771.25 311.320007324
574910.0625 4178771.25 311.350006104
574908.4375 4178771.5 311.059997559
574908.4375 4178771.5 311.040008545
574909.5625 4178771.5 309.950012207
574909.875 4178771.5 309.809997559
574909.875 4178771.5 309.829986572
