# .PCD v.7 - Point Cloud Data file format
VERSION .7
FIELDS x y z
SIZE 4 4 4
TYPE F F F
COUNT 1 1 1
WIDTH 285
HEIGHT 1
VIEWPOINT 0 0 0 1 0 0 0
POINTS 285
DATA ascii
575018.375 4178581.75 300.239990234
575018.375 4178581.75 300.220001221
575019.5625 4178583 299.790008545
575019.5625 4178583 299.760009766
575023.375 4178582.75 304.850006104
575023.625 4178582.75 304.579986572
575017.6875 4178583 299.859985352
575017.6875 4178583 299.839996338
575019.0625 4178583.5 306.940002441
575022.5625 4178583.25 305.709991455
575023.375 4178583.25 305.279998779
575023.5625 4178583.25 305.570007324
575015.25 4178583.75 300.119995117
575015.25 4178583.75 300.140014648
575015.5 4178583.75 300.410003662
575015.5 4178583.75 300.399993896
575017.6875 4178583.75 299.989990234
575017.6875 4178583.75 300.010009766
575018.5 4178583.5 304.010009766
575019.375 4178583.75 306.600006104
575022.375 4178583.75 305.029998779
575023.375 4178583.75 305.790008545
575018.1875 4178584 304.970001221
575018.1875 4178584 304.940002441
575018.5 4178584.25 304.010009766
575019.125 4178584 307
575020.5625 4178584.25 305.100006104
575020.6875 4178584 299.989990234
575020.6875 4178584 299.970001221
575020.875 4178584 300.109985352
575020.875 4178584 300.130004883
575021.3125 4178584.25 305.549987793
575021.5 4178584 306.200012207
575022.5625 4178584 305.619995117
575019.125 4178584.5 307.630004883
575019.125 4178584.5 307.660003662
575019.4375 4178584.5 306.429992676
575019.4375 4178584.5 306.420013428
575020.375 4178584.5 304.540008545
575020.5625 4178584.5 301.309997559
575020.5625 4178584.5 301.329986572
575020.875 4178584.5 300.579986572
575020.875 4178584.5 300.619995117
575021.25 4178584.5 306.589996338
575021.5 4178584.5 306.940002441
575021.75 4178584.5 299.910003662
575021.75 4178584.5 299.880004883
575022.25 4178584.5 307.75
575022.375 4178584.5 305.399993896
575017.5 4178585 299.660003662
575017.5 4178585 299.649993896
575018.25 4178584.75 304.059997559
575018.25 4178584.75 304.029998779
575018.25 4178584.75 307.489990234
575018.5625 4178584.75 303.350006104
575018.5625 4178585 303.309997559
575018.75 4178584.75 301
575019.375 4178584.75 307.170013428
575019.375 4178584.75 307.149993896
575020.125 4178585 308.209991455
575020.125 4178585 308.179992676
575020.375 4178585 304.779998779
575020.5 4178585 306.429992676
575020.5625 4178584.75 305
575022.5 4178584.75 307.209991455
575022.5 4178584.75 307.179992676
575015.3125 4178585.5 304
575016.375 4178585 304.029998779
575016.375 4178585 304.059997559
575016.4375 4178585.25 299.869995117
575016.4375 4178585.25 299.890014648
575016.6875 4178585.25 299.959991455
575016.6875 4178585.25 299.940002441
575017.25 4178585.25 303.980010986
575017.25 4178585.25 303.989990234
575017.4375 4178585.25 304.450012207
575017.4375 4178585.25 304.429992676
575017.5 4178585.5 300.170013428
575017.5 4178585.5 300.190002441
575017.8125 4178585.5 299.709991455
575017.8125 4178585.5 299.739990234
575018.0625 4178585.25 307.359985352
575018.0625 4178585.25 307.339996338
575018.3125 4178585.25 304.170013428
575018.3125 4178585.25 307.339996338
575018.3125 4178585.25 307.350006104
575019.125 4178585 307.630004883
575019.125 4178585 307.600006104
575019.6875 4178585.25 300.089996338
575020.4375 4178585.25 308.049987793
575021.1875 4178585.5 308.320007324
575021.3125 4178585.25 306.149993896
575021.4375 4178585.25 308.489990234
575021.5625 4178585 306.600006104
575022.3125 4178585.25 307.100006104
575022.4375 4178585.25 308.470001221
575022.4375 4178585.25 308.440002441
575016.125 4178585.75 304.450012207
575016.375 4178585.75 300.709991455
575016.375 4178585.75 300.690002441
575016.4375 4178585.75 303.769989014
575016.4375 4178585.75 303.75
575017.1875 4178585.75 304.790008545
575017.3125 4178585.75 306.940002441
575017.3125 4178585.75 306.920013428
575018.0625 4178585.75 307.970001221
575018.0625 4178585.75 307.950012207
575018.25 4178585.75 308.369995117
575018.25 4178585.75 308.339996338
575019.5625 4178585.75 305.429992676
575019.5625 4178585.75 305.420013428
575020.1875 4178585.5 308.220001221
575020.1875 4178585.5 308.190002441
575022.0625 4178585.75 299.790008545
575015.0625 4178586.25 303.869995117
575015.3125 4178586 304.369995117
575017.125 4178586 306.390014648
575017.125 4178586 306.359985352
575018 4178586.25 308.829986572
575018.25 4178586 308.989990234
575018.25 4178586 308.959991455
575018.625 4178586 300.329986572
575019.25 4178586 306.290008545
575019.25 4178586 306.269989014
575019.5625 4178586.25 306.049987793
575019.5625 4178586.25 306.040008545
575021.1875 4178586 308.640014648
575021.375 4178586.25 309.779998779
575021.5 4178586 308.209991455
575015.3125 4178586.5 304.549987793
575016.375 4178586.75 305.119995117
575016.4375 4178586.5 300.489990234
575016.625 4178586.75 302.049987793
575016.625 4178586.75 302.019989014
575017.0625 4178586.5 307.140014648
575017.0625 4178586.5 307.149993896
575017.3125 4178586.25 307.260009766
575017.3125 4178586.25 307.269989014
575017.75 4178586.25 301
575017.75 4178586.25 300.989990234
575019.125 4178586.5 309.130004883
575019.125 4178586.5 309.149993896
575019.1875 4178586.25 307.470001221
575019.1875 4178586.25 307.480010986
575019.375 4178586.25 308.279998779
575019.375 4178586.25 308.260009766
575020.75 4178586.5 304.609985352
575021.125 4178586.25 309.850006104
575014.25 4178586.75 304.299987793
575015.0625 4178586.75 304.399993896
575016.0625 4178587 306.679992676
575016.125 4178586.75 305.059997559
575016.125 4178586.75 305.029998779
575016.25 4178586.75 307.239990234
575016.3125 4178586.75 302.260009766
575016.3125 4178586.75 302.239990234
575017.0625 4178587 307.809997559
575017.0625 4178587 307.779998779
575017.375 4178587 306.980010986
575017.375 4178587 306.959991455
575017.625 4178586.75 299.739990234
575018.125 4178587 308.029998779
575018.375 4178587 307.959991455
575019.375 4178586.75 309.230010986
575020.3125 4178587 307.220001221
575020.4375 4178586.75 305.380004883
575021.1875 4178587 309.760009766
575021.1875 4178587 309.739990234
575021.4375 4178586.75 309.510009766
575021.4375 4178586.75 309.480010986
575014 4178587 304.220001221
575014.25 4178587.25 304.320007324
575014.25 4178587.25 304.309997559
575015.1875 4178587.5 303.630004883
575015.25 4178587.25 305.959991455
575015.375 4178587 304.390014648
575015.375 4178587 304.410003662
575015.6875 4178587.5 299.739990234
575016.25 4178587.5 307.100006104
575016.6875 4178587.25 301.779998779
575017.3125 4178587.25 307.779998779
575017.3125 4178587.25 307.799987793
575018.3125 4178587.25 309.049987793
575020.3125 4178587.5 307.660003662
575014 4178587.75 304.239990234
575014 4178587.75 304.209991455
575016 4178587.5 307.130004883
575016 4178587.5 307.149993896
575017.0625 4178587.5 307.859985352
575017.0625 4178587.5 307.829986572
575017.25 4178587.75 308.760009766
575018.125 4178587.5 308.040008545
575018.6875 4178587.75 300.540008545
575019.25 4178587.5 308
575019.5 4178587.75 307.429992676
575014 4178588.25 304.559997559
575014.3125 4178588 304
575014.3125 4178588 303.980010986
575015.125 4178588 304.179992676
575015.125 4178588 304.140014648
575015.25 4178587.75 306.279998779
575015.25 4178587.75 306.260009766
575015.5625 4178588 302.239990234
575016 4178588 308.089996338
575016 4178588 308.070007324
575016.25 4178588 307.459991455
575016.25 4178588 307.480010986
575017.0625 4178588 308.480010986
575018.1875 4178588 308.230010986
575018.4375 4178588 308.179992676
575020.3125 4178588 307.899993896
575020.5625 4178588.25 307.850006104
575020.5625 4178588.25 307.839996338
575014.25 4178588.25 304.649993896
575015.1875 4178588.5 304.170013428
575015.1875 4178588.5 304.149993896
575015.3125 4178588.5 305.609985352
575015.3125 4178588.5 305.630004883
575016 4178588.5 308.179992676
575016 4178588.5 308.200012207
575016.25 4178588.5 307.940002441
575016.25 4178588.25 307.959991455
575019.5 4178588.5 305.579986572
575014.25 4178588.75 305.380004883
575014.25 4178588.75 305.350006104
575015.0625 4178588.75 305.880004883
575016.25 4178589 308.299987793
575016.875 4178588.75 299.829986572
575017.125 4178588.75 308.239990234
575017.125 4178588.75 308.209991455
575017.5625 4178589 305.350006104
575018.1875 4178588.75 308.380004883
575018.75 4178589 300.380004883
575020.375 4178588.75 307.480010986
575013.3125 4178589.25 303.179992676
575014 4178589.25 305.739990234
575014.1875 4178589.25 302.700012207
575014.25 4178589.25 305.760009766
575015.125 4178589.5 305.820007324
575015.3125 4178589 306.029998779
575015.3125 4178589 306.059997559
575016.0625 4178589.25 307.609985352
575016.125 4178589.25 307.589996338
575017.125 4178589.25 308.190002441
575017.4375 4178589 307.850006104
575019.375 4178589.25 307.769989014
575019.5625 4178589.25 304.799987793
575019.625 4178589.25 307.579986572
575019.625 4178589.25 307.600006104
575019.8125 4178589.25 304.980010986
575015.375 4178589.5 306.119995117
575015.375 4178589.5 306.100006104
575015.5 4178589.75 300.730010986
575016.5 4178589.5 305.359985352
575017.4375 4178589.75 307.739990234
575017.6875 4178589.5 300.970001221
575018.5625 4178589.5 303.549987793
575018.75 4178589.75 304.950012207
575014.4375 4178589.75 303.140014648
575015.125 4178590 306.079986572
575015.125 4178590 306.049987793
575016.25 4178590 306.299987793
575016.25 4178590 306.279998779
575016.5625 4178590 305.369995117
575017.1875 4178590 307.859985352
575014.25 4178590.25 302.820007324
575014.5625 4178590.5 302.339996338
575015.4375 4178590.25 305.850006104
575015.4375 4178590.25 305.869995117
575016.5625 4178590.5 305.489990234
575017.5625 4178590.25 302.880004883
575018.75 4178590.25 304.950012207
575015.25 4178590.75 304.709991455
575015.25 4178590.75 304.739990234
575017.625 4178591 302.839996338
575014.5625 4178591.25 302.299987793
575015.625 4178591.25 303.809997559
575016.4375 4178591 304.459991455
575016.6875 4178591.25 304.339996338
575017.875 4178591.25 303.019989014
575015.4375 4178591.75 302.980010986
575016.5 4178591.75 304.059997559
575016.75 4178592 304.100006104
575017.9375 4178592.25 302.720001221
575017.6875 4178592.75 303.170013428
