# .PCD v.7 - Point Cloud Data file format
VERSION .7
FIELDS x y z
SIZE 4 4 4
TYPE F F F
COUNT 1 1 1
WIDTH 598
HEIGHT 1
VIEWPOINT 0 0 0 1 0 0 0
POINTS 598
DATA ascii
575059.4375 4178511.5 302.559997559
575059.4375 4178511.5 302.549987793
575059.8125 4178511.5 303.140014648
575059.8125 4178511.5 303.109985352
575058.6875 4178511.5 302.019989014
575058.6875 4178511.5 301.989990234
575060.625 4178511.75 303.149993896
575060.625 4178511.75 303.130004883
575058.6875 4178512.25 302.559997559
575058.6875 4178512.25 302.519989014
575059.375 4178512 303.170013428
575059.375 4178512 303.190002441
575059.8125 4178512 303.429992676
575059.8125 4178512 303.410003662
575060.625 4178512.25 303.820007324
575060.625 4178512.25 303.850006104
575061.125 4178512 302.989990234
575061.125 4178512 303.010009766
575058.3125 4178512.5 301.920013428
575058.3125 4178512.5 301.929992676
575059.4375 4178512.5 303.640014648
575059.4375 4178512.5 303.660003662
575059.8125 4178512.5 304.339996338
575059.8125 4178512.5 304.309997559
575061.1875 4178512.5 303.140014648
575061.1875 4178512.5 303.119995117
575056.1875 4178513 303.649993896
575058.6875 4178512.75 302.640014648
575058.6875 4178512.75 302.670013428
575059.4375 4178513 304.230010986
575059.4375 4178513 304.260009766
575059.875 4178513 304.399993896
575060.6875 4178512.75 303.950012207
575060.6875 4178512.75 303.940002441
575058.375 4178513.25 301.799987793
575058.375 4178513.25 301.820007324
575058.6875 4178513.25 303.779998779
575058.6875 4178513.25 303.75
575059.875 4178513 304.380004883
575060.75 4178513.5 303.600006104
575060.75 4178513.5 303.619995117
575061.25 4178513.25 302.579986572
575061.25 4178513.25 302.600006104
575055.0625 4178513.5 303.25
575055.0625 4178513.5 303.220001221
575055.75 4178513.5 304.399993896
575056.25 4178513.5 303.549987793
575056.25 4178513.5 303.549987793
575057.0625 4178513.5 302.790008545
575057.0625 4178513.5 302.809997559
575057.5 4178513.75 303.420013428
575057.5 4178513.75 303.429992676
575058.1875 4178513.5 304.410003662
575058.6875 4178513.75 304.399993896
575058.6875 4178513.75 304.429992676
575059.5625 4178513.75 303.029998779
575059.5625 4178513.75 303
575059.9375 4178513.75 303.410003662
575059.9375 4178513.75 303.390014648
575055.125 4178514.25 303.140014648
575055.125 4178514.25 303.160003662
575055.875 4178514.25 303.709991455
575055.875 4178514.25 303.690002441
575056.25 4178514 304.149993896
575057.125 4178514.25 303.290008545
575057.125 4178514.25 303.269989014
575058.1875 4178514 304.809997559
575058.1875 4178514 304.829986572
575058.625 4178514.25 305.519989014
575059.5 4178514 304.529998779
575059.5 4178514 304.549987793
575057.3125 4178514.5 306.709991455
575057.5 4178514.25 303.869995117
575057.5 4178514.25 303.850006104
575058.1875 4178514.5 305.880004883
575058.1875 4178514.5 305.899993896
575058.9375 4178514.75 301.220001221
575060 4178514.25 303.799987793
575060 4178514.25 303.779998779
575055.9375 4178514.75 303.760009766
575055.9375 4178514.75 303.790008545
575056.3125 4178514.75 303.859985352
575056.3125 4178514.75 303.839996338
575056.9375 4178515 306.369995117
575056.9375 4178515 306.339996338
575057.125 4178514.75 303.570007324
575057.125 4178514.75 303.549987793
575058.6875 4178514.75 305.570007324
575058.6875 4178514.75 305.589996338
575059.5 4178514.75 304.779998779
575059.5 4178514.75 304.760009766
575059.9375 4178514.75 305.070007324
575060.75 4178515 304.649993896
575054.625 4178515.25 305.470001221
575054.625 4178515.25 305.459991455
575055.8125 4178515.25 305.309997559
575055.8125 4178515.25 305.329986572
575056.375 4178515.25 303.649993896
575056.375 4178515.25 303.670013428
575057.375 4178515 306.670013428
575057.375 4178515 306.660003662
575058.25 4178515.25 305.049987793
575058.25 4178515.25 305.040008545
575058.6875 4178515.25 305.640014648
575058.6875 4178515.25 305.609985352
575059.5 4178515.25 305.589996338
575059.5 4178515.25 305.619995117
575059.9375 4178515.25 305.510009766
575059.9375 4178515.25 305.489990234
575060.25 4178515.25 300.970001221
575053.625 4178515.75 303.709991455
575055.0625 4178515.75 305.470001221
575055.0625 4178515.75 305.440002441
575055.875 4178515.75 305.630004883
575055.875 4178515.75 305.600006104
575056.25 4178515.75 305.529998779
575056.25 4178515.75 305.510009766
575057 4178515.5 305.899993896
575057 4178515.5 305.869995117
575057.5 4178515.75 305.950012207
575057.5 4178515.75 305.970001221
575058.25 4178515.5 306
575058.25 4178515.5 306.010009766
575059.5 4178515.75 306.100006104
575059.5 4178515.75 306.119995117
575060.875 4178515.75 303.929992676
575054 4178516 303.649993896
575054.75 4178516 304.589996338
575054.75 4178516 304.619995117
575056.25 4178516.25 306.630004883
575056.25 4178516.25 306.649993896
575057 4178516.25 306.480010986
575057 4178516.25 306.459991455
575058.3125 4178516.25 305.730010986
575058.3125 4178516.25 305.75
575058.6875 4178515.75 306.059997559
575058.6875 4178515.75 306.040008545
575060 4178515.75 305.519989014
575060.8125 4178516 305.549987793
575052.9375 4178516.5 303.260009766
575053.625 4178516.25 303.829986572
575054.0625 4178516.5 303.600006104
575054.75 4178516.5 304.940002441
575054.75 4178516.5 304.929992676
575055.125 4178516.25 305.459991455
575055.125 4178516.25 305.440002441
575055.875 4178516.25 305.510009766
575055.9375 4178516.25 305.480010986
575057 4178516.5 307.720001221
575057 4178516.5 307.700012207
575057.4375 4178516.25 306.869995117
575057.4375 4178516.25 306.890014648
575059.5625 4178516.25 305.929992676
575060 4178516.5 305.220001221
575060.0625 4178516.5 305.200012207
575060.3125 4178516.25 301.119995117
575061.5625 4178516.25 300.929992676
575061.5625 4178516.25 300.910003662
575052.875 4178517 304.239990234
575053.6875 4178517 303.739990234
575054 4178517 304.829986572
575055.125 4178516.75 305.549987793
575055.8125 4178516.75 307.529998779
575055.8125 4178516.75 307.549987793
575056.1875 4178516.75 307.600006104
575056.1875 4178516.75 307.570007324
575057.4375 4178516.75 307.220001221
575058.3125 4178516.75 306.290008545
575058.3125 4178516.75 306.320007324
575058.9375 4178516.75 303.739990234
575058.9375 4178516.75 303.730010986
575059.6875 4178517 304.820007324
575059.6875 4178517 304.850006104
575060.875 4178516.75 305.200012207
575053.625 4178517.25 305.570007324
575054.8125 4178517 305.160003662
575055.1875 4178517.5 305.679992676
575055.8125 4178517.25 308.079986572
575055.8125 4178517.25 308.089996338
575056.25 4178517.25 307.820007324
575057.0625 4178517.25 307.480010986
575057.0625 4178517.25 307.450012207
575057.4375 4178517.25 307.75
575058.3125 4178517.25 306.380004883
575058.875 4178517.25 304.579986572
575058.875 4178517.25 304.559997559
575060.125 4178517 304.910003662
575054 4178517.5 305.619995117
575054 4178517.5 305.640014648
575054.75 4178517.5 306.059997559
575054.75 4178517.5 306.040008545
575055.0625 4178517.75 308.160003662
575055.0625 4178517.75 308.179992676
575055.8125 4178517.75 308.309997559
575055.8125 4178517.75 308.339996338
575056.25 4178517.75 308.049987793
575057.0625 4178517.75 307.589996338
575057.4375 4178517.75 308.5
575057.4375 4178517.75 308.510009766
575058.3125 4178517.75 307.339996338
575058.75 4178517.5 306.850006104
575059.6875 4178517.5 305.170013428
575060.125 4178517.75 304.929992676
575060.375 4178517.5 300.910003662
575053.6875 4178518 305.390014648
575054 4178518 305.989990234
575057 4178518.25 309.140014648
575057 4178518.25 309.160003662
575058.875 4178518.25 306.200012207
575058.875 4178518.25 306.179992676
575059.75 4178518.25 304.570007324
575060 4178518 301.089996338
575054.875 4178518.25 305.380004883
575054.875 4178518.25 305.420013428
575055.0625 4178518.25 308.399993896
575055.875 4178518.5 307.799987793
575055.875 4178518.5 307.779998779
575056.25 4178518.25 308.540008545
575056.25 4178518.25 308.519989014
575057.5 4178518.25 308.709991455
575057.5 4178518.25 308.700012207
575058.375 4178518.5 307.049987793
575058.375 4178518.5 307.070007324
575059.75 4178518.25 304.549987793
575053 4178518.75 303.989990234
575054.1875 4178518.75 304
575055 4178519 304.049987793
575055.1875 4178519 307.5
575055.875 4178519 308.619995117
575055.875 4178519 308.630004883
575056.25 4178518.75 308.739990234
575056.25 4178518.75 308.760009766
575057.125 4178518.75 308.170013428
575057.125 4178518.75 308.149993896
575058.4375 4178519 307.019989014
575058.4375 4178519 307
575058.9375 4178518.75 305.239990234
575059 4178518.75 305.209991455
575059.8125 4178518.75 304.309997559
575060.3125 4178519 303.700012207
575058.875 4178519.25 306.790008545
575058.875 4178519.25 306.820007324
575060.0625 4178519.25 301.209991455
575060.125 4178519.25 306.510009766
575060.125 4178519.25 306.489990234
575061.5 4178519.25 305.369995117
575055.3125 4178519.75 306.299987793
575055.3125 4178519.75 306.279998779
575056.125 4178519.75 306.089996338
575056.125 4178519.75 306.109985352
575056.375 4178519.5 307.869995117
575056.375 4178519.5 307.850006104
575057.3125 4178519.75 305.869995117
575057.3125 4178519.75 305.850006104
575057.5625 4178519.5 308.239990234
575057.5625 4178519.5 308.220001221
575058.375 4178519.5 307.799987793
575058.4375 4178519.5 307.779998779
575059.875 4178519.5 303.989990234
575059.875 4178519.5 304.010009766
575061 4178519.5 306.029998779
575054.375 4178520.25 302.480010986
575054.375 4178520.25 302.5
575056 4178520 308.190002441
575056 4178520 308.209991455
575056.375 4178520 308.149993896
575056.375 4178520 308.179992676
575057.1875 4178520 308.579986572
575057.1875 4178520 308.570007324
575057.625 4178520.25 308.149993896
575057.625 4178520.25 308.130004883
575059 4178520 305.940002441
575059 4178520 305.920013428
575059.8125 4178519.75 305.970001221
575059.8125 4178519.75 305.950012207
575060.1875 4178519.75 306.170013428
575061.0625 4178520.25 306.279998779
575061.5625 4178520 304.929992676
575054 4178520.5 303.049987793
575054 4178520.5 303.070007324
575054.3125 4178520.5 303.929992676
575054.3125 4178520.5 303.910003662
575055.1875 4178520.25 303.010009766
575055.375 4178520.25 305.410003662
575055.375 4178520.25 305.440002441
575057.1875 4178520.5 308.609985352
575057.1875 4178520.5 308.640014648
575058.4375 4178520.5 308.890014648
575058.4375 4178520.5 308.869995117
575058.5625 4178520.25 306.399993896
575058.5625 4178520.25 306.380004883
575059 4178520.5 306.100006104
575059.8125 4178520.5 305.859985352
575060.25 4178520.5 306.579986572
575055 4178520.5 305.369995117
575055 4178520.5 305.350006104
575055.375 4178520.75 306.420013428
575055.375 4178520.75 306.390014648
575056 4178520.75 308.239990234
575056 4178520.75 308.220001221
575056.4375 4178520.5 308.380004883
575056.4375 4178520.5 308.410003662
575057.625 4178520.75 309.040008545
575057.625 4178520.75 309.079986572
575059.75 4178520.75 307.260009766
575059.75 4178520.75 307.230010986
575060.1875 4178520.75 307.609985352
575060.1875 4178520.75 307.589996338
575061.0625 4178520.75 306.299987793
575051.75 4178521.25 302.429992676
575052.125 4178521.25 302.600006104
575052.875 4178521.25 302.809997559
575053.3125 4178521.25 302.529998779
575054 4178521 303.609985352
575054 4178521 303.630004883
575054.375 4178521.25 303.510009766
575054.375 4178521.25 303.540008545
575055 4178521 306.119995117
575055 4178521 306.149993896
575055.375 4178521.25 306.75
575055.375 4178521.25 306.779998779
575056.125 4178521.25 307.850006104
575056.125 4178521.25 307.880004883
575056.5 4178521.25 308.029998779
575056.5 4178521.25 308.010009766
575057.1875 4178521 309.209991455
575057.1875 4178521 309.190002441
575057.625 4178521.25 309.010009766
575057.625 4178521.25 309.029998779
575058.5 4178521.25 308.399993896
575058.5 4178521.25 308.420013428
575059 4178521 307
575059 4178521 307.019989014
575061 4178521 307.850006104
575061 4178521 307.820007324
575052.125 4178521.75 302.630004883
575052.875 4178521.75 303.600006104
575053.1875 4178521.5 304.260009766
575053.9375 4178521.5 304.779998779
575053.9375 4178521.5 304.760009766
575054.3125 4178521.75 304.640014648
575054.3125 4178521.75 304.679992676
575055 4178521.75 306.390014648
575055 4178521.75 306.420013428
575059.0625 4178521.75 306.339996338
575060.1875 4178521.5 307.910003662
575051.6875 4178521.75 303.989990234
575052 4178522 305.269989014
575052.75 4178522 305.209991455
575052.75 4178522 305.190002441
575053.1875 4178522 305.220001221
575054.3125 4178522 305.700012207
575054.3125 4178522 305.700012207
575054.9375 4178522 307.970001221
575054.9375 4178522 308
575055.375 4178521.75 307.420013428
575055.375 4178522 307.399993896
575056.1875 4178522 307.170013428
575056.1875 4178522 307.190002441
575057.4375 4178522 306.959991455
575057.75 4178522 307.739990234
575057.75 4178522 307.720001221
575058.5625 4178521.75 307.809997559
575059.0625 4178522.25 306.890014648
575059.875 4178522 306.779998779
575060.1875 4178522 308.410003662
575060.1875 4178522 308.399993896
575050.875 4178522.25 304.269989014
575051.6875 4178522.25 304.910003662
575051.6875 4178522.25 304.920013428
575051.9375 4178522.5 306.279998779
575052.75 4178522.5 306.450012207
575052.75 4178522.5 306.420013428
575053.125 4178522.5 306.399993896
575053.875 4178522.5 306.899993896
575054.0625 4178522.25 303.899993896
575054.25 4178522.5 306.880004883
575055.375 4178522.5 307.989990234
575055.375 4178522.5 308.010009766
575056.8125 4178522.25 304.149993896
575057.375 4178522.25 308.170013428
575057.375 4178522.25 308.160003662
575057.8125 4178522.5 307.730010986
575058.625 4178522.5 307.239990234
575051 4178523 303.420013428
575051.625 4178522.75 306.140014648
575053.875 4178523 307.589996338
575053.875 4178523 307.570007324
575054.0625 4178522.75 304.040008545
575055 4178522.75 307.910003662
575056.3125 4178522.75 305.75
575056.3125 4178522.75 305.730010986
575056.8125 4178522.75 304.920013428
575056.8125 4178522.75 304.940002441
575058.625 4178523 307.839996338
575059.125 4178522.75 307.230010986
575059.125 4178522.75 307.239990234
575050.6875 4178523 302.869995117
575051.6875 4178523.25 305.920013428
575051.6875 4178523.25 305.940002441
575051.9375 4178523.25 301.760009766
575052 4178523 306.149993896
575052 4178523 306.170013428
575052.3125 4178523 301.299987793
575052.6875 4178523 307.350006104
575053.125 4178523 307.109985352
575053.125 4178523 307.089996338
575054.25 4178523 307.380004883
575055.5 4178523 306.820007324
575056.375 4178523.25 305.720001221
575056.375 4178523.25 305.700012207
575056.8125 4178523.25 305.459991455
575056.8125 4178523.25 305.429992676
575059.0625 4178523.25 308.109985352
575059.875 4178523 308.589996338
575059.875 4178523 308.570007324
575050.6875 4178523.75 303.380004883
575051 4178523.5 303.519989014
575052 4178523.5 306.489990234
575052.75 4178523.5 307.619995117
575053.0625 4178523.5 308.049987793
575053.0625 4178523.5 308.029998779
575053.9375 4178523.5 307.489990234
575053.9375 4178523.5 307.470001221
575054.25 4178523.5 307.660003662
575054.25 4178523.5 307.619995117
575058.125 4178523.5 304.260009766
575058.6875 4178523.5 308.160003662
575059 4178523.5 309.730010986
575059 4178523.5 309.75
575050.875 4178523.75 305.839996338
575051.6875 4178524 305.910003662
575051.6875 4178524 305.890014648
575052 4178524 307.350006104
575052.75 4178524.25 307.720001221
575053.125 4178524 308.140014648
575053.125 4178524 308.119995117
575053.875 4178524 308.079986572
575055.125 4178524 307.029998779
575055.125 4178524 307.019989014
575056.4375 4178524 305.160003662
575056.4375 4178524 305.170013428
575056.75 4178523.75 306.359985352
575056.75 4178523.75 306.350006104
575057.625 4178523.75 305.660003662
575057.625 4178523.75 305.640014648
575058.1875 4178524 304.290008545
575051.75 4178524.5 305.589996338
575052.75 4178524.25 307.690002441
575054.3125 4178524.25 307.980010986
575054.3125 4178524.25 307.950012207
575056.4375 4178524.5 305.75
575056.4375 4178524.5 305.730010986
575056.8125 4178524.25 306.579986572
575056.8125 4178524.25 306.549987793
575057.6875 4178524.5 305.329986572
575057.6875 4178524.5 305.350006104
575058 4178524.5 306.869995117
575058.75 4178524.25 307.209991455
575052.0625 4178524.75 307.089996338
575052.75 4178524.75 308.179992676
575052.75 4178524.75 308.200012207
575053.1875 4178524.75 307.739990234
575053.9375 4178524.75 307.850006104
575054.375 4178524.75 307.140014648
575055.3125 4178524.75 305.140014648
575055.3125 4178524.75 305.170013428
575055.625 4178525 306.309997559
575055.625 4178525 306.290008545
575057.625 4178525 306.470001221
575057.625 4178525 306.489990234
575057.9375 4178524.75 308.160003662
575058.75 4178524.75 308.049987793
575052.8125 4178525.25 307.75
575052.8125 4178525.25 307.739990234
575053.25 4178525.25 307.730010986
575054 4178525.25 307.980010986
575054 4178525.25 307.989990234
575055.25 4178525.25 306.660003662
575056.4375 4178525 306.459991455
575056.875 4178525 305.660003662
575056.875 4178525 305.640014648
575051.9375 4178525.25 303.619995117
575052.125 4178525.25 306.459991455
575054.4375 4178525.5 306.920013428
575055.625 4178525.5 306.989990234
575055.625 4178525.5 306.970001221
575056.4375 4178525.5 307
575056.4375 4178525.5 307.019989014
575057 4178525.75 305.149993896
575057 4178525.75 305.179992676
575057.625 4178525.25 307.630004883
575058.0625 4178525.5 307.450012207
575058.0625 4178525.5 307.480010986
575051.9375 4178525.75 304.010009766
575053 4178526 306.350006104
575053.375 4178526 306.380004883
575053.375 4178526 306.399993896
575054.0625 4178525.75 307.440002441
575054.5 4178526 306.339996338
575055.3125 4178525.75 306.350006104
575055.6875 4178526 306.880004883
575056.5 4178526 307.230010986
575056.5 4178526 307.209991455
575056.9375 4178526 306.179992676
575056.9375 4178526 306.140014648
575057.625 4178526 307.559997559
575052 4178526.5 304.350006104
575052.375 4178526.25 303.529998779
575055.3125 4178526.25 306.660003662
575055.3125 4178526.25 306.649993896
575053.0625 4178526.75 305.350006104
575053.5 4178526.75 305.329986572
575054.1875 4178526.5 306.630004883
575054.6875 4178526.75 305.179992676
575055.8125 4178526.75 305.980010986
575055.8125 4178526.75 305.950012207
575056.625 4178526.75 306.119995117
575056.625 4178526.75 306.140014648
575057 4178526.75 305.890014648
575057 4178526.75 305.899993896
575055.4375 4178527 306.089996338
575055.4375 4178527 306.100006104
575054.8125 4178527.5 303.600006104
575054.8125 4178527.5 303.630004883
575055.5 4178527.75 305.329986572
575055.5 4178527.75 305.350006104
575055.875 4178527.25 305.630004883
575055.875 4178527.25 305.600006104
575056.5625 4178527.25 306.859985352
575056.5625 4178527.25 306.839996338
575057.0625 4178527.25 305.660003662
575057.0625 4178527.25 305.630004883
575055.875 4178528 305.589996338
575055.875 4178528 305.570007324
575056.6875 4178528 306.269989014
575056.6875 4178528 306.239990234
575055.5625 4178528.25 305.279998779
575055.5625 4178528.25 305.299987793
575053.8125 4178528.75 302.420013428
575053.8125 4178528.75 302.380004883
575056 4178528.5 305.049987793
575056 4178528.5 305.029998779
575053.4375 4178529 302.029998779
575053.4375 4178529 302.049987793
575055 4178529 301.910003662
575055 4178529 301.910003662
575055.75 4178529 303.630004883
575055.75 4178529 303.649993896
575056.0625 4178529.25 304.489990234
575056.0625 4178529.25 304.470001221
575053.4375 4178529.5 303.100006104
575053.4375 4178529.5 303.070007324
575053.8125 4178529.25 303.149993896
575053.8125 4178529.25 303.170013428
575054.625 4178529.25 302.679992676
575054.625 4178529.5 302.649993896
575054.875 4178529.25 304.109985352
575054.875 4178529.25 304.140014648
575055.75 4178529.5 303.880004883
575055.75 4178529.5 303.920013428
575053.4375 4178530 303.480010986
575053.4375 4178530 303.489990234
575053.75 4178529.75 303.839996338
575053.75 4178529.75 303.820007324
575054.5 4178529.75 304.540008545
575054.5 4178529.75 304.510009766
575054.9375 4178530 303.920013428
575055.6875 4178530 305.25
575055.6875 4178530 305.239990234
575053.8125 4178530.5 303.809997559
575053.8125 4178530.5 303.779998779
575054.625 4178530.5 303.589996338
575053.4375 4178530.5 303.609985352
575053.75 4178530.75 305.029998779
575053.75 4178530.75 305.010009766
575054.5625 4178530.75 305.239990234
575054.5625 4178530.75 305.220001221
575055.0625 4178530.5 303.040008545
575052.75 4178531 302.720001221
575052.75 4178531 302.700012207
575053.4375 4178531 304.700012207
575053.4375 4178531 304.660003662
575054.9375 4178531 305.190002441
575053.4375 4178531.5 304.899993896
575053.4375 4178531.5 304.920013428
575053.8125 4178531.5 304.670013428
575053.8125 4178531.5 304.649993896
575054.5625 4178531.5 305.480010986
575053.75 4178532 305.989990234
575053.75 4178532 305.959991455
575053.4375 4178532 305.209991455
575053.5 4178532 305.190002441
575052.8125 4178532.75 303.839996338
575053.625 4178532.75 303.940002441
575053.8125 4178532.5 305.739990234
575052.875 4178533.25 303.109985352
575053.5625 4178533.25 304.589996338
