# .PCD v.7 - Point Cloud Data file format
VERSION .7
FIELDS x y z
SIZE 4 4 4
TYPE F F F
COUNT 1 1 1
WIDTH 481
HEIGHT 1
VIEWPOINT 0 0 0 1 0 0 0
POINTS 481
DATA ascii
574899.6875 4178763.75 290.929992676
574899.6875 4178763.75 290.899993896
574898.625 4178764.25 290.910003662
574898.625 4178764.25 290.880004883
574898.4375 4178766 290.850006104
574899.3125 4178766.75 290.799987793
574897.9375 4178767.25 290.950012207
574898.25 4178767.25 290.899993896
574899.25 4178767.25 290.989990234
574899.1875 4178768 290.959991455
574897.8125 4178768.25 290.660003662
574897.8125 4178768.25 290.679992676
574898.125 4178768.5 290.929992676
574897.75 4178768.75 290.760009766
574896.625 4178769.75 290.640014648
574896.625 4178769.75 290.649993896
574899 4178769.5 290.910003662
574896.25 4178770 290.829986572
574896.25 4178770 290.799987793
574898.875 4178770 290.510009766
574895.1875 4178770.25 290.660003662
574895.1875 4178770.25 290.640014648
574897.5 4178770.5 290.470001221
574898.75 4178770.75 290.279998779
574897.75 4178771.25 290.329986572
574896.375 4178771.5 290.799987793
574896.375 4178771.5 290.779998779
574897.375 4178771.75 290.799987793
574897.375 4178771.75 290.769989014
574905.375 4178771.5 289.029998779
574894.625 4178772.25 290.839996338
574897.6875 4178772 290.619995117
574899 4178771.75 290.480010986
574897.25 4178772.25 290.220001221
574897.25 4178772.25 290.239990234
574897.5625 4178772.5 290.410003662
574906.25 4178772.5 288.940002441
574894.5625 4178772.75 290.420013428
574895.9375 4178772.75 290.839996338
574897.1875 4178772.75 290.369995117
574897.1875 4178772.75 290.399993896
574906.5 4178772.75 288.5
574896.1875 4178773.25 290.489990234
574897.5625 4178773.25 290.970001221
574906.4375 4178773.25 288.739990234
574897.5 4178773.75 290.769989014
574898.375 4178773.5 289.850006104
574906.0625 4178773.5 288.760009766
574891.625 4178774 290.609985352
574894.4375 4178773.75 290.829986572
574895.75 4178774 290.829986572
574896.125 4178773.75 290.649993896
574897 4178774 290.089996338
574898.3125 4178774 290.070007324
574898.625 4178774 289.869995117
574903.75 4178774 288.700012207
574905.0625 4178774 288.970001221
574906.375 4178774 288.899993896
574895.6875 4178774.5 290.25
574896 4178774.25 290.619995117
574897.375 4178774.25 290.510009766
574906 4178774.25 289.279998779
574906.3125 4178774.5 288.820007324
574895.9375 4178774.75 290.149993896
574898.25 4178774.5 290.049987793
574898.625 4178774.75 290.529998779
574905.9375 4178774.75 288.670013428
574891.5 4178775.25 290.320007324
574903.625 4178775.25 288.559997559
574905.8125 4178775.25 288.519989014
574892.875 4178775.5 290.690002441
574895.8125 4178775.5 289.869995117
574902.3125 4178776 289.670013428
574903.5625 4178775.75 288.950012207
574895.8125 4178776.25 290.589996338
574896.75 4178776.25 289.730010986
574898.0625 4178776.25 290.119995117
574898.375 4178776.5 289.839996338
574899.625 4178776.25 289.470001221
574897.0625 4178776.5 290.309997559
574900.6875 4178776.5 290.489990234
574903.5625 4178776.5 289.890014648
574888.5 4178777.25 290.640014648
574888.5 4178777.25 290.660003662
574892.625 4178777.25 290.640014648
574895.625 4178777.25 290.480010986
574899.25 4178777 289.709991455
574900.5625 4178777 289.850006104
574902.125 4178777.25 288.950012207
574903.4375 4178777 288.920013428
574903.4375 4178777 288.899993896
574904.375 4178777 288.910003662
574905.875 4178777.25 287.959991455
574906.8125 4178777.25 287.980010986
574887.4375 4178777.5 290.660003662
574893 4178777.5 290.690002441
574895.3125 4178777.5 290.630004883
574899.5 4178777.5 289.529998779
574900.5 4178777.5 289.850006104
574900.875 4178777.5 289.760009766
574901.75 4178777.5 289.399993896
574903 4178777.5 288.630004883
574903.3125 4178777.5 288.480010986
574903.3125 4178777.5 288.450012207
574905.5 4178777.5 288.369995117
574892.875 4178778 290.369995117
574892.875 4178778 290.350006104
574893.9375 4178778 290.850006104
574893.9375 4178778 290.829986572
574895.1875 4178777.75 289.950012207
574895.5625 4178777.75 290.079986572
574895.5625 4178777.75 290.100006104
574897 4178777.75 290.820007324
574900.75 4178778 289.75
574900.75 4178778 289.730010986
574902.0625 4178777.75 289.440002441
574902.875 4178778 288.359985352
574906.6875 4178777.75 287.739990234
574888.3125 4178778.25 290.470001221
574892.4375 4178778.25 289.970001221
574892.75 4178778.5 289.959991455
574892.75 4178778.5 289.929992676
574895.125 4178778.5 289.75
574895.125 4178778.25 289.730010986
574895.5 4178778.25 290.029998779
574895.5 4178778.5 290.040008545
574896.8125 4178778.25 289.809997559
574899.125 4178778.25 289.859985352
574900.4375 4178778.25 290.010009766
574901.9375 4178778.25 288.890014648
574902.8125 4178778.5 288.239990234
574886.9375 4178778.75 290.609985352
574886.9375 4178778.75 290.589996338
574892.375 4178778.75 289.950012207
574895.375 4178779 289.529998779
574896.4375 4178778.5 290.040008545
574896.75 4178778.75 289.429992676
574897.75 4178778.5 289.510009766
574897.75 4178778.5 289.519989014
574898.0625 4178778.75 289.75
574900.6875 4178778.5 289.399993896
574901.625 4178778.75 289.559997559
574903.1875 4178778.75 288.359985352
574892.6875 4178779 289.690002441
574893.75 4178779 290.549987793
574893.75 4178779 290.529998779
574894.125 4178779 290.670013428
574894.125 4178779 290.640014648
574895 4178779 289.589996338
574895 4178779 289.609985352
574896.375 4178779 290.029998779
574896.375 4178779 290
574897.625 4178779 289.529998779
574900.25 4178779.25 289.510009766
574900.5625 4178779 288.739990234
574901.9375 4178779 289.380004883
574902.75 4178779 288.399993896
574886.875 4178779.5 290.649993896
574892.3125 4178779.25 289.989990234
574892.625 4178779.75 289.829986572
574892.625 4178779.75 289.809997559
574893.625 4178779.5 289.829986572
574893.625 4178779.5 289.809997559
574894 4178779.5 289.549987793
574894 4178779.5 289.510009766
574894.9375 4178779.5 289.529998779
574895.3125 4178779.5 289.619995117
574895.3125 4178779.5 289.589996338
574896.625 4178779.25 289.470001221
574897.5625 4178779.75 289.299987793
574900.5 4178779.5 288.589996338
574901.5625 4178779.25 289.950012207
574886.75 4178780 290.559997559
574887.1875 4178779.75 290.559997559
574891.3125 4178779.75 290.299987793
574892.1875 4178779.75 289.570007324
574892.1875 4178779.75 289.549987793
574893.5625 4178780 289.470001221
574893.5625 4178780 289.470001221
574894.875 4178780 289.410003662
574895.25 4178780 289.510009766
574897.875 4178779.75 289.149993896
574902.6875 4178779.75 288.559997559
574903 4178779.75 288.109985352
574903 4178779.75 288.079986572
574891.1875 4178780.25 289.790008545
574892.125 4178780.5 289.600006104
574892.125 4178780.5 289.630004883
574892.5625 4178780.25 289.760009766
574892.5625 4178780.25 289.790008545
574893.875 4178780 289.640014648
574893.875 4178780 289.619995117
574897.8125 4178780.5 289.040008545
574897.8125 4178780.5 289.010009766
574901.3125 4178780.25 288.380004883
574902.5625 4178780.25 287.989990234
574902.5625 4178780.25 287.970001221
574902.9375 4178780.25 288.089996338
574902.9375 4178780.25 288.070007324
574903.875 4178780.25 287.970001221
574903.875 4178780.25 288
574904.25 4178780.25 288.089996338
574885.25 4178780.75 290.269989014
574889.75 4178780.75 290.260009766
574892.4375 4178780.75 289.540008545
574892.4375 4178780.75 289.559997559
574893.5 4178780.5 289.480010986
574893.5 4178780.5 289.5
574893.8125 4178780.75 289.480010986
574893.8125 4178780.75 289.5
574894.8125 4178780.5 289.399993896
574894.8125 4178780.5 289.369995117
574897.4375 4178780.75 289.25
574899.1875 4178780.5 289.720001221
574899.1875 4178780.5 289.709991455
574902.5 4178780.75 288.059997559
574903.8125 4178780.75 287.839996338
574903.8125 4178780.75 287.820007324
574886.625 4178781 290.450012207
574887 4178781 290.5
574890.8125 4178781 290.579986572
574892.125 4178781 290.079986572
574893.375 4178781 289.320007324
574903 4178781.25 289.790008545
574903 4178781.25 289.760009766
574885.1875 4178781.25 290.480010986
574886.9375 4178781.5 290.260009766
574886.9375 4178781.5 290.290008545
574889.6875 4178781.5 290.170013428
574892 4178781.5 289.769989014
574892.375 4178781.25 289.690002441
574892.375 4178781.25 289.670013428
574893.3125 4178781.75 289.230010986
574897.375 4178781.5 289.519989014
574897.6875 4178781.75 289.350006104
574901.1875 4178781.5 288.619995117
574901.1875 4178781.5 288.600006104
574902.4375 4178781.25 288.040008545
574902.8125 4178781.5 288.309997559
574886.5625 4178781.75 290.410003662
574889.625 4178782 290.040008545
574891 4178782 289.809997559
574901.125 4178782 288.540008545
574901.125 4178782 288.559997559
574901.4375 4178781.75 288.010009766
574902.3125 4178781.75 287.679992676
574902.625 4178782 287.420013428
574903.875 4178781.75 290.25
574903.875 4178781.75 290.279998779
574904.25 4178781.75 290.269989014
574904.25 4178781.75 290.299987793
574886.5 4178782.25 290.429992676
574886.5 4178782.25 290.459991455
574886.875 4178782.25 290.309997559
574886.875 4178782.25 290.350006104
574887.8125 4178782.25 290.160003662
574888.25 4178782 290.160003662
574891.9375 4178782.25 289.799987793
574893.5625 4178782.5 289.359985352
574894.5625 4178782.25 289.100006104
574895.8125 4178782.25 288.579986572
574886.375 4178782.75 290.25
574886.8125 4178782.75 290.489990234
574888.125 4178782.75 290.109985352
574900.25 4178782.75 290.130004883
574901.125 4178782.75 289.5
574901.125 4178782.75 289.470001221
574902.3125 4178782.5 288.079986572
574885 4178783 290.519989014
574889.125 4178783 290.649993896
574899.9375 4178783 291
574901.5 4178783.25 290.359985352
574901.5 4178783.25 290.339996338
574902.25 4178783 288.140014648
574886.3125 4178783.25 290.25
574886.75 4178783.5 290.619995117
574887.6875 4178783.5 290.109985352
574888.0625 4178783.25 290.170013428
574896.0625 4178783.25 288.649993896
574901.0625 4178783.5 290.220001221
574901.125 4178783.5 290.239990234
574901.25 4178783.5 287.929992676
574901.25 4178783.5 287.959991455
574886.6875 4178784 290.549987793
574887.5625 4178784 289.859985352
574888 4178783.75 289.959991455
574889.0625 4178783.75 290.640014648
574889.0625 4178783.75 290.630004883
574895.625 4178784 288.589996338
574901 4178784 290.119995117
574901 4178784 290.130004883
574901.1875 4178784 287.739990234
574901.1875 4178784 287.720001221
574887.9375 4178784.25 289.739990234
574900.8125 4178784.25 287.980010986
574881.9375 4178784.5 290.510009766
574887.5 4178784.5 289.720001221
574887.5 4178784.5 289.760009766
574900.6875 4178784.75 287.679992676
574901.0625 4178784.5 287.720001221
574887.4375 4178785.25 289.690002441
574887.8125 4178785 289.75
574895.875 4178785 288.470001221
574889.125 4178785.5 289.579986572
574889.125 4178785.5 289.549987793
574895.5 4178785.25 288.970001221
574898.0625 4178785.25 288.279998779
574901.9375 4178785.25 287.929992676
574883.5625 4178786 290.269989014
574887.375 4178785.75 290
574888.75 4178785.75 289.779998779
574889.0625 4178786 289.670013428
574889.0625 4178786 289.660003662
574893.125 4178785.75 288.820007324
574895.75 4178785.75 288.369995117
574895.75 4178785.75 288.350006104
574896.6875 4178785.75 288.059997559
574898 4178786 288.029998779
574899.625 4178786 287.760009766
574901.75 4178785.75 287.019989014
574883.125 4178786 290.160003662
574887.3125 4178786.25 289.859985352
574888.625 4178786.25 289.670013428
574888.625 4178786.5 289.700012207
574894.375 4178786.25 288.630004883
574895.6875 4178786.25 288.160003662
574896.625 4178786.5 288.220001221
574900.875 4178786.25 287.559997559
574883.0625 4178786.75 290.450012207
574883.5 4178786.5 290.470001221
574883.5 4178786.5 290.480010986
574884.5 4178786.5 290.010009766
574884.875 4178786.75 289.920013428
574885.875 4178786.75 290
574887.625 4178786.75 289.869995117
574889 4178786.5 289.380004883
574889 4178786.5 289.350006104
574889.9375 4178786.5 289.109985352
574889.9375 4178786.5 289.140014648
574890.375 4178786.5 289.179992676
574890.375 4178786.5 289.190002441
574891.75 4178786.5 289.279998779
574892.625 4178786.75 288.850006104
574893.0625 4178786.5 288.690002441
574899.5625 4178786.5 287.970001221
574900.5 4178786.5 287.660003662
574883.4375 4178787 290.350006104
574884.4375 4178787 290.029998779
574886.25 4178786.75 290.230010986
574888.5625 4178787 289.679992676
574889.875 4178787 289.269989014
574889.875 4178787 289.299987793
574890.25 4178787.25 289.160003662
574890.25 4178787.25 289.179992676
574891.6875 4178787.25 289.390014648
574891.6875 4178787.25 289.359985352
574892.9375 4178787 288.589996338
574895.625 4178786.75 288.399993896
574895.625 4178786.75 288.420013428
574899.4375 4178787 287.470001221
574900.4375 4178787 287.829986572
574900.4375 4178787 287.850006104
574900.75 4178786.75 287.470001221
574900.75 4178786.75 287.489990234
574881.5625 4178787.5 290.489990234
574883 4178787.25 290.390014648
574883 4178787.25 290.410003662
574884.8125 4178787.25 290.160003662
574891.25 4178787.25 289.320007324
574892.5625 4178787.25 288.809997559
574892.875 4178787.5 288.489990234
574892.875 4178787.5 288.470001221
574900.3125 4178787.5 287.369995117
574882.9375 4178787.75 290.040008545
574883.375 4178787.75 290.420013428
574883.375 4178787.75 290.440002441
574884.375 4178787.75 290.420013428
574889.8125 4178787.75 289.309997559
574890.25 4178787.75 289.480010986
574890.25 4178787.75 289.510009766
574891.1875 4178787.75 289.279998779
574891.1875 4178787.75 289.299987793
574891.5625 4178787.75 288.820007324
574891.5625 4178787.75 288.839996338
574892.5 4178788 288.690002441
574892.5 4178788 288.709991455
574895.5 4178788 288.059997559
574881.5 4178788 290.230010986
574881.5 4178788 290.25
574883.25 4178788.25 290.040008545
574883.25 4178788.25 290.049987793
574884.3125 4178788.25 290.25
574889.75 4178788.25 289.619995117
574890.125 4178788.25 289.410003662
574891.5 4178788.25 289.010009766
574891.5 4178788.25 289.029998779
574892.8125 4178788.25 288.390014648
574897.625 4178788.25 287.660003662
574884.25 4178788.75 289.970001221
574884.625 4178788.5 289.850006104
574884.625 4178788.5 289.820007324
574885.6875 4178788.5 290.010009766
574885.6875 4178788.5 290.040008545
574887 4178788.5 289.739990234
574892.4375 4178788.5 288.779998779
574892.75 4178788.75 288.220001221
574896.3125 4178788.75 288.029998779
574896.6875 4178788.5 287.850006104
574897.5625 4178788.75 287.679992676
574898.875 4178788.75 287.760009766
574898.875 4178788.75 287.730010986
574882.8125 4178789 290.350006104
574882.8125 4178789 290.329986572
574883.1875 4178788.75 290.100006104
574883.1875 4178788.75 290.130004883
574884.25 4178788.75 289.989990234
574884.5625 4178789 289.910003662
574884.5625 4178789 289.929992676
574886.875 4178789 289.130004883
574891.4375 4178789 289.290008545
574892.3125 4178789 288.799987793
574895.3125 4178789.25 288.260009766
574896.625 4178789 287.630004883
574897.9375 4178789 287.75
574897.9375 4178789 287.730010986
574899.3125 4178789 288.269989014
574899.3125 4178789 288.25
574884.1875 4178789.5 290.179992676
574884.1875 4178789.5 290.149993896
574884.5 4178789.5 289.540008545
574897.5 4178789.25 287.529998779
574898.8125 4178789.25 287.480010986
574898.8125 4178789.25 287.470001221
574899.1875 4178789.5 287.709991455
574886.8125 4178789.75 289.510009766
574892.25 4178789.5 288.510009766
574892.625 4178790 288.890014648
574896.5625 4178789.5 287.720001221
574896.5625 4178789.5 287.739990234
574897.4375 4178789.75 287.309997559
574897.4375 4178789.75 287.279998779
574897.875 4178789.5 287.730010986
574897.875 4178789.5 287.709991455
574884.125 4178790 290.369995117
574887.1875 4178790.25 289.959991455
574892.125 4178790 288.179992676
574896.5 4178790.25 287.920013428
574897.75 4178790.25 287.450012207
574892.5 4178790.5 288.619995117
574893.375 4178790.75 287.839996338
574893.8125 4178790.5 288.079986572
574893.8125 4178790.5 288.100006104
574897.3125 4178790.5 287.190002441
574897.3125 4178790.5 287.209991455
574897.6875 4178790.75 287.190002441
574898.625 4178790.5 287.359985352
574888.375 4178791 288.709991455
574891.0625 4178791 288.350006104
574892.4375 4178791 288.640014648
574893.375 4178790.75 287.859985352
574893.75 4178791 287.859985352
574894.6875 4178790.75 287.880004883
574898.5625 4178791 287.260009766
574887.9375 4178791.5 289.059997559
574892 4178791.25 288.059997559
574893.3125 4178791.25 287.880004883
574897.625 4178791.25 287.260009766
574888.3125 4178791.75 289
574892.375 4178791.75 288.679992676
574897.5625 4178791.75 287.239990234
574887.875 4178792 288.880004883
574888.25 4178792.25 288.709991455
574889.1875 4178792.25 288.709991455
574897.125 4178792 287.130004883
574896.125 4178792.5 287.100006104
574897.0625 4178792.75 287.320007324
574897.4375 4178792.5 286.959991455
574897.4375 4178792.5 286.989990234
574889.1875 4178793 289.549987793
574895.625 4178793 286.859985352
574896.875 4178793.75 286.839996338
