# .PCD v.7 - Point Cloud Data file format
VERSION .7
FIELDS x y z
SIZE 4 4 4
TYPE F F F
COUNT 1 1 1
WIDTH 1379
HEIGHT 1
VIEWPOINT 0 0 0 1 0 0 0
POINTS 1379
DATA ascii
574904.25 4178764.75 308.649993896
574905.1875 4178764.5 308.329986572
574905.1875 4178764.5 308.299987793
574903.875 4178764.75 308.609985352
574900.4375 4178765.25 310.890014648
574901.3125 4178765.25 309.940002441
574901.6875 4178765.25 310.399993896
574902.5625 4178765.5 309.630004883
574903.8125 4178765 308.029998779
574904.125 4178765 308.109985352
574905.0625 4178765.25 308.130004883
574905.4375 4178765 308.589996338
574900.25 4178765.75 310
574900.3125 4178765.75 310.019989014
574901.625 4178765.75 310.450012207
574902.875 4178765.5 309.140014648
574903.6875 4178765.5 307.279998779
574904 4178765.75 307.959991455
574905 4178765.75 307.899993896
574905.375 4178765.5 308.149993896
574899.75 4178766 308.540008545
574900 4178766 310.359985352
574901.25 4178766 310.470001221
574902.5 4178766 309.820007324
574902.8125 4178766.25 309.869995117
574905.3125 4178766.25 308.399993896
574900 4178766.5 307.820007324
574900.1875 4178766.25 309.739990234
574900.1875 4178766.25 309.709991455
574901.125 4178766.25 309.480010986
574902.375 4178766.5 308.970001221
574902.6875 4178766.5 308.489990234
574903.6875 4178766.25 308.209991455
574904 4178766.25 308.269989014
574904 4178766.25 308.290008545
574905 4178766.5 308.779998779
574905.125 4178766.5 307.220001221
574901.0625 4178766.75 309.019989014
574901.4375 4178766.75 309.600006104
574901.4375 4178766.75 309.579986572
574902.375 4178767 309.299987793
574903.5625 4178766.75 308.170013428
574903.875 4178766.75 308.170013428
574903.875 4178766.75 308.140014648
574904.9375 4178767 308.700012207
574902.125 4178767.25 307.160003662
574902.4375 4178767.5 306.970001221
574903.5 4178767.25 307.899993896
574903.5 4178767.25 307.910003662
574903.75 4178767.25 307.399993896
574900.8125 4178767.75 307.980010986
574902.0625 4178767.75 306.910003662
574902.0625 4178767.75 306.890014648
574898.5625 4178768 308.959991455
574899.625 4178768 309.359985352
574901.25 4178767.75 309
574901.25 4178767.75 308.970001221
574902.375 4178768.25 307.700012207
574902.375 4178768.25 307.720001221
574903.4375 4178768 308.220001221
574903.4375 4178768 308.239990234
574903.75 4178768 308.320007324
574904.75 4178768 308.079986572
574905.0625 4178768 308.309997559
574905.0625 4178768 308.320007324
574898.5 4178768.5 308.829986572
574899.5 4178768.25 308.420013428
574899.8125 4178768.25 308.670013428
574900.8125 4178768.5 308.75
574900.8125 4178768.5 308.760009766
574901.125 4178768.5 308.850006104
574901.1875 4178768.5 308.880004883
574902.0625 4178768.5 308.420013428
574902.0625 4178768.5 308.399993896
574902.25 4178768.5 307.010009766
574902.25 4178768.5 307.049987793
574903.375 4178768.5 308.579986572
574903.4375 4178768.5 308.600006104
574904.6875 4178768.5 308.359985352
574905 4178768.5 307.880004883
574898.1875 4178769 309.350006104
574899.4375 4178769 308.549987793
574900.75 4178769 308.440002441
574901 4178768.75 308.100006104
574901 4178768.75 308.130004883
574901.9375 4178769 307.320007324
574901.9375 4178769 307.299987793
574903.75 4178768.75 308.670013428
574903.75 4178768.75 308.690002441
574904.5625 4178769 307.679992676
574898 4178769.25 308.519989014
574898.4375 4178769.25 309.489990234
574899.8125 4178769 309.140014648
574900.875 4178769.25 307.179992676
574903.3125 4178769.25 308.649993896
574903.3125 4178769.25 308.670013428
574903.6875 4178769.25 308.809997559
574898.375 4178769.75 309.279998779
574899.375 4178769.5 309.209991455
574899.375 4178769.5 309.230010986
574899.6875 4178769.5 308.559997559
574901.9375 4178769.75 308.760009766
574902 4178769.75 308.799987793
574902.0625 4178769.5 306.040008545
574902.0625 4178769.5 306.079986572
574902.3125 4178769.5 308.809997559
574902.3125 4178769.5 308.829986572
574903 4178769.75 305.959991455
574903 4178769.75 305.940002441
574903.25 4178769.75 308.799987793
574903.25 4178769.75 308.820007324
574898 4178770 309.239990234
574899.25 4178769.75 307.630004883
574900.5 4178770 307.790008545
574900.875 4178769.75 307.779998779
574901.8125 4178770 307.450012207
574901.8125 4178770 307.470001221
574903.5625 4178769.75 308.579986572
574903.5625 4178769.75 308.600006104
574900.8125 4178770.5 307.609985352
574901.125 4178770.5 300.950012207
574901.125 4178770.5 300.980010986
574902.0625 4178770.25 306.75
574902.0625 4178770.25 306.760009766
574903.5 4178770.5 308.440002441
574899 4178770.75 302.839996338
574901.75 4178770.75 307.630004883
574901.75 4178770.75 307.649993896
574902 4178771 307.540008545
574902 4178771 307.529998779
574903.0625 4178770.75 307.690002441
574903.0625 4178770.75 307.720001221
574904.75 4178770.75 308.670013428
574907.9375 4178771 305.160003662
574898.625 4178771.25 303.209991455
574898.9375 4178771.25 303.019989014
574899.875 4178771.25 302.609985352
574901.6875 4178771.25 307.529998779
574901.6875 4178771.25 307.5
574903.0625 4178771.25 308.480010986
574903.0625 4178771.25 308.5
574903.4375 4178771 308.570007324
574903.4375 4178771 308.559997559
574898.5 4178771.5 302.190002441
574898.5 4178771.5 302.200012207
574898.8125 4178771.75 302.040008545
574898.8125 4178771.75 302.019989014
574899.8125 4178771.75 302.399993896
574900.125 4178771.75 302.140014648
574901.3125 4178771.5 300.559997559
574901.3125 4178771.5 300.589996338
574901.875 4178771.5 306.799987793
574902.8125 4178771.5 302.640014648
574902.8125 4178771.5 302.660003662
574903.5 4178771.5 299.790008545
574903.8125 4178771.5 299.390014648
574904.375 4178771.5 309.010009766
574904.6875 4178771.5 308.559997559
574907.1875 4178771.75 307.950012207
574907.875 4178771.5 305.429992676
574908.1875 4178771.75 305.070007324
574898.375 4178772.25 301.929992676
574902.5 4178772 303.480010986
574902.5 4178772 303.510009766
574903.0625 4178772 309.390014648
574903.0625 4178772 309.369995117
574903.5 4178772 310.170013428
574903.5 4178772 310.140014648
574904.3125 4178772 309.450012207
574904.3125 4178772 309.429992676
574904.625 4178772 309.260009766
574906.8125 4178772 307.709991455
574907.8125 4178772 305.269989014
574909.125 4178772 305.640014648
574909.4375 4178771.75 305.700012207
574898.6875 4178772.25 301.839996338
574899.75 4178772.25 302.570007324
574900.0625 4178772.25 302.299987793
574900.0625 4178772.25 302.320007324
574901 4178772.5 302.339996338
574901 4178772.5 302.369995117
574902.8125 4178772.5 303.709991455
574902.8125 4178772.5 303.679992676
574903.3125 4178772.25 309.320007324
574903.875 4178772.25 301.299987793
574905.375 4178772.25 306.820007324
574907.125 4178772.25 308.579986572
574898.3125 4178772.75 301.579986572
574898.625 4178772.75 301.579986572
574898.625 4178772.75 301.600006104
574899.625 4178772.75 301.690002441
574899.9375 4178772.75 301.429992676
574901.5 4178772.5 303.829986572
574902.4375 4178772.75 303.570007324
574903 4178772.75 309.470001221
574904.3125 4178772.75 310.019989014
574904.3125 4178772.75 310
574904.625 4178772.75 309.829986572
574905.75 4178773 308.119995117
574906.75 4178772.5 308.170013428
574907 4178772.75 307.760009766
574908.25 4178772.5 307.079986572
574909.125 4178772.75 306.600006104
574909.5 4178772.75 307.170013428
574898.1875 4178773.25 301.209991455
574898.5 4178773.25 300.880004883
574905.4375 4178773.25 308.690002441
574906.6875 4178773 308
574907.8125 4178773 306.709991455
574908.125 4178773 306.059997559
574909.0625 4178773.25 306.399993896
574909.375 4178773.25 306.359985352
574901.1875 4178773.75 305.910003662
574901.1875 4178773.75 305.920013428
574901.5 4178773.5 305.470001221
574901.5 4178773.5 305.5
574901.8125 4178773.5 308.670013428
574902.8125 4178773.75 308.959991455
574905.3125 4178773.75 308.390014648
574905.3125 4178773.75 308.369995117
574905.6875 4178773.5 308.109985352
574907.0625 4178773.75 309.279998779
574909.25 4178773.5 305.690002441
574894.625 4178774 307.290008545
574898.4375 4178773.75 301.059997559
574900.375 4178773.75 307.260009766
574903.1875 4178774 309.779998779
574903.1875 4178774 309.769989014
574904.125 4178773.75 309.390014648
574904.125 4178773.75 309.410003662
574904.375 4178773.75 308.760009766
574906.6875 4178773.75 309.109985352
574906.875 4178774 308
574906.875 4178774 308.029998779
574907.9375 4178774 308.859985352
574893.75 4178774.5 309.619995117
574900 4178774.5 307.880004883
574900 4178774.5 307.899993896
574900.3125 4178774.5 307.880004883
574900.3125 4178774.5 307.899993896
574902.8125 4178774.5 310.100006104
574902.8125 4178774.5 310.130004883
574903 4178774.5 308.829986572
574903 4178774.5 308.859985352
574904.0625 4178774.5 309.589996338
574904.0625 4178774.5 309.579986572
574904.3125 4178774.5 308.970001221
574904.375 4178774.5 308.989990234
574905.25 4178774.25 308.589996338
574905.25 4178774.25 308.579986572
574906.625 4178774.5 309.559997559
574906.625 4178774.5 309.589996338
574908.25 4178774.25 309.549987793
574908.25 4178774.25 309.529998779
574893.375 4178774.75 309.619995117
574894.625 4178774.5 307.799987793
574894.625 4178774.5 307.779998779
574894.9375 4178774.75 307.459991455
574894.9375 4178774.75 307.489990234
574901.3125 4178774.75 308.440002441
574901.3125 4178774.75 308.459991455
574901.6875 4178774.5 308.440002441
574901.6875 4178774.75 308.450012207
574902.625 4178774.75 308.890014648
574902.6875 4178774.75 308.929992676
574905.25 4178774.75 308.940002441
574905.25 4178775 308.970001221
574906.9375 4178774.75 309.5
574906.9375 4178774.75 309.489990234
574907.875 4178774.5 309.320007324
574908.1875 4178774.75 309.209991455
574893.3125 4178775.25 309.399993896
574893.3125 4178775.25 309.429992676
574893.6875 4178775 309.679992676
574895.75 4178775 306.200012207
574896.125 4178775 306.489990234
574896.875 4178775.25 304.339996338
574899.9375 4178775 308.029998779
574900.3125 4178775.25 308.540008545
574902.9375 4178775 308.929992676
574902.9375 4178775 308.920013428
574904 4178775 309.519989014
574904 4178775 309.549987793
574904.3125 4178775 309.549987793
574904.3125 4178775 309.570007324
574906.5625 4178775 309.170013428
574906.75 4178775.25 308.559997559
574907.75 4178775 308.570007324
574891.8125 4178775.5 308.850006104
574892.1875 4178775.5 308.760009766
574893.625 4178775.75 309.630004883
574893.625 4178775.75 309.609985352
574894.625 4178775.25 308.75
574894.625 4178775.25 308.730010986
574894.9375 4178775.5 308.959991455
574894.9375 4178775.5 308.980010986
574895.625 4178775.25 305.130004883
574896 4178775.5 305.850006104
574898.8125 4178775.5 306.940002441
574899.875 4178775.75 308.290008545
574899.875 4178775.75 308.269989014
574901.375 4178775.5 310.140014648
574901.375 4178775.5 310.160003662
574901.6875 4178775.5 310.029998779
574901.6875 4178775.5 310.019989014
574902.625 4178775.5 309.220001221
574902.625 4178775.5 309.190002441
574902.8125 4178775.5 308.190002441
574902.8125 4178775.5 308.220001221
574903.875 4178775.5 308.929992676
574904.25 4178775.75 309.489990234
574904.25 4178775.75 309.480010986
574905.1875 4178775.5 309.239990234
574905.1875 4178775.5 309.230010986
574906.4375 4178775.5 309.019989014
574907.625 4178775.5 307.829986572
574908.125 4178775.25 309.320007324
574908.125 4178775.25 309.299987793
574892.125 4178776 308.540008545
574893.25 4178775.75 309.339996338
574893.25 4178775.75 309.350006104
574894.625 4178776 309.739990234
574894.625 4178776 309.720001221
574894.875 4178776 308.769989014
574894.875 4178776 308.790008545
574895.625 4178776 305.869995117
574895.9375 4178776 305.420013428
574896.8125 4178776 304.459991455
574896.8125 4178776 304.429992676
574897.1875 4178775.75 304.679992676
574898.625 4178776 305.790008545
574899.625 4178776 306.380004883
574899.625 4178776 306.399993896
574900.25 4178776 309.299987793
574900.25 4178776 309.279998779
574901.625 4178776 310.059997559
574901.625 4178776 310.100006104
574902.5625 4178776 309.730010986
574902.5625 4178776 309.700012207
574903.8125 4178776 309.200012207
574903.8125 4178776 309.209991455
574905.125 4178776 309.130004883
574906.375 4178776 309
574906.75 4178775.75 308.859985352
574908 4178775.75 308.459991455
574892 4178776.5 308.140014648
574893.1875 4178776.5 309.880004883
574893.1875 4178776.5 309.899993896
574893.5625 4178776.25 309.839996338
574893.5625 4178776.25 309.820007324
574896.75 4178776.5 304.279998779
574897 4178776.25 303.510009766
574898.25 4178776.25 306.220001221
574899.5625 4178776.5 306.109985352
574899.75 4178776.25 304.410003662
574900.125 4178776.25 307.769989014
574900.125 4178776.25 307.790008545
574901.3125 4178776.25 310.260009766
574901.3125 4178776.25 310.25
574902.875 4178776.5 309.739990234
574902.875 4178776.5 309.769989014
574903.75 4178776.5 308.880004883
574904.1875 4178776.25 309.5
574904.1875 4178776.25 309.529998779
574905 4178776.5 308.700012207
574905 4178776.5 308.709991455
574905.3125 4178776.5 308.299987793
574907.375 4178776.25 306.209991455
574892.75 4178776.75 305.540008545
574893.5625 4178777 310.190002441
574893.5625 4178777 310.160003662
574894.5 4178776.75 305.570007324
574894.5 4178776.75 305.559997559
574894.5 4178776.5 309.269989014
574894.5 4178776.5 309.25
574894.75 4178776.5 308.510009766
574894.75 4178776.5 308.529998779
574895.5 4178776.75 305.809997559
574895.8125 4178776.5 305.239990234
574896.625 4178777 303.709991455
574897 4178776.75 303.850006104
574898.625 4178776.75 306.760009766
574901.25 4178776.75 310.839996338
574901.25 4178776.75 310.820007324
574901.5625 4178776.75 309.980010986
574901.5625 4178776.75 310
574902.5 4178776.75 309.820007324
574902.5 4178776.75 309.839996338
574904.0625 4178776.75 309.140014648
574904.0625 4178776.75 309.160003662
574891.625 4178777.25 308.720001221
574892 4178777.25 309.170013428
574893.125 4178777 309.950012207
574893.125 4178777 309.920013428
574893.4375 4178777.25 309.309997559
574893.4375 4178777.25 309.290008545
574894.125 4178777 305.859985352
574894.125 4178777 305.869995117
574894.375 4178777 308.380004883
574894.375 4178777 308.390014648
574894.4375 4178777.25 305.619995117
574894.4375 4178777.25 305.589996338
574895.4375 4178777 305.299987793
574895.4375 4178777 305.279998779
574895.75 4178777 304.779998779
574898.25 4178777 306.600006104
574898.5625 4178777.25 306.670013428
574899.5 4178777 305.980010986
574899.8125 4178777 306.079986572
574900.125 4178777.25 309.589996338
574901.125 4178777.25 310.140014648
574901.125 4178777.25 310.109985352
574901.4375 4178777 309.25
574902.375 4178777 308.940002441
574902.75 4178777 309.450012207
574902.75 4178777 309.470001221
574903.75 4178777.25 309.890014648
574903.75 4178777.25 309.839996338
574904.9375 4178777 308.779998779
574905 4178777.25 306.029998779
574905.25 4178777 308.25
574891.1875 4178777.5 304.890014648
574891.5 4178777.75 308.279998779
574891.5 4178777.75 308.309997559
574894 4178777.5 305.239990234
574894 4178777.5 305.269989014
574898.1875 4178777.5 306.970001221
574898.1875 4178777.5 307
574899.375 4178777.5 305.429992676
574899.75 4178777.5 305.859985352
574901.375 4178777.75 309.649993896
574902.75 4178777.5 309.920013428
574902.75 4178777.5 309.940002441
574904.0625 4178777.5 310.410003662
574904.0625 4178777.5 310.440002441
574904.875 4178777.75 309.010009766
574904.875 4178777.75 309.040008545
574888.75 4178778 308.429992676
574889.0625 4178777.75 307.940002441
574891.9375 4178777.75 309.119995117
574891.9375 4178777.75 309.109985352
574892.8125 4178777.75 307.720001221
574893.125 4178778 307.350006104
574893.25 4178777.75 308.579986572
574893.3125 4178777.75 308.600006104
574893.8125 4178777.75 303.700012207
574894.375 4178777.75 305.640014648
574895.8125 4178778 307.269989014
574895.8125 4178778 307.299987793
574896.75 4178778 306.399993896
574896.75 4178778 306.410003662
574897.0625 4178777.75 305.869995117
574898.0625 4178778 306.279998779
574898.5 4178777.75 306.470001221
574901.0625 4178777.75 309.730010986
574901.0625 4178777.75 309.75
574902.375 4178777.75 310.019989014
574902.375 4178777.75 310.049987793
574903.625 4178777.75 309.570007324
574903.625 4178777.75 309.549987793
574904 4178778 309.980010986
574904 4178778 310
574905.0625 4178778 307.579986572
574905.875 4178777.75 306.079986572
574889.0625 4178778.25 308.109985352
574890.0625 4178778 308.140014648
574891.1875 4178778.25 305.269989014
574891.1875 4178778.25 305.290008545
574891.75 4178778 307.570007324
574891.75 4178778 307.540008545
574892.6875 4178778.25 306.489990234
574893.125 4178778 307.369995117
574894.5625 4178778.25 308.399993896
574895.625 4178778.25 308.899993896
574896.625 4178778.5 305.670013428
574896.625 4178778.5 305.700012207
574896.6875 4178778.25 302.799987793
574898 4178778.25 302.220001221
574898.375 4178778.25 306.5
574899.5 4178778.5 307.779998779
574900.75 4178778.5 307.170013428
574900.75 4178778.5 307.179992676
574900.9375 4178778.25 309.450012207
574900.9375 4178778.25 309.480010986
574901.0625 4178778.5 307.279998779
574901.375 4178778.5 310.200012207
574902.375 4178778.5 310.489990234
574902.375 4178778.5 310.470001221
574902.6875 4178778.25 310.429992676
574902.6875 4178778.25 310.410003662
574903.5 4178778.25 308.589996338
574903.5 4178778.25 308.609985352
574903.8125 4178778.5 308.670013428
574903.8125 4178778.5 308.679992676
574904.875 4178778.5 309.720001221
574904.875 4178778.5 309.75
574888.625 4178778.5 308.059997559
574890 4178778.75 307.829986572
574890 4178778.75 307.850006104
574890.3125 4178779 308.059997559
574890.3125 4178779 308.079986572
574891.6875 4178778.75 307.470001221
574892.625 4178778.75 306.549987793
574892.625 4178778.75 306.570007324
574893 4178778.5 306.540008545
574893 4178778.5 306.510009766
574894.375 4178778.5 306.600006104
574894.375 4178778.5 306.619995117
574895.4375 4178778.75 307.779998779
574895.4375 4178778.75 307.799987793
574895.8125 4178778.75 308.089996338
574895.8125 4178778.75 308.059997559
574897.125 4178778.75 308.100006104
574898 4178778.75 306.720001221
574898.75 4178779 300.959991455
574899.8125 4178778.5 308.119995117
574899.8125 4178778.5 308.109985352
574902.5625 4178778.75 309.630004883
574902.5625 4178778.75 309.609985352
574903.4375 4178778.75 308.720001221
574904.6875 4178778.75 308.130004883
574904.9375 4178778.5 307.160003662
574905.9375 4178778.75 307.690002441
574905.9375 4178778.75 307.700012207
574889.9375 4178779.25 308.179992676
574889.9375 4178779.25 308.190002441
574891.25 4178779.25 307.040008545
574891.25 4178779.25 307.059997559
574891.625 4178779.25 307.679992676
574891.625 4178779.25 307.660003662
574892.9375 4178779.25 306.829986572
574892.9375 4178779.25 306.809997559
574894 4178779 306.760009766
574894 4178779 306.779998779
574895.375 4178779.25 307.839996338
574895.375 4178779.25 307.869995117
574896.3125 4178779 303.299987793
574896.625 4178779 302.920013428
574896.6875 4178779.25 307.350006104
574896.6875 4178779.25 307.369995117
574897.5625 4178779 302.380004883
574897.875 4178779 305.790008545
574899.0625 4178779 300.559997559
574899.4375 4178779 308.480010986
574899.4375 4178779.25 308.5
574899.8125 4178779.25 308.579986572
574899.875 4178779.25 299.079986572
574900.75 4178779.25 308.619995117
574900.75 4178779.25 308.640014648
574901.0625 4178779 307.850006104
574902.25 4178779 310.5
574902.25 4178779 310.540008545
574902.5 4178779.25 309.119995117
574902.5 4178779.25 309.100006104
574903.375 4178779.25 308.609985352
574903.375 4178779.25 308.579986572
574903.75 4178779 308.790008545
574903.75 4178779 308.769989014
574904.625 4178779.25 308.399993896
574905.875 4178779.25 307.399993896
574905.875 4178779.25 307.369995117
574890.3125 4178779.5 308.359985352
574890.3125 4178779.5 308.380004883
574892.5625 4178779.5 307.200012207
574892.5625 4178779.5 307.220001221
574894.4375 4178779.5 308.480010986
574894.4375 4178779.5 308.510009766
574895.75 4178779.25 307.899993896
574895.75 4178779.25 307.899993896
574896.25 4178779.75 303.320007324
574896.5625 4178779.5 302.820007324
574896.875 4178779.5 306.149993896
574898.1875 4178779.5 305.690002441
574899.625 4178779.75 307.529998779
574900.625 4178779.5 304.010009766
574902.125 4178779.5 309.339996338
574902.125 4178779.5 309.339996338
574903.6875 4178779.5 308.649993896
574889.8125 4178779.75 307.609985352
574890.125 4178779.75 307.029998779
574891.3125 4178780 308.950012207
574891.3125 4178780 308.980010986
574893 4178780 308.390014648
574893 4178780 308.380004883
574893.8125 4178780 306.730010986
574894 4178779.75 308.059997559
574894 4178779.75 308.029998779
574894.3125 4178780 307.899993896
574894.3125 4178780 307.910003662
574895.125 4178780 306.010009766
574895.3125 4178779.75 308.089996338
574895.3125 4178780 308.119995117
574895.625 4178779.75 307.190002441
574896.625 4178779.75 307.410003662
574897.3125 4178780 301.220001221
574897.875 4178779.75 306.540008545
574898.1875 4178780 306.410003662
574898.5625 4178779.75 299.869995117
574898.875 4178780 299.529998779
574899.375 4178779.75 308.779998779
574900.125 4178779.75 298.640014648
574900.6875 4178779.75 308.450012207
574900.6875 4178779.75 308.480010986
574901 4178779.75 308.290008545
574902 4178780 309.070007324
574902.1875 4178780 307.089996338
574902.375 4178779.75 309.070007324
574902.375 4178779.75 309.109985352
574903.0625 4178780 306.630004883
574903.0625 4178780 306.660003662
574903.3125 4178779.75 308.600006104
574903.3125 4178779.75 308.570007324
574904.5 4178779.75 307.920013428
574904.5 4178779.75 307.950012207
574891.6875 4178780.25 309.579986572
574891.6875 4178780.25 309.559997559
574892.625 4178780.25 308.809997559
574892.625 4178780.25 308.829986572
574896.1875 4178780.25 303.559997559
574897.75 4178780.25 306.230010986
574897.75 4178780.25 306.239990234
574898 4178780.5 305.230010986
574899.3125 4178780.25 308.149993896
574899.6875 4178780.5 308.630004883
574900.5625 4178780.25 308.230010986
574900.9375 4178780.25 308.350006104
574901.5625 4178780.25 304.839996338
574901.875 4178780.25 308.119995117
574902 4178780.25 305.269989014
574903.4375 4178780.5 307.309997559
574903.625 4178780.25 308.679992676
574903.625 4178780.25 308.700012207
574904.5 4178780.25 308.260009766
574881.25 4178780.75 308.480010986
574881.625 4178780.5 308.049987793
574885.5625 4178780.75 308.059997559
574889.875 4178780.75 305.959991455
574891.25 4178780.75 309.829986572
574891.3125 4178780.75 309.859985352
574891.6875 4178780.75 310.079986572
574891.6875 4178780.75 310.049987793
574892.9375 4178780.75 308.989990234
574892.9375 4178780.75 309.010009766
574893.75 4178780.5 306.190002441
574897.6875 4178780.75 305.959991455
574899.1875 4178780.75 308.109985352
574899.1875 4178780.75 308.070007324
574900.5 4178780.75 307.559997559
574900.8125 4178780.75 307.5
574901.375 4178780.5 303.070007324
574903.0625 4178780.75 307.609985352
574903.25 4178780.75 305.489990234
574904.25 4178780.5 306.440002441
574881.625 4178781.25 308.309997559
574884.6875 4178781.25 310.440002441
574885.9375 4178781 308.070007324
574889.75 4178781.25 305.239990234
574892.625 4178781 309.399993896
574892.625 4178781 309.420013428
574898 4178781 305.540008545
574899.125 4178781.25 307.709991455
574899.5625 4178781 308.290008545
574899.5625 4178781 308.309997559
574900.0625 4178781.25 303.940002441
574904.1875 4178781.25 306.200012207
574881.1875 4178781.25 308.450012207
574885.5 4178781.25 308.399993896
574885.875 4178781.75 308.730010986
574889.375 4178781.5 305.649993896
574890.9375 4178781.5 306.880004883
574890.9375 4178781.5 306.899993896
574891.1875 4178781.25 309.5
574891.1875 4178781.25 309.459991455
574891.5625 4178781.5 309.799987793
574891.5625 4178781.5 309.779998779
574892.5 4178781.5 308.929992676
574892.5 4178781.5 308.959991455
574892.6875 4178781.5 307.329986572
574892.6875 4178781.5 307.350006104
574892.875 4178781.25 309.100006104
574892.875 4178781.25 309.130004883
574896.4375 4178781.5 304.290008545
574897.625 4178781.5 306.450012207
574898.625 4178781.5 302.660003662
574898.875 4178781.5 301.429992676
574899.5 4178781.5 308.140014648
574900.4375 4178781.25 307.779998779
574900.8125 4178781.5 308.450012207
574901.9375 4178781.5 306.679992676
574903 4178781.25 307.429992676
574903 4178781.25 307.399993896
574903.1875 4178781.25 305.880004883
574881.125 4178782 308.769989014
574881.5 4178781.75 307.799987793
574882.9375 4178781.75 307.589996338
574884.1875 4178781.75 310.230010986
574884.5625 4178781.75 309.980010986
574885.5 4178782 309.570007324
574885.75 4178782 307.579986572
574886.9375 4178781.75 309.049987793
574887.3125 4178782 309.190002441
574888.375 4178782 305.510009766
574891.375 4178781.75 308.390014648
574891.375 4178781.75 308.350006104
574892.375 4178781.75 308.230010986
574892.375 4178781.75 308.25
574898 4178782 306.890014648
574898.4375 4178781.75 301.320007324
574898.6875 4178781.75 300.119995117
574899.375 4178781.75 297.309997559
574900.375 4178782 308.359985352
574901.375 4178781.75 300.920013428
574902.3125 4178781.75 300.709991455
574902.75 4178781.75 301.350006104
574902.9375 4178782 307.640014648
574903.0625 4178781.75 305.390014648
574903.625 4178782 301.760009766
574881.4375 4178782.25 308.019989014
574882.5 4178782 307.579986572
574882.875 4178782.5 308.339996338
574884.0625 4178782.25 309.630004883
574884.4375 4178782.25 309.510009766
574886.8125 4178782.25 308.529998779
574889.875 4178782.25 307.549987793
574889.875 4178782.25 307.519989014
574890.9375 4178782.25 308.130004883
574890.9375 4178782.25 308.160003662
574891.3125 4178782.25 308.190002441
574891.3125 4178782.25 308.209991455
574892.25 4178782.25 307.220001221
574892.25 4178782.25 307.239990234
574896.125 4178782.25 305.109985352
574897.875 4178782.25 306.339996338
574898.3125 4178782.25 300.470001221
574898.3125 4178782.25 300.440002441
574899.4375 4178782 308.190002441
574900.5 4178782.25 305.899993896
574900.5 4178782.25 305.910003662
574900.75 4178782.25 308.489990234
574900.75 4178782.25 308.529998779
574901.75 4178782 308.619995117
574901.75 4178782 308.649993896
574882.4375 4178782.75 308
574885.4375 4178782.5 309.510009766
574886.5625 4178782.5 306.339996338
574887.25 4178782.5 309.049987793
574887.875 4178782.5 305.459991455
574888.375 4178782.75 306.670013428
574889.4375 4178782.5 307.380004883
574889.4375 4178782.5 307.410003662
574889.75 4178782.75 306.799987793
574889.75 4178782.75 306.779998779
574890.875 4178782.75 308.470001221
574890.9375 4178782.75 308.489990234
574892.125 4178782.75 306.910003662
574892.125 4178782.75 306.950012207
574892.5 4178782.5 306.640014648
574896.375 4178782.75 305.059997559
574897.4375 4178782.75 302.160003662
574898.25 4178782.75 300.850006104
574898.375 4178782.5 298.130004883
574899.3125 4178782.75 308.190002441
574899.375 4178782.5 298.450012207
574899.75 4178782.5 302.239990234
574900.3125 4178782.5 304.369995117
574900.375 4178782.75 309.049987793
574900.375 4178782.75 309.089996338
574901.3125 4178782.5 305.220001221
574901.6875 4178782.75 308.839996338
574902 4178782.5 308.260009766
574902.875 4178782.5 308.109985352
574880.6875 4178783 305.429992676
574882.3125 4178783 307.079986572
574882.75 4178783 307.660003662
574883.875 4178783.25 308.320007324
574885.875 4178783 310.640014648
574886.8125 4178783 309.079986572
574887.125 4178783 308.760009766
574889.375 4178783 307.529998779
574889.375 4178783 307.570007324
574891.25 4178783 308.630004883
574891.25 4178783 308.649993896
574896.0625 4178782.75 305.279998779
574897.0625 4178783 302.600006104
574897.625 4178783 308.239990234
574897.625 4178783 308.269989014
574897.8125 4178783 306.130004883
574897.8125 4178783 306.160003662
574899.3125 4178783 298.429992676
574899.625 4178783.25 302.119995117
574899.625 4178783.25 298.350006104
574900.25 4178783.25 308.720001221
574900.25 4178783.25 308.730010986
574901.5625 4178783.25 308.179992676
574902.5 4178783 304.420013428
574902.75 4178783 307.470001221
574903.0625 4178783.25 306.700012207
574903.0625 4178783.25 306.730010986
574903.1875 4178782.75 307.910003662
574880.5625 4178783.5 305.239990234
574881 4178783.5 304.950012207
574883.5625 4178783.25 305.779998779
574885.5 4178783.5 310.959991455
574886.6875 4178783.5 308.470001221
574887.875 4178783.25 305.880004883
574888.375 4178783.5 307.470001221
574890.8125 4178783.25 308.350006104
574890.8125 4178783.25 308.329986572
574891.1875 4178783.5 308.369995117
574891.1875 4178783.5 308.350006104
574897.5625 4178783.5 308.079986572
574897.5625 4178783.5 308.100006104
574898.6875 4178783.25 302.429992676
574900 4178783.25 302.279998779
574900.625 4178783.25 308.619995117
574901.0625 4178783.5 303.200012207
574901.3125 4178783.25 306.279998779
574901.3125 4178783.25 306.320007324
574901.8125 4178783.5 308.109985352
574901.8125 4178783.5 308.130004883
574902.5625 4178783.5 301.850006104
574902.875 4178783.5 305.5
574902.875 4178783.5 305.519989014
574882.25 4178783.75 307.239990234
574882.875 4178783.75 309.75
574883.5625 4178784 306.299987793
574884.8125 4178784 304.859985352
574885.4375 4178784 310.989990234
574885.4375 4178784 311.010009766
574885.5625 4178783.75 308.130004883
574885.8125 4178783.75 310.869995117
574885.8125 4178783.75 310.839996338
574887.1875 4178783.75 310.25
574888.25 4178784 307.279998779
574889.375 4178783.75 308.5
574889.375 4178783.75 308.480010986
574889.8125 4178783.75 308.970001221
574889.875 4178783.75 309
574890.75 4178783.75 308.040008545
574890.75 4178783.75 308.010009766
574896.5 4178784 308.350006104
574896.5625 4178784 308.380004883
574897.5 4178784 308.239990234
574897.875 4178783.75 308.209991455
574898 4178783.75 299.019989014
574898.375 4178784 299.570007324
574899.375 4178784 299.980010986
574880.5 4178784.25 305.119995117
574881 4178784.25 305.589996338
574883.9375 4178784.25 310.690002441
574884.3125 4178784.25 310.480010986
574885.75 4178784.25 311.010009766
574887.0625 4178784.25 309.380004883
574887.625 4178784.25 304.519989014
574887.875 4178784 307.549987793
574889.3125 4178784.25 308.070007324
574889.75 4178784 308.299987793
574889.75 4178784 308.290008545
574890.625 4178784.5 307.920013428
574899.6875 4178784 300.029998779
574900.4375 4178784.25 307.809997559
574901.375 4178784.25 307.579986572
574901.75 4178784 307.630004883
574901.75 4178784 307.619995117
574902.5 4178784.25 302.040008545
574902.6875 4178784.25 307.760009766
574902.6875 4178784.25 307.760009766
574880.4375 4178784.75 304.839996338
574880.8125 4178784.5 304.600006104
574881.9375 4178784.5 304.950012207
574882.3125 4178784.75 309.359985352
574882.875 4178784.5 310.890014648
574883.875 4178784.75 310.920013428
574884.25 4178784.75 310.320007324
574885.25 4178784.75 306.089996338
574885.3125 4178784.5 310.5
574886.1875 4178784.5 304.649993896
574886.5625 4178784.5 304.679992676
574886.8125 4178784.5 311.200012207
574889.625 4178784.75 308.109985352
574894.8125 4178784.5 308.600006104
574895.125 4178784.5 307.880004883
574895.125 4178784.5 307.899993896
574897.3125 4178784.75 303.010009766
574897.5 4178784.75 309.339996338
574897.5 4178784.75 309.329986572
574897.875 4178784.5 308.779998779
574897.875 4178784.5 308.799987793
574898.6875 4178784.5 307.309997559
574898.9375 4178784.5 306.260009766
574899.3125 4178784.5 300.470001221
574899.9375 4178784.75 307.350006104
574900.3125 4178784.75 307.279998779
574901.3125 4178784.75 308.140014648
574901.3125 4178784.75 308.160003662
574901.5625 4178784.5 306.200012207
574901.5625 4178784.5 306.220001221
574880.3125 4178785.25 304.329986572
574882.8125 4178785.25 310.959991455
574882.8125 4178785.25 310.929992676
574884.125 4178785.25 309.970001221
574885.3125 4178785.25 311.089996338
574885.75 4178785 311.190002441
574885.75 4178785 311.170013428
574886.0625 4178785 304.269989014
574886.5 4178785.25 304.679992676
574886.75 4178785 311.239990234
574887 4178785 310.260009766
574889.25 4178785 308.420013428
574889.25 4178785 308.399993896
574890.5 4178784.75 307.279998779
574890.5 4178784.75 307.269989014
574894.75 4178785 308.570007324
574895.0625 4178785 308.059997559
574895.0625 4178785 308.079986572
574896.25 4178784.75 310.089996338
574896.25 4178784.75 310.109985352
574896.625 4178784.75 310.220001221
574896.625 4178784.75 310.230010986
574898.5 4178785 305.989990234
574898.8125 4178785.25 305.899993896
574899.75 4178785 305.730010986
574900.125 4178785.25 306.130004883
574900.875 4178785.25 303.959991455
574901.1875 4178785.25 306.769989014
574901.1875 4178785.25 306.790008545
574901.5 4178785 306.75
574901.5 4178785 306.730010986
574883 4178785.5 302.890014648
574883.625 4178785.5 305.190002441
574883.625 4178785.5 305.170013428
574883.875 4178785.25 311.269989014
574885.625 4178785.5 311.220001221
574886.8125 4178785.25 308.600006104
574887.9375 4178785.5 305.450012207
574889.1875 4178785.5 308.600006104
574889.625 4178785.25 308.540008545
574890.5 4178785.5 308.049987793
574893.75 4178785.25 309.119995117
574894.6875 4178785.5 308.440002441
574894.6875 4178785.5 308.459991455
574895.875 4178785.5 307.079986572
574896.1875 4178785.5 310.049987793
574896.1875 4178785.5 310.040008545
574896.5625 4178785.5 310.519989014
574896.5625 4178785.5 310.489990234
574897.5 4178785.5 310
574897.5 4178785.5 309.989990234
574897.875 4178785.25 309.649993896
574897.875 4178785.25 309.619995117
574899.6875 4178785.5 305.799987793
574901.25 4178785.25 304.200012207
574880.6875 4178786 308.850006104
574881 4178785.75 307.700012207
574883.5 4178786 304.359985352
574883.75 4178785.75 311.059997559
574885.1875 4178785.75 310.760009766
574885.1875 4178785.75 310.799987793
574886.375 4178785.75 308.459991455
574886.75 4178785.75 308.359985352
574887.875 4178786 305.579986572
574889.5625 4178786 308.640014648
574891 4178786 309.350006104
574893.625 4178785.75 308.059997559
574894.9375 4178785.75 307.790008545
574896.4375 4178786 309.839996338
574896.4375 4178786 309.869995117
574897.75 4178785.75 309.170013428
574898.625 4178786 308.459991455
574898.625 4178786 308.480010986
574900.1875 4178786 307.350006104
574900.1875 4178786 307.329986572
574900.875 4178786 304.869995117
574901.1875 4178785.75 304.359985352
574880.625 4178786.25 304.839996338
574882 4178786.25 304.350006104
574882.5625 4178786.25 309.730010986
574885.0625 4178786.5 306.230010986
574885.125 4178786.25 311
574885.125 4178786.25 311.019989014
574885.5625 4178786 311.089996338
574885.5625 4178786 311.130004883
574887.8125 4178786 309.269989014
574888.875 4178786.25 306.269989014
574889.125 4178786.25 308.779998779
574889.125 4178786.25 308.820007324
574889.375 4178786.25 307.600006104
574890.4375 4178786 307.950012207
574892 4178786.25 310.089996338
574892.375 4178786 309.75
574893.3125 4178786 308.989990234
574893.5625 4178786.5 308.480010986
574893.5625 4178786.5 308.450012207
574894.625 4178786.25 304.869995117
574894.625 4178786.25 304.850006104
574894.625 4178786.25 308.760009766
574894.625 4178786.25 308.730010986
574894.9375 4178786.25 308.070007324
574894.9375 4178786.25 308.079986572
574895.9375 4178786.25 308.519989014
574895.9375 4178786.25 308.540008545
574897.4375 4178786.25 310.529998779
574897.6875 4178786.25 309.320007324
574897.6875 4178786.5 309.339996338
574898.5 4178786.25 307.950012207
574898.5 4178786.25 307.940002441
574898.875 4178786 307.910003662
574898.875 4178786 307.929992676
574901.0625 4178786.25 303.529998779
574880.6875 4178786.75 309.739990234
574881 4178786.5 308.709991455
574881.5625 4178786.5 303.850006104
574882.1875 4178786.5 309.950012207
574882.5 4178786.75 309.549987793
574883.1875 4178786.75 306.220001221
574884.9375 4178786.5 308.869995117
574885.5 4178786.75 311.149993896
574885.5 4178786.75 311.160003662
574887.5 4178786.75 306.619995117
574887.6875 4178786.5 308.170013428
574889.1875 4178786.5 305.519989014
574891.9375 4178786.5 309.5
574891.9375 4178786.5 309.529998779
574892.3125 4178786.5 309.420013428
574893.1875 4178786.5 308.299987793
574893.1875 4178786.5 308.320007324
574894.4375 4178786.5 307.619995117
574896.3125 4178786.5 309.380004883
574896.3125 4178786.5 309.399993896
574897.3125 4178786.5 309.510009766
574897.3125 4178786.5 309.529998779
574898.875 4178786.75 308.420013428
574898.875 4178786.75 308.399993896
574899.8125 4178786.5 308.420013428
574899.8125 4178786.5 308.440002441
574900.1875 4178786.75 308.329986572
574900.1875 4178786.75 308.299987793
574880.125 4178786.75 304.350006104
574880.5625 4178787.25 309.299987793
574881.875 4178787.25 307.540008545
574882 4178786.75 308.820007324
574883.5625 4178786.75 306.170013428
574884.875 4178787 309.459991455
574884.875 4178787 309.429992676
574885.125 4178786.75 311.359985352
574885.6875 4178787 302.850006104
574886.625 4178787 308.760009766
574887.875 4178786.75 307.019989014
574888.8125 4178786.75 306.089996338
574890.1875 4178787 306.109985352
574892.1875 4178787 309.149993896
574892.1875 4178787 309.170013428
574893.5 4178787 308.559997559
574893.5 4178787 308.570007324
574894.0625 4178787 304.309997559
574894.0625 4178787 304.269989014
574894.3125 4178787 306.429992676
574894.3125 4178787 306.450012207
574894.625 4178787 306.220001221
574894.625 4178787 306.200012207
574895.9375 4178787 309.820007324
574896.3125 4178787 310.010009766
574896.3125 4178787 310.040008545
574897.6875 4178787 310.230010986
574898.5 4178787.25 309.359985352
574898.5 4178787.25 309.390014648
574899.75 4178787 308.109985352
574899.75 4178787 308.130004883
574900.0625 4178787.25 307.940002441
574882.4375 4178787.25 309.369995117
574883.5 4178787.5 310.220001221
574883.8125 4178787.5 309.720001221
574884.625 4178787.5 303.209991455
574885.25 4178787.5 309.230010986
574885.25 4178787.5 309.260009766
574886.25 4178787.5 309.040008545
574889.25 4178787.5 307.579986572
574893.1875 4178787.25 309.279998779
574893.1875 4178787.25 309.260009766
574895.75 4178787.25 307.769989014
574895.75 4178787.25 307.739990234
574896.125 4178787.25 308.200012207
574896.125 4178787.25 308.220001221
574897.0625 4178787.5 308.130004883
574897.3125 4178787.25 310.239990234
574897.3125 4178787.25 310.260009766
574897.5625 4178787.5 309.540008545
574897.5625 4178787.5 309.519989014
574898.8125 4178787.5 308.869995117
574898.8125 4178787.5 308.890014648
574880.4375 4178787.75 308.899993896
574880.9375 4178787.75 309.660003662
574881.875 4178788 308.980010986
574882.375 4178787.75 309.670013428
574883.375 4178788 309.769989014
574883.6875 4178788 308.959991455
574883.6875 4178788 308.950012207
574884.875 4178787.75 310
574884.875 4178787.75 310.019989014
574885.6875 4178787.75 303.589996338
574886.625 4178787.75 309.600006104
574887.5625 4178787.75 308.630004883
574888.0625 4178788 310.070007324
574888.0625 4178788 310.100006104
574890.1875 4178787.75 307.640014648
574890.5 4178787.75 306.609985352
574893.125 4178788 309.630004883
574893.125 4178788 309.640014648
574893.5 4178787.75 309.350006104
574893.5 4178787.75 309.329986572
574894.625 4178787.75 306.959991455
574894.625 4178787.75 306.940002441
574895.6875 4178788 308.420013428
574895.6875 4178788 308.440002441
574896.0625 4178788 308.410003662
574896.0625 4178788 308.429992676
574897.4375 4178788 308.459991455
574897.4375 4178788 308.480010986
574898.4375 4178787.75 308.989990234
574898.4375 4178787.75 308.970001221
574898.6875 4178787.75 308.239990234
574898.6875 4178787.75 308.209991455
574899.6875 4178787.5 308.170013428
574899.6875 4178787.5 308.200012207
574900 4178787.75 307.970001221
574881.375 4178788.25 304.369995117
574881.8125 4178788 304.350006104
574882.1875 4178788.25 308.609985352
574884.125 4178788.25 303.059997559
574884.5625 4178788.25 303.140014648
574884.8125 4178788.25 310.179992676
574884.8125 4178788.25 310.149993896
574885.125 4178788 309.25
574885.625 4178788.25 303.459991455
574885.625 4178788.25 303.480010986
574886.125 4178788 304.880004883
574886.125 4178788 304.859985352
574886.1875 4178788.25 309.609985352
574886.5625 4178788.25 309.519989014
574886.5625 4178788.25 309.549987793
574887.1875 4178788.25 305.670013428
574887.5625 4178788.25 309.190002441
574887.5625 4178788.25 309.220001221
574889.25 4178788.25 308.970001221
574892 4178788.25 308.549987793
574893.5 4178788.25 309.859985352
574893.5 4178788.25 309.890014648
574894.25 4178788.25 307.600006104
574894.25 4178788.25 307.559997559
574897 4178788 308.420013428
574897 4178788 308.399993896
574898.3125 4178788.25 308.450012207
574898.3125 4178788.25 308.480010986
574899.625 4178788.25 308.450012207
574881.8125 4178788.5 308.760009766
574883.375 4178788.5 310.309997559
574883.375 4178788.5 310.350006104
574883.6875 4178788.5 309.649993896
574885.0625 4178788.5 308.950012207
574886.0625 4178788.75 304.670013428
574886.0625 4178788.75 304.700012207
574886.125 4178788.5 309.140014648
574887.9375 4178788.5 309.779998779
574888 4178788.5 309.809997559
574888.9375 4178788.5 309.579986572
574890.1875 4178788.5 308.230010986
574892 4178788.75 308.940002441
574893.0625 4178788.5 310.130004883
574893.0625 4178788.5 310.109985352
574894.5625 4178788.5 307.309997559
574894.5625 4178788.5 307.279998779
574895.625 4178788.5 308.200012207
574895.625 4178788.5 308.179992676
574896 4178788.5 308.470001221
574896 4178788.5 308.440002441
574897.375 4178788.5 308.630004883
574898.6875 4178788.5 309.260009766
574899.5 4178788.75 308.160003662
574900 4178788.5 308.859985352
574900 4178788.5 308.829986572
574883.125 4178788.75 304.269989014
574883.25 4178789 309.739990234
574883.25 4178789 309.769989014
574883.625 4178789 309.309997559
574884.0625 4178788.75 303.119995117
574884.75 4178789 310.200012207
574884.75 4178789 310.170013428
574887.125 4178789 305.730010986
574887.5 4178788.75 305.290008545
574887.5625 4178789 310.329986572
574887.9375 4178789 310.269989014
574887.9375 4178789 310.239990234
574888.75 4178789 308.589996338
574889.25 4178788.75 309.25
574889.25 4178788.75 309.220001221
574890.125 4178789 308.459991455
574891.6875 4178789 309.959991455
574893 4178789 310.019989014
574893.4375 4178789 310.049987793
574893.4375 4178789 310.070007324
574894.3125 4178789 309.200012207
574894.3125 4178789 309.170013428
574895.5 4178789 307.809997559
574895.5 4178789 307.829986572
574895.875 4178789 308
574896.875 4178789 308.040008545
574896.875 4178789 308.059997559
574898.3125 4178788.75 309.239990234
574898.3125 4178788.75 309.220001221
574898.625 4178789.25 309.190002441
574898.625 4178789.25 309.160003662
574899.8125 4178788.75 307.209991455
574883 4178789.25 303.760009766
574883.375 4178789.25 307.529998779
574885.75 4178789.25 306.350006104
574886.125 4178789.5 306.429992676
574887.375 4178789.5 308.739990234
574889.1875 4178789.5 309.950012207
574889.1875 4178789.5 309.940002441
574891.875 4178789.25 308.339996338
574892.875 4178789.5 308.880004883
574898.25 4178789.5 309.149993896
574884.6875 4178790 306.670013428
574887.1875 4178789.75 307.630004883
574887.625 4178789.75 307.910003662
574887.875 4178789.75 310.510009766
574888.75 4178789.5 309.179992676
574889.875 4178790 307.149993896
574893.375 4178789.5 310.5
574893.375 4178789.5 310.470001221
574894.25 4178789.75 309.790008545
574895.5625 4178789.75 309.049987793
574895.8125 4178789.75 308.010009766
574896.8125 4178789.75 308.100006104
574897.1875 4178789.75 308.709991455
574897.8125 4178790 305.459991455
574898.125 4178790 308.829986572
574898.5625 4178789.75 308.940002441
574899.3125 4178789.75 307.470001221
574885.8125 4178790 308.029998779
574888.6875 4178790.25 309.239990234
574888.6875 4178790.25 309.200012207
574889.125 4178790 309.470001221
574890.25 4178790 306.890014648
574895.4375 4178790.25 308.890014648
574895.4375 4178790.25 308.869995117
574886.25 4178790.5 308.869995117
574887.5625 4178790.5 308.589996338
574888.5625 4178790.75 308.839996338
574889.0625 4178790.75 310.100006104
574889.0625 4178790.75 310.119995117
574889.875 4178790.75 308.119995117
574895.5 4178790.5 306.170013428
574895.875 4178790.5 309.670013428
574895.875 4178790.5 309.700012207
574896.8125 4178790.5 309.399993896
574896.8125 4178790.5 309.429992676
574896.875 4178790.5 306.269989014
574896.875 4178790.5 306.299987793
574885.8125 4178790.75 308.769989014
574886.1875 4178791 308.950012207
574886.1875 4178791 308.920013428
574887.0625 4178791 307.910003662
574888.375 4178791 307.350006104
574895.125 4178791 306.239990234
574895.125 4178791 306.209991455
574895.375 4178790.75 309.070007324
574895.375 4178790.75 309.059997559
574895.4375 4178791 305.779998779
574895.4375 4178791 305.760009766
574895.75 4178791 309.149993896
574896.75 4178790.75 305.279998779
574896.75 4178791 309.559997559
574896.75 4178791 309.589996338
574898 4178791 308.480010986
574898 4178791 308.489990234
574898.375 4178790.75 308.660003662
574898.375 4178790.75 308.640014648
574889.875 4178791.25 308.760009766
574898.3125 4178791.5 308.820007324
574898.3125 4178791.5 308.850006104
574890.3125 4178791.75 310.179992676
574894.375 4178791.75 309.290008545
574896.375 4178791.75 306.359985352
574896.6875 4178791.5 309.429992676
574896.6875 4178791.5 309.459991455
574896.9375 4178792 308.369995117
574896.9375 4178792 308.350006104
574897.9375 4178791.5 308.640014648
574897.9375 4178791.5 308.660003662
574898.25 4178792 308.549987793
574890.25 4178792.25 309.920013428
574893.9375 4178792 309.470001221
574894.25 4178792.25 308.929992676
574895.25 4178792 308.890014648
574895.25 4178792 308.910003662
574895.5625 4178792.25 309.029998779
574895.625 4178792.25 309.059997559
574897.8125 4178792 308.339996338
574889.75 4178792.5 309.429992676
574889.75 4178792.5 309.440002441
574891.0625 4178792.75 308.619995117
574891.625 4178792.5 310.359985352
574892.5625 4178792.5 309.760009766
574892.5625 4178792.5 309.799987793
574893.9375 4178792.5 310.040008545
574894.1875 4178792.75 308.609985352
574895.25 4178792.75 309.739990234
574895.25 4178792.75 309.700012207
574896.375 4178792.5 307.410003662
574896.375 4178792.5 307.399993896
574896.8125 4178792.5 308.049987793
574897.75 4178792.5 308.089996338
574890.25 4178793 310.359985352
574890.25 4178793 310.399993896
574891.5 4178793 309.579986572
574891.5 4178793 309.549987793
574895.0625 4178793 308.730010986
574895.5625 4178792.75 309.459991455
574895.5625 4178792.75 309.429992676
574896.8125 4178793 308.630004883
574889.8125 4178793.25 310.809997559
574889.8125 4178793.25 310.799987793
574891.0625 4178793.25 309.350006104
574891.0625 4178793.25 309.339996338
574891.375 4178793.25 308.910003662
574891.4375 4178793.25 308.940002441
574895.4375 4178793.25 309.140014648
574895.4375 4178793.25 309.109985352
574896.375 4178793.25 308.540008545
574897.125 4178793.5 303.049987793
574890.1875 4178793.75 310.829986572
574890.1875 4178793.75 310.809997559
574890.875 4178793.75 308.140014648
574890.875 4178793.75 308.119995117
574893.75 4178793.5 309.040008545
574895.0625 4178793.75 309.369995117
574896.3125 4178793.5 304.260009766
574896.3125 4178793.75 308.720001221
574896.3125 4178793.75 308.739990234
574896.6875 4178793.75 308.299987793
574891.4375 4178794.25 310.549987793
574891.4375 4178794.25 310.559997559
574893.625 4178794 308.649993896
574894.125 4178794 309.820007324
574895.9375 4178794.25 304.950012207
574895.9375 4178794.25 304.959991455
574896.25 4178794.25 308.510009766
574892.25 4178794.75 309.600006104
574892.625 4178794.5 308.950012207
574894 4178794.5 309.290008545
574895.3125 4178794.5 308.910003662
574893.625 4178794.75 309.790008545
574893.875 4178795 308.350006104
574894.875 4178794.75 308.75
574895.25 4178795 309.380004883
574895.25 4178795 309.350006104
574893.5 4178795.25 309.420013428
574893.5 4178795.25 309.440002441
574893.8125 4178795.5 308.429992676
574893.8125 4178795.5 308.450012207
574894.8125 4178795.5 309.029998779
574894.8125 4178795.5 309.010009766
574896 4178795.25 307.279998779
574896 4178795.25 307.260009766
574893.5 4178795.5 305.149993896
574893.5 4178795.5 305.119995117
574894.5625 4178795.5 306.380004883
574894.5625 4178795.5 306.350006104
574894.875 4178795.5 305.809997559
574894.875 4178795.5 305.799987793
574895.1875 4178795.5 309.010009766
574895.1875 4178795.5 309.029998779
574895.875 4178795.5 306.429992676
574895.875 4178795.5 306.450012207
574894.4375 4178796 305.540008545
574894.4375 4178796 305.549987793
574894.75 4178796.25 305.660003662
574894.75 4178796.25 305.679992676
