# .PCD v.7 - Point Cloud Data file format
VERSION .7
FIELDS x y z
SIZE 4 4 4
TYPE F F F
COUNT 1 1 1
WIDTH 1048
HEIGHT 1
VIEWPOINT 0 0 0 1 0 0 0
POINTS 1048
DATA ascii
574945.1875 4178700.5 292.170013428
574945.1875 4178700.5 292.190002441
574943.9375 4178701.75 292.100006104
574943.9375 4178701.75 292.130004883
574941.5 4178703 292.079986572
574941.5 4178703 292.070007324
574941.6875 4178703.25 292.170013428
574942.5625 4178703 292.070007324
574942.5625 4178703 292.100006104
574942.5625 4178704.25 292.130004883
574942.5625 4178704.25 292.100006104
574941.3125 4178704.5 292.160003662
574941.3125 4178704.5 292.140014648
574942.375 4178704.75 292.109985352
574942.375 4178704.75 292.079986572
574942.5 4178704.75 291.920013428
574942.5 4178704.75 291.899993896
574943.3125 4178705.75 292
574943.3125 4178705.75 292.019989014
574939.1875 4178705.75 292.079986572
574939.1875 4178705.75 292.089996338
574940.125 4178706 292.040008545
574940.125 4178706 292.019989014
574940.25 4178706.25 292.130004883
574940.1875 4178706.75 292.059997559
574940.1875 4178706.75 292.040008545
574943.1875 4178706.75 291.910003662
574943.1875 4178706.75 291.899993896
574938 4178707.25 291.920013428
574938 4178707.25 291.940002441
574943 4178707.75 291.730010986
574943 4178707.75 291.760009766
574937.8125 4178708.25 291.880004883
574937.8125 4178708.25 291.850006104
574941.9375 4178708.25 292.179992676
574943.125 4178708.25 291.910003662
574943.125 4178708.25 291.899993896
574937 4178708.5 292.040008545
574942.875 4178708.75 291.950012207
574942.875 4178708.75 291.980010986
574937.875 4178709.25 291.959991455
574937.875 4178709.25 291.980010986
574937.75 4178709.25 291.959991455
574937.75 4178709.25 291.940002441
574943.875 4178709.5 291.890014648
574944.0625 4178709.5 292.049987793
574944.0625 4178709.5 292.079986572
574944.875 4178709.5 291.149993896
574945.125 4178709.5 291.649993896
574937.625 4178709.75 291.799987793
574937.625 4178709.75 291.820007324
574937.8125 4178709.75 291.940002441
574937.8125 4178709.75 291.940002441
574938.625 4178710 292.059997559
574938.625 4178710 292.089996338
574944.8125 4178710 291.290008545
574945.0625 4178710 291.450012207
574937.5625 4178710.5 291.869995117
574937.5625 4178710.5 291.890014648
574939.75 4178710.25 292.070007324
574939.75 4178710.25 292.049987793
574942.6875 4178710.5 292.029998779
574942.6875 4178710.5 292.059997559
574943.8125 4178710 292.089996338
574942.875 4178710.75 292.230010986
574942.875 4178710.75 292.200012207
574943.75 4178710.5 291.600006104
574943.75 4178710.5 291.619995117
574943.9375 4178710.75 292.140014648
574943.9375 4178710.75 292.170013428
574944.8125 4178710.75 292.149993896
574944.8125 4178710.75 292.109985352
574945 4178710.75 291.940002441
574936.5 4178711.25 291.950012207
574936.5 4178711.25 291.929992676
574936.6875 4178711 292.019989014
574936.6875 4178711 292.040008545
574942.625 4178711 291.809997559
574942.625 4178711 291.829986572
574942.75 4178711.25 291.910003662
574942.75 4178711.25 291.929992676
574943.6875 4178711 291.510009766
574943.6875 4178711 291.529998779
574935.375 4178711.5 291.839996338
574935.375 4178711.5 291.869995117
574935.5625 4178711.5 291.980010986
574935.5625 4178711.5 292
574936.5625 4178711.5 291.700012207
574936.5625 4178711.5 291.730010986
574938.4375 4178711.5 291.829986572
574938.4375 4178711.5 291.869995117
574942.5625 4178711.5 292.049987793
574942.5625 4178711.5 292.019989014
574943.875 4178711.25 292.130004883
574943.875 4178711.25 292.160003662
574935.3125 4178712 291.760009766
574935.3125 4178712 291.739990234
574942.75 4178712 292.230010986
574943.625 4178711.75 292.149993896
574943.625 4178711.75 292.190002441
574935.4375 4178712.25 291.850006104
574935.4375 4178712.25 291.829986572
574936.5 4178712 292.029998779
574936.5 4178712 292.010009766
574937.5 4178712.25 292.059997559
574938.375 4178712 292
574938.375 4178712 291.980010986
574941.5 4178712.5 291.470001221
574942.625 4178712.25 291.480010986
574942.625 4178712.25 291.510009766
574943.5625 4178712.25 292.100006104
574943.5625 4178712.25 292.079986572
574943.6875 4178712.25 291.540008545
574943.6875 4178712.25 291.559997559
574935.375 4178712.75 291.989990234
574936.25 4178712.75 291.679992676
574936.25 4178712.75 291.709991455
574937.4375 4178712.75 292.019989014
574937.4375 4178712.75 292
574938.3125 4178712.5 291.890014648
574938.3125 4178712.75 291.920013428
574938.4375 4178712.75 291.869995117
574938.4375 4178712.75 291.890014648
574941.5 4178712.5 291.480010986
574942.4375 4178712.5 291.660003662
574942.4375 4178712.5 291.649993896
574943.4375 4178712.5 291.369995117
574943.4375 4178712.5 291.390014648
574937.25 4178713 291.649993896
574937.25 4178713 291.679992676
574941.4375 4178713 291.649993896
574941.4375 4178713 291.670013428
574942.3125 4178712.75 291.100006104
574942.3125 4178712.75 291.109985352
574942.5 4178712.75 291.170013428
574942.5 4178712.75 291.179992676
574943.375 4178713 291.329986572
574943.375 4178713 291.350006104
574943.625 4178713 291.660003662
574936.25 4178713.25 292.019989014
574936.25 4178713.25 291.989990234
574936.375 4178713.25 291.929992676
574936.375 4178713.25 291.910003662
574937.1875 4178713.5 291.679992676
574937.1875 4178713.5 291.709991455
574937.375 4178713.25 291.989990234
574937.375 4178713.25 292.010009766
574941.25 4178713.5 291.739990234
574941.25 4178713.5 291.75
574942.25 4178713.5 291.329986572
574942.25 4178713.5 291.359985352
574942.4375 4178713.5 291.660003662
574942.5 4178713.5 291.700012207
574943.3125 4178713.5 291.220001221
574943.3125 4178713.5 291.25
574943.5625 4178713.5 291.779998779
574937.25 4178713.75 291.529998779
574937.25 4178713.75 291.510009766
574941.125 4178714 291.359985352
574941.125 4178714 291.339996338
574941.375 4178713.75 291.670013428
574941.375 4178713.75 291.700012207
574942.1875 4178714 291.230010986
574942.1875 4178714 291.25
574937.125 4178714.25 291.989990234
574937.125 4178714.25 292.010009766
574938.0625 4178714.25 291.829986572
574938.0625 4178714.25 291.859985352
574938.1875 4178714.25 291.420013428
574938.1875 4178714.25 291.429992676
574941.3125 4178714.25 291.589996338
574941.3125 4178714.25 291.600006104
574942.375 4178714.25 291.570007324
574942.375 4178714.25 291.600006104
574943.5 4178714.25 292.149993896
574943.5 4178714.25 292.160003662
574937 4178714.5 291.649993896
574937.0625 4178714.5 291.690002441
574937.1875 4178714.5 291.529998779
574937.1875 4178714.5 291.559997559
574938 4178714.75 291.679992676
574938 4178714.75 291.709991455
574939.0625 4178714.5 291.799987793
574939.0625 4178714.5 291.779998779
574939.25 4178714.5 291.869995117
574939.25 4178714.5 291.890014648
574941.0625 4178714.5 291.350006104
574941.0625 4178714.5 291.320007324
574942.1875 4178714.5 291.820007324
574942.1875 4178714.5 291.790008545
574943.1875 4178714.75 291.75
574943.25 4178714.75 291.779998779
574937.1875 4178715.25 292.019989014
574937.1875 4178715.25 292.029998779
574939 4178715 291.880004883
574939 4178715 291.899993896
574939.125 4178715 291.730010986
574939.125 4178715 291.760009766
574940 4178715 292.070007324
574940 4178715.25 292.079986572
574941 4178715 291.230010986
574941 4178715 291.25
574941.25 4178715 291.730010986
574941.25 4178715 291.709991455
574942.0625 4178715 291.540008545
574942.0625 4178715 291.559997559
574942.375 4178715 292.119995117
574942.375 4178715 292.109985352
574943.125 4178715.25 291.179992676
574943.125 4178715.25 291.220001221
574943.4375 4178714.75 291.869995117
574943.4375 4178714.75 291.890014648
574944.25 4178715 291.739990234
574944.25 4178715 291.769989014
574944.5 4178714.75 291.899993896
574944.5 4178714.75 291.880004883
574937.9375 4178715.25 291.950012207
574937.9375 4178715.25 291.940002441
574938.9375 4178715.5 291.769989014
574938.9375 4178715.5 291.799987793
574940.9375 4178715.5 291
574940.9375 4178715.5 291.019989014
574941.125 4178715.5 291.410003662
574941.125 4178715.5 291.420013428
574942 4178715.5 291.309997559
574942 4178715.5 291.329986572
574942.25 4178715.25 291.489990234
574942.25 4178715.25 291.510009766
574943.3125 4178715.25 291.25
574943.3125 4178715.25 291.230010986
574944.1875 4178715.5 291.290008545
574944.1875 4178715.5 291.309997559
574944.375 4178715.25 291.170013428
574944.375 4178715.25 291.190002441
574939.9375 4178715.75 292.059997559
574939.9375 4178715.75 292.040008545
574940.125 4178715.5 291.929992676
574940.125 4178715.5 291.910003662
574941.0625 4178716 291.019989014
574941.0625 4178716 291.040008545
574942.125 4178715.75 291.100006104
574942.125 4178715.75 291.079986572
574943 4178715.75 290.950012207
574943 4178715.75 290.970001221
574943.1875 4178715.75 290.910003662
574943.1875 4178715.75 290.880004883
574938.875 4178716 291.779998779
574938.875 4178716 291.769989014
574939 4178716.25 291.820007324
574939 4178716.25 291.790008545
574940 4178716.25 291.790008545
574940 4178716.25 291.799987793
574940.875 4178716 291.279998779
574940.875 4178716 291.309997559
574941.9375 4178716 291.059997559
574941.9375 4178716 291.079986572
574942.0625 4178716.25 290.779998779
574942.0625 4178716.25 290.760009766
574942.9375 4178716.25 290.910003662
574942.9375 4178716.25 290.929992676
574937.9375 4178716.75 291.760009766
574938.8125 4178716.5 291.929992676
574938.8125 4178716.5 291.910003662
574938.875 4178716.75 291.160003662
574938.875 4178716.75 291.130004883
574939.75 4178716.75 291.640014648
574939.75 4178716.5 291.609985352
574940.8125 4178716.75 291.850006104
574940.8125 4178716.75 291.869995117
574941 4178716.75 291.619995117
574941 4178716.75 291.640014648
574941.875 4178716.5 291.010009766
574941.875 4178716.5 290.989990234
574942.875 4178716.75 290.730010986
574942.875 4178716.75 290.709991455
574943.125 4178716.5 290.959991455
574943.125 4178716.5 290.950012207
574937.75 4178717 291.920013428
574937.75 4178717 291.899993896
574937.9375 4178716.75 291.779998779
574938.6875 4178717 291.339996338
574938.6875 4178717 291.309997559
574939.9375 4178716.75 291.799987793
574939.9375 4178716.75 291.809997559
574942 4178717 291.329986572
574942 4178717 291.299987793
574943.0625 4178717 290.940002441
574943.0625 4178717 290.920013428
574934.625 4178717.5 291.709991455
574934.625 4178717.5 291.739990234
574934.8125 4178717.5 291.850006104
574934.8125 4178717.5 291.890014648
574938.875 4178717.5 292.100006104
574938.875 4178717.5 292.089996338
574939.75 4178717.25 291.970001221
574939.75 4178717.25 291.980010986
574939.875 4178717.5 291.769989014
574939.875 4178717.5 291.779998779
574940.75 4178717.25 291.910003662
574940.75 4178717.25 291.920013428
574940.9375 4178717.25 291.850006104
574940.9375 4178717.25 291.820007324
574941.8125 4178717.25 291.709991455
574941.8125 4178717.25 291.690002441
574942.8125 4178717.25 291.010009766
574942.8125 4178717.25 290.989990234
574934.5625 4178718 291.769989014
574934.5625 4178718 291.809997559
574940.6875 4178718 292.040008545
574940.6875 4178717.75 292.019989014
574940.875 4178718 291.869995117
574940.875 4178718 291.850006104
574941.75 4178717.75 291.570007324
574941.75 4178717.75 291.579986572
574941.9375 4178717.75 291.690002441
574941.9375 4178717.75 291.700012207
574942.75 4178717.75 291.049987793
574942.75 4178717.75 291.029998779
574936.75 4178718 291.519989014
574936.75 4178718 291.5
574940.5625 4178718.25 291.079986572
574940.5625 4178718.25 291.109985352
574941.6875 4178718.25 291.600006104
574941.6875 4178718.25 291.570007324
574941.875 4178718.25 291.640014648
574941.875 4178718.25 291.619995117
574937.5625 4178718.5 291.75
574937.5625 4178718.5 291.769989014
574939.75 4178718.75 291.970001221
574939.75 4178718.75 291.989990234
574940.75 4178718.5 291.290008545
574940.75 4178718.5 291.269989014
574939.5625 4178718.75 292.010009766
574939.5625 4178718.75 292.019989014
574940.5625 4178719 291.720001221
574940.5625 4178719 291.739990234
574940.75 4178719.25 291.809997559
574940.75 4178719.25 291.799987793
574941.625 4178719 291.929992676
574941.625 4178719 291.920013428
574941.8125 4178719 291.799987793
574941.8125 4178719 291.829986572
574935.625 4178719.25 291.619995117
574935.625 4178719.25 291.649993896
574939.6875 4178719.25 292.130004883
574939.6875 4178719.25 292.149993896
574940.5 4178719.5 291.839996338
574940.5 4178719.5 291.850006104
574941.5 4178719.25 290.950012207
574941.5 4178719.25 290.980010986
574941.75 4178719.5 291.410003662
574941.75 4178719.5 291.429992676
574933.5 4178720 291.940002441
574937.5625 4178720 292.089996338
574937.5625 4178720 292.070007324
574939.625 4178720 292.140014648
574940.625 4178719.75 291.5
574940.625 4178719.75 291.519989014
574941.5 4178720 291.510009766
574941.5 4178720 291.5
574935.3125 4178720.25 291.829986572
574935.3125 4178720.25 291.839996338
574940.4375 4178720 292.119995117
574940.4375 4178720 292.089996338
574940.5625 4178720.25 291.450012207
574940.5625 4178720.25 291.470001221
574933.375 4178720.5 291.630004883
574933.375 4178720.5 291.609985352
574935.5 4178720.5 291.790008545
574935.5 4178720.5 291.820007324
574939.3125 4178720.5 291.540008545
574939.3125 4178720.5 291.559997559
574939.5 4178720.5 291.649993896
574939.5 4178720.5 291.670013428
574940.375 4178720.5 291.809997559
574940.375 4178720.5 291.839996338
574931.25 4178721 291.630004883
574931.25 4178721 291.660003662
574933.3125 4178721 291.890014648
574933.3125 4178721 291.850006104
574937.4375 4178721 291.850006104
574937.4375 4178721 291.869995117
574939.4375 4178721 291.799987793
574939.4375 4178721 291.769989014
574940.25 4178720.75 291
574940.25 4178721 291.019989014
574940.5 4178721 291.779998779
574940.5 4178721 291.760009766
574931.0625 4178721.25 291.820007324
574931.0625 4178721.25 291.839996338
574937.25 4178721.25 291.970001221
574937.25 4178721.25 291.929992676
574938.125 4178721.25 291.149993896
574938.125 4178721.25 291.119995117
574939.1875 4178721.5 291.5
574940.375 4178721.25 291.029998779
574931.1875 4178721.5 291.890014648
574931.1875 4178721.5 291.869995117
574935.3125 4178721.75 291.809997559
574935.3125 4178721.75 291.790008545
574937.125 4178721.75 291.809997559
574937.125 4178721.75 291.820007324
574939.375 4178721.75 292.079986572
574940.25 4178721.5 291.649993896
574936.0625 4178722.25 291.559997559
574936.0625 4178722.25 291.579986572
574936.1875 4178722 291.079986572
574936.1875 4178722 291.059997559
574937.0625 4178722.25 291.609985352
574937.0625 4178722.25 291.630004883
574937.25 4178722 291.269989014
574939.125 4178722.25 292.119995117
574939.25 4178722 291.040008545
574939.25 4178722 291.059997559
574940.125 4178722 291.010009766
574931.875 4178722.5 291.450012207
574931.875 4178722.5 291.440002441
574936 4178722.75 291.420013428
574936 4178722.75 291.450012207
574931.8125 4178723 291.679992676
574931.8125 4178723 291.649993896
574936.1875 4178723 291.920013428
574936.1875 4178723 291.950012207
574931.75 4178723.5 291.279998779
574931.75 4178723.5 291.25
574932 4178723.25 291.589996338
574932 4178723.25 291.609985352
574935.9375 4178723.25 291.209991455
574935.9375 4178723.25 291.220001221
574931.9375 4178723.75 291.459991455
574931.9375 4178723.75 291.429992676
574932.875 4178723.5 291.950012207
574933.0625 4178723.5 291.950012207
574936.8125 4178723.75 291.260009766
574936.8125 4178723.75 291.260009766
574937 4178723.75 291.029998779
574937 4178723.75 291.049987793
574931.75 4178724 291.779998779
574931.75 4178724 291.820007324
574932.75 4178724 291.359985352
574932.75 4178724 291.350006104
574934.875 4178724 291.839996338
574934.875 4178724 291.869995117
574935 4178724 291.709991455
574935 4178724 291.690002441
574935.8125 4178724.25 291.160003662
574935.8125 4178724.25 291.179992676
574936.0625 4178724 292.040008545
574931.625 4178724.5 291.760009766
574931.625 4178724.5 291.730010986
574931.875 4178724.5 291.589996338
574931.875 4178724.5 291.570007324
574932.6875 4178724.5 291.109985352
574932.6875 4178724.5 291.079986572
574932.875 4178724.5 291.390014648
574932.875 4178724.5 291.410003662
574933.875 4178724.75 291.230010986
574933.875 4178724.75 291.260009766
574934.75 4178724.5 291.670013428
574934.75 4178724.5 291.640014648
574934.9375 4178724.5 291.529998779
574934.9375 4178724.5 291.5
574935.9375 4178724.5 291.690002441
574935.9375 4178724.5 291.649993896
574930.5625 4178725 291.779998779
574930.5625 4178725 291.809997559
574932.5625 4178725 291.119995117
574932.5625 4178725 291.140014648
574933.6875 4178724.75 291.200012207
574933.6875 4178724.75 291.220001221
574935.75 4178725 291.720001221
574935.75 4178725 291.739990234
574937.875 4178725 291.089996338
574932.75 4178725.25 291.320007324
574932.75 4178725.25 291.290008545
574933.5625 4178725.25 291.010009766
574933.5625 4178725.25 291.029998779
574933.8125 4178725.25 291.489990234
574933.8125 4178725.25 291.510009766
574934.75 4178725.25 291.839996338
574934.75 4178725.25 291.820007324
574934.875 4178725.25 291.619995117
574934.875 4178725.25 291.649993896
574937.875 4178725 291.119995117
574933.6875 4178725.75 290.970001221
574933.6875 4178725.75 290.989990234
574934.625 4178725.5 291.369995117
574934.625 4178725.75 291.399993896
574934.8125 4178725.75 291.899993896
574934.8125 4178725.75 291.920013428
574935.6875 4178725.5 292.029998779
574935.6875 4178725.5 292.049987793
574935.8125 4178725.75 291.809997559
574935.8125 4178725.75 291.779998779
574937.75 4178725.75 290.920013428
574937.75 4178725.75 290.899993896
574933.5625 4178726 291.760009766
574933.5625 4178726 291.730010986
574934.5625 4178726.25 291.390014648
574934.5625 4178726.25 291.359985352
574935.625 4178726 291.470001221
574935.625 4178726 291.489990234
574930.375 4178726.75 291.630004883
574933.4375 4178726.5 291.320007324
574933.4375 4178726.5 291.299987793
574933.6875 4178726.5 291.570007324
574933.6875 4178726.5 291.589996338
574934.75 4178726.25 291.440002441
574934.75 4178726.25 291.450012207
574935.5 4178726.5 291.320007324
574935.5 4178726.5 291.339996338
574935.6875 4178726.25 291.350006104
574935.6875 4178726.25 291.329986572
574936.5 4178726.5 291.179992676
574936.5 4178726.5 291.160003662
574930.375 4178726.75 291.660003662
574933.5625 4178727 291.309997559
574933.5625 4178727 291.279998779
574934.5 4178726.75 291.309997559
574934.5 4178726.75 291.339996338
574934.625 4178727 291.239990234
574934.625 4178727 291.269989014
574935.4375 4178727 291.459991455
574935.4375 4178727 291.450012207
574935.625 4178727 291.540008545
574935.625 4178727 291.570007324
574936.375 4178727 290.809997559
574936.375 4178727 290.839996338
574936.625 4178726.75 291.200012207
574936.625 4178726.75 291.209991455
574930.4375 4178727.5 291.339996338
574930.4375 4178727.5 291.309997559
574931.25 4178727.25 291.260009766
574931.25 4178727.25 291.25
574931.5 4178727.5 291.570007324
574931.5 4178727.5 291.589996338
574933.4375 4178727.25 291.660003662
574933.4375 4178727.25 291.679992676
574934.4375 4178727.25 291.369995117
574934.4375 4178727.25 291.390014648
574934.5 4178727.5 290.970001221
574934.5625 4178727.5 291
574935.375 4178727.5 291
574935.375 4178727.5 290.980010986
574935.5625 4178727.5 291.019989014
574936.5 4178727.5 290.859985352
574936.5 4178727.25 290.850006104
574930.1875 4178727.75 291.549987793
574930.1875 4178727.75 291.570007324
574931.1875 4178727.75 291.049987793
574931.1875 4178727.75 291.059997559
574934.3125 4178727.75 291.079986572
574934.3125 4178727.75 291.070007324
574935.5625 4178727.5 291.040008545
574936.3125 4178727.75 291.170013428
574936.375 4178727.75 291.190002441
574931.375 4178728 291.369995117
574931.375 4178728 291.339996338
574934.4375 4178728 290.779998779
574934.4375 4178728 290.809997559
574935.25 4178728 290.820007324
574935.25 4178728 290.839996338
574935.5 4178728 291.25
574935.5 4178728.25 291.279998779
574936.25 4178728 290.459991455
574936.25 4178728 290.480010986
574936.4375 4178728 290.519989014
574936.4375 4178728 290.540008545
574934.25 4178728.25 291.220001221
574935.25 4178728.5 291.029998779
574935.25 4178728.5 291.049987793
574929.0625 4178728.75 291.630004883
574930.3125 4178728.75 291.730010986
574933.375 4178728.75 291.380004883
574933.375 4178728.75 291.350006104
574934.25 4178729 291.890014648
574935.4375 4178729 291.859985352
574933.125 4178729.25 291.470001221
574934.375 4178729.5 291.609985352
574934.1875 4178729.5 291.670013428
574935.125 4178729.75 291.119995117
574934.25 4178730 291.410003662
574935.3125 4178730 291.670013428
574925.8125 4178730.25 291.579986572
574925.8125 4178730.25 291.559997559
574929.875 4178730.5 291.779998779
574929.875 4178730.5 291.75
574930.0625 4178730.5 291.390014648
574934.125 4178730.25 290.769989014
574933.875 4178731 290.559997559
574926.9375 4178731 291.709991455
574934.125 4178731 291.140014648
574930.9375 4178731.75 291.480010986
574931.9375 4178731.75 291.170013428
574932.9375 4178731.75 290.660003662
574933.8125 4178731.5 290.459991455
574934 4178731.5 290.320007324
574930.625 4178732.25 291.109985352
574930.625 4178732.25 291.130004883
574930.875 4178732.25 291.320007324
574931.6875 4178732 290.709991455
574931.875 4178732.25 290.630004883
574932.75 4178731.75 290.579986572
574933.875 4178732 290.369995117
574931.625 4178732.5 290.839996338
574932.6875 4178732.5 290.679992676
574932.6875 4178732.5 290.660003662
574932.875 4178732.25 290.540008545
574932.875 4178732.25 290.559997559
574933.625 4178732.5 290.390014648
574933.625 4178732.5 290.410003662
574926.5 4178732.75 291.429992676
574931.75 4178732.75 290.679992676
574931.75 4178732.75 290.700012207
574932.5625 4178733 290.410003662
574932.8125 4178733 290.679992676
574933.8125 4178732.75 290.470001221
574926.4375 4178733.25 291.700012207
574931.5 4178733 290.589996338
574931.5 4178733 290.600006104
574927.4375 4178733.5 291.359985352
574927.4375 4178733.5 291.350006104
574923.375 4178734.25 291.630004883
574926.5625 4178734 291.649993896
574928.5625 4178734 290.920013428
574929.5625 4178734 290.720001221
574926.3125 4178734.25 291.489990234
574926.4375 4178734.5 291.119995117
574930.5625 4178734.5 290.720001221
574926.25 4178734.75 291.170013428
574927.25 4178734.5 291.269989014
574927.5 4178734.75 291.5
574924.125 4178735 291.220001221
574925.375 4178735.25 291.559997559
574927.1875 4178735.25 291.309997559
574927.1875 4178735.25 291.320007324
574927.375 4178735.25 291.260009766
574924.0625 4178735.75 291.440002441
574925.25 4178735.75 291.010009766
574926.1875 4178735.5 291.320007324
574926.1875 4178735.5 291.309997559
574924.25 4178735.75 291.390014648
574929.125 4178736 290.890014648
574931.1875 4178735.75 290.619995117
574929.25 4178736.25 290.660003662
574929.1875 4178736.75 290.540008545
574923.8125 4178737.25 291.220001221
574929 4178737 290.779998779
574929.9375 4178737 290.149993896
574930.125 4178737.25 290.290008545
574929.125 4178737.5 290.679992676
574929.875 4178737.5 290.369995117
574927 4178738.25 290.700012207
574929 4178738 290.489990234
574930.0625 4178738 290.279998779
574929.8125 4178738.25 290.519989014
574922.75 4178738.75 291.170013428
574926.9375 4178738.75 290.790008545
574929.75 4178738.75 290.390014648
574930 4178738.5 290.359985352
574925.625 4178739.25 290.570007324
574925.8125 4178739.25 290.549987793
574926.6875 4178739 290.940002441
574926.8125 4178739.25 290.549987793
574929.625 4178739.25 290
574929.9375 4178739.25 290.579986572
574925.5625 4178739.75 290.559997559
574926.625 4178739.5 290.700012207
574920.4375 4178740.25 291.450012207
574920.4375 4178740.25 291.470001221
574925.75 4178739.75 290.390014648
574926.5 4178740 290.299987793
574926.75 4178740 290.410003662
574927.5 4178740 290.190002441
574927.75 4178739.75 290.25
574929.5625 4178739.75 290.179992676
574929.5625 4178739.75 290.200012207
574919.0625 4178740.25 291.5
574919.0625 4178740.25 291.510009766
574921.3125 4178740.25 291.510009766
574921.3125 4178740.25 291.489990234
574925.5 4178740.25 290.700012207
574925.6875 4178740.5 290.540008545
574927.6875 4178740.5 290.350006104
574928.5 4178740.25 289.929992676
574928.5 4178740.25 289.950012207
574928.6875 4178740.25 289.980010986
574928.6875 4178740.25 290.019989014
574919 4178740.75 291.429992676
574919 4178740.75 291.410003662
574920.125 4178740.75 291.570007324
574920.125 4178740.75 291.589996338
574921.25 4178740.75 291.630004883
574921.25 4178740.75 291.609985352
574925.375 4178740.75 290.459991455
574926.4375 4178740.5 290.470001221
574927.4375 4178740.5 290.25
574928.4375 4178740.75 290.510009766
574928.4375 4178740.75 290.489990234
574922.5 4178741.25 291.440002441
574925.625 4178741 290.529998779
574926.5625 4178741 290.149993896
574927.625 4178741 290.179992676
574928.375 4178741.25 289.940002441
574928.625 4178741 290.380004883
574917.9375 4178741.5 291.160003662
574924.5625 4178741.75 291.040008545
574925.5625 4178741.5 290.760009766
574926.3125 4178741.75 290.320007324
574926.5 4178741.5 290.149993896
574927.5 4178741.5 290.140014648
574928.5625 4178741.5 289.890014648
574918.875 4178742 291.519989014
574920.1875 4178742 291.470001221
574920.1875 4178742 291.450012207
574922.1875 4178741.75 291.380004883
574922.4375 4178741.75 291.339996338
574923.25 4178741.75 290.980010986
574925.3125 4178742 291.149993896
574927.3125 4178741.75 290.380004883
574928.25 4178741.75 289.890014648
574928.25 4178741.75 289.910003662
574921 4178742.5 291.410003662
574921.3125 4178742.25 291.609985352
574923.1875 4178742.25 291.040008545
574923.4375 4178742.5 291.450012207
574924.125 4178742.75 290.339996338
574925.375 4178742.75 290.619995117
574919.8125 4178743 291.470001221
574919.8125 4178743 291.470001221
574920.0625 4178743 291.450012207
574920.0625 4178743 291.470001221
574923.125 4178743 291.309997559
574923.3125 4178743 291.040008545
574923.3125 4178743 291.019989014
574918.625 4178743.5 291.279998779
574918.9375 4178743.25 291.470001221
574924.0625 4178743.5 290.720001221
574924.3125 4178743.5 290.839996338
574925 4178743.5 289.989990234
574917.6875 4178744 291.299987793
574917.6875 4178744 291.329986572
574918.8125 4178743.75 291.149993896
574918.8125 4178743.75 291.170013428
574920 4178743.75 291.390014648
574920 4178743.75 291.420013428
574926.1875 4178744 290.049987793
574918.5625 4178744 291.220001221
574918.5625 4178744 291.239990234
574918.75 4178744.5 291.010009766
574918.75 4178744.5 291.049987793
574919.6875 4178744 291.160003662
574919.6875 4178744 291.179992676
574919.875 4178744.25 290.989990234
574925 4178744.25 290.609985352
574925.125 4178744.5 290.040008545
574917.3125 4178744.75 291.130004883
574917.5625 4178744.5 291.190002441
574918.5 4178744.5 291.010009766
574919.5625 4178744.75 290.980010986
574919.5625 4178744.75 291
574919.8125 4178744.75 291.040008545
574917.5 4178745.25 291.209991455
574918.375 4178745.25 290.869995117
574918.6875 4178745 291.540008545
574919.5 4178745.25 291.019989014
574924.0625 4178745 290.130004883
574924.8125 4178745.25 289.829986572
574925.0625 4178745 289.859985352
574917.25 4178745.25 291.029998779
574919.6875 4178745.25 290.489990234
574923.9375 4178745.5 290.049987793
574917.1875 4178746 291.160003662
574917.4375 4178745.75 291.079986572
574918.375 4178745.75 291.350006104
574918.625 4178745.75 291.339996338
574919.625 4178746 290.920013428
574922.9375 4178745.75 290.459991455
574917.375 4178746.5 291.320007324
574918.25 4178746.5 291.380004883
574918.5 4178746.25 291.029998779
574920.6875 4178746.25 290.609985352
574924.9375 4178746.25 290.380004883
574918.1875 4178746.75 290.929992676
574921.5 4178746.5 290.179992676
574922.5 4178746.5 289.839996338
574922.75 4178746.75 289.709991455
574923.625 4178746.75 290.079986572
574923.8125 4178746.75 289.980010986
574924.8125 4178746.75 290.160003662
574914.875 4178747 291.369995117
574914.875 4178747 291.380004883
574917.3125 4178747 291.209991455
574919.3125 4178746.75 290.929992676
574924.625 4178747 290.100006104
574918.125 4178747.25 290.679992676
574922.6875 4178747.5 290.119995117
574923.5 4178747.25 289.989990234
574923.6875 4178747.25 289.690002441
574924.5 4178747.5 290.059997559
574924.75 4178747.5 289.970001221
574922.375 4178747.75 289.959991455
574923.4375 4178747.75 289.839996338
574923.6875 4178748 290.019989014
574915.9375 4178748.25 291.380004883
574917.125 4178748 290.980010986
574921.25 4178748.25 289.940002441
574922.3125 4178748.25 290.100006104
574922.625 4178748 290.089996338
574922.625 4178748 290.100006104
574913.4375 4178748.75 291.200012207
574914.625 4178748.75 291.100006104
574914.625 4178748.75 291.079986572
574915.625 4178748.75 291.399993896
574916.8125 4178748.75 291.410003662
574917.0625 4178748.75 290.829986572
574919.25 4178748.75 290.299987793
574921.1875 4178748.75 289.799987793
574921.4375 4178748.75 290.359985352
574922.5 4178748.75 290.089996338
574913.4375 4178748.75 291.230010986
574914.375 4178749 291.410003662
574914.375 4178749 291.380004883
574915.875 4178749 291.380004883
574915.875 4178749 291.369995117
574916.75 4178749.25 290.779998779
574920.3125 4178749.25 290.420013428
574923.3125 4178749 290.109985352
574914.5625 4178749.5 291.140014648
574914.5625 4178749.5 291.119995117
574915.5625 4178749.25 291.380004883
574915.8125 4178749.5 291.119995117
574915.8125 4178749.5 291.140014648
574918.875 4178749.5 290.130004883
574921.125 4178749.25 289.829986572
574922.4375 4178749.25 290.140014648
574923.25 4178749.5 289.760009766
574913.25 4178750 291.220001221
574914.5 4178750 290.959991455
574914.5 4178750 290.970001221
574915.4375 4178749.75 290.869995117
574915.4375 4178749.75 290.890014648
574913.25 4178750 291.230010986
574914.1875 4178750.25 291.209991455
574914.1875 4178750.25 291.230010986
574915.375 4178750.25 290.880004883
574915.375 4178750.25 290.850006104
574915.6875 4178750 291.010009766
574912.9375 4178750.5 291.260009766
574912.9375 4178750.5 291.239990234
574913.1875 4178750.5 291.070007324
574913.1875 4178750.5 291.100006104
574914.125 4178750.75 291.100006104
574914.125 4178750.75 291.070007324
574914.4375 4178750.5 291.089996338
574914.4375 4178750.5 291.119995117
574915.625 4178750.75 290.970001221
574912.875 4178751 291.119995117
574912.875 4178751 291.100006104
574913.125 4178751.25 291.109985352
574913.125 4178751.25 291.119995117
574914.3125 4178751 290.869995117
574914.375 4178751.25 290.890014648
574915.5 4178751.25 290.660003662
574919.75 4178751.25 289.769989014
574911.875 4178751.25 291.359985352
574911.875 4178751.25 291.339996338
574914.0625 4178751.25 291.059997559
574914.0625 4178751.25 291.089996338
574915.25 4178751.5 291.220001221
574911.8125 4178751.75 291.329986572
574911.8125 4178751.75 291.350006104
574912.75 4178751.75 291.100006104
574914 4178751.75 290.829986572
574914 4178751.75 290.859985352
574914.3125 4178751.75 291.410003662
574914.3125 4178751.75 291.440002441
574911.5 4178752 291.179992676
574912.6875 4178752.25 291.190002441
574913 4178752.25 291.049987793
574913 4178752.25 291.019989014
574913.9375 4178752.25 291.040008545
574913.9375 4178752.25 291.019989014
574914.1875 4178752.25 290.839996338
574915.1875 4178752 291.140014648
574910.1875 4178752.75 291.25
574911.75 4178752.5 291.170013428
574911.75 4178752.5 291.200012207
574915.4375 4178752.5 291.149993896
574918.625 4178752.75 291.579986572
574911.375 4178753.25 291.179992676
574911.375 4178753.25 291.160003662
574911.6875 4178753 291.230010986
574911.6875 4178753 291.260009766
574912.625 4178752.75 291.149993896
574912.9375 4178753 291.160003662
574913.8125 4178753 290.880004883
574915 4178753 290.589996338
574916.1875 4178753 290.579986572
574916.5 4178752.75 290.809997559
574918.4375 4178753 290.149993896
574911.5625 4178753.5 291.059997559
574911.5625 4178753.5 291.029998779
574913.75 4178753.5 290.75
574915.25 4178753.5 290.890014648
574918.375 4178753.5 290.25
574910.3125 4178753.75 291.25
574910.3125 4178753.75 291.269989014
574911.3125 4178753.75 291.209991455
574911.3125 4178753.75 291.179992676
574912.5 4178754 290.829986572
574916.125 4178753.75 290.309997559
574911.1875 4178754.25 291.130004883
574911.1875 4178754.25 291.100006104
574912.75 4178754 290.950012207
574913.6875 4178754 290.910003662
574914 4178754.25 291.320007324
574912.4375 4178754.5 291.380004883
574912.4375 4178754.5 291.369995117
574913.625 4178754.75 291.279998779
574913.625 4178754.75 291.309997559
574914.8125 4178754.75 290.470001221
574915.0625 4178754.75 290.470001221
574909.875 4178755 291.230010986
574911.125 4178754.75 290.809997559
574911.125 4178754.75 290.799987793
574911.4375 4178754.75 291.350006104
574912.6875 4178754.75 291.299987793
574912.6875 4178754.75 291.279998779
574913.9375 4178754.75 291.420013428
574917.3125 4178754.75 289.630004883
574909.8125 4178755.5 291.309997559
574910.125 4178755.5 291.130004883
574910.125 4178755.5 291.160003662
574911.0625 4178755.5 290.890014648
574911.0625 4178755.5 290.859985352
574911.375 4178755.5 291.359985352
574912.625 4178755.25 290.940002441
574912.625 4178755.25 290.920013428
574913.5625 4178755.25 291.179992676
574913.5625 4178755.25 291.209991455
574914.75 4178755.25 290.690002441
574914.75 4178755.25 290.670013428
574915 4178755.25 290.619995117
574915.875 4178755.25 290.190002441
574912.25 4178755.75 290.980010986
574912.25 4178755.75 291.019989014
574912.5 4178755.75 290.779998779
574912.5 4178755.75 290.820007324
574913.4375 4178755.75 290.690002441
574913.4375 4178755.75 290.670013428
574915.8125 4178756 290.410003662
574915.8125 4178756 290.420013428
574916.125 4178755.5 289.950012207
574916.125 4178755.75 289.989990234
574909.75 4178756 290.940002441
574910 4178756 290.910003662
574911 4178756 290.920013428
574911 4178756 290.899993896
574911.3125 4178756 291.329986572
574911.3125 4178756 291.350006104
574912.1875 4178756.25 290.959991455
574912.1875 4178756.25 290.940002441
574913.375 4178756.25 290.489990234
574913.8125 4178756 291.350006104
574913.8125 4178756 291.369995117
574916.0625 4178756.25 290.390014648
574916.0625 4178756.25 290.420013428
574916.875 4178756.25 289.739990234
574910.9375 4178756.5 291.25
574911.1875 4178756.5 290.660003662
574911.1875 4178756.5 290.670013428
574912.125 4178756.75 290.880004883
574912.125 4178756.75 290.850006104
574912.4375 4178756.5 290.630004883
574912.4375 4178756.5 290.649993896
574915.75 4178756.5 290.399993896
574912.375 4178757 290.440002441
574912.375 4178757 290.470001221
574913.3125 4178756.75 290.269989014
574913.5625 4178757 290.089996338
574915.6875 4178757 289.869995117
574915.6875 4178757 289.850006104
574915.9375 4178756.75 290
574915.9375 4178756.75 289.980010986
574918.1875 4178757 289.600006104
574910.875 4178757.25 291.220001221
574911.1875 4178757.25 291.359985352
574912 4178757.25 290.390014648
574912 4178757.25 290.410003662
574913.25 4178757.25 290.260009766
574915.5625 4178757.5 289.790008545
574915.875 4178757.5 290.029998779
574917.875 4178757.25 289.480010986
574918.0625 4178757.5 289.309997559
574911.9375 4178757.75 290.5
574912.25 4178757.5 290.290008545
574913.125 4178757.75 290.040008545
574913.5 4178757.5 290.309997559
574914.4375 4178757.5 290.359985352
574916.6875 4178758 289.450012207
574916.9375 4178757.75 289.510009766
574917.75 4178758 289.450012207
574911 4178758.25 290.720001221
574913.375 4178758 289.649993896
574914.3125 4178758 290.109985352
574914.625 4178758 289.820007324
574915.5 4178758 289.730010986
574915.8125 4178758 290.070007324
574918 4178758.25 289.690002441
574914.25 4178758.5 289.540008545
574914.5 4178758.75 289.869995117
574915.4375 4178758.75 289.809997559
574915.6875 4178758.5 289.589996338
574916.875 4178758.25 289.640014648
574917.6875 4178758.5 289.170013428
574915.625 4178759 289.359985352
574916.5625 4178759 289.839996338
574910.5625 4178759.5 290.850006104
574911.6875 4178759.5 289.989990234
574914.4375 4178759.25 289.989990234
574915.3125 4178759.25 289.470001221
574914.125 4178759.75 289.980010986
574914.375 4178759.75 289.670013428
574915.25 4178759.75 289.429992676
574915.5625 4178759.75 289.269989014
574915.1875 4178760.25 289.160003662
574915.1875 4178760.25 289.170013428
574915.5 4178760.25 289.649993896
574910.375 4178760.5 290.299987793
574910.625 4178760.5 290.119995117
574913.9375 4178760.75 289.690002441
574914.1875 4178761 289.5
574915.125 4178760.75 289.329986572
574915.4375 4178761 289.769989014
574915.4375 4178761 289.790008545
574916.5625 4178760.75 289.399993896
574913.875 4178761.5 289.570007324
574916.1875 4178761.25 289.100006104
574916.4375 4178761.25 288.910003662
574916.125 4178761.75 288.899993896
574916.375 4178761.75 288.739990234
574914.875 4178763.25 290.140014648
574915.125 4178763.25 289.5
574914.75 4178763.75 289.089996338
574915 4178763.75 288.970001221
574914.6875 4178764.25 288.940002441
574914.5625 4178764.75 288.579986572
