# .PCD v.7 - Point Cloud Data file format
VERSION .7
FIELDS x y z
SIZE 4 4 4
TYPE F F F
COUNT 1 1 1
WIDTH 171
HEIGHT 1
VIEWPOINT 0 0 0 1 0 0 0
POINTS 171
DATA ascii
574950.1875 4178694 298.730010986
574950.25 4178694 298.230010986
574950.8125 4178694.25 298.260009766
574950.875 4178694 298.739990234
574950.875 4178694 298.769989014
574951.0625 4178694 298.559997559
574951.0625 4178694 298.559997559
574951.1875 4178694.25 298.489990234
574951.1875 4178694.25 298.519989014
574951.1875 4178694.25 298.630004883
574951.1875 4178694.25 298.640014648
574951.25 4178694 297.880004883
574951.25 4178694 297.899993896
574951.25 4178694 298.279998779
574951.25 4178694 298.269989014
574952.1875 4178694 298.630004883
574952.1875 4178693.75 298.609985352
574952.25 4178694 298.149993896
574952.25 4178694 298.130004883
574949.875 4178694.5 298.940002441
574950.1875 4178694.5 298.549987793
574950.1875 4178694.5 298.529998779
574950.25 4178694.25 298.309997559
574950.25 4178694.5 298.470001221
574950.25 4178694.5 298.450012207
574950.8125 4178694.25 298.299987793
574952.1875 4178694.5 298.299987793
574952.1875 4178694.5 298.320007324
574952.1875 4178694.25 298.029998779
574952.25 4178694.25 298.019989014
574952.25 4178694.25 298.369995117
574952.25 4178694.25 298.339996338
574952.25 4178694.5 298.420013428
574952.25 4178694.5 298.390014648
574950.25 4178694.75 298.179992676
574950.75 4178694.75 298.670013428
574950.75 4178694.75 298.700012207
574952.25 4178694.75 298.239990234
574952.25 4178694.75 298.269989014
574952.25 4178694.75 298.600006104
574952.25 4178694.75 298.619995117
574950.9375 4178695.25 298.799987793
574950.9375 4178695.25 298.829986572
574951.25 4178695.5 298.170013428
574951.3125 4178695.25 298.140014648
574951.3125 4178695.25 298.130004883
574950.75 4178695.5 299.040008545
574950.8125 4178695.75 298.790008545
574950.875 4178695.75 298.820007324
574951.3125 4178695.75 298.010009766
574951.3125 4178695.75 298.040008545
574951.3125 4178695.5 298.339996338
574951.3125 4178695.5 298.309997559
574951.3125 4178695.75 298.459991455
574951.3125 4178695.75 298.450012207
574950.25 4178696 299.579986572
574950.25 4178696 299.529998779
574950.6875 4178696 299.179992676
574950.6875 4178696 299.209991455
574951.3125 4178695.75 298.359985352
574951.3125 4178695.75 298.350006104
574951.3125 4178696.25 298.109985352
574951.3125 4178696.25 298.119995117
574951.375 4178696 298.220001221
574951.375 4178696.25 298.279998779
574951.375 4178696.25 298.260009766
574951.375 4178696 298.190002441
574951.875 4178696 297.980010986
574951.875 4178696 297.950012207
574950.625 4178696.5 299.230010986
574950.8125 4178696.5 299.720001221
574951.375 4178696.5 298.070007324
574951.375 4178696.5 298.089996338
574951.375 4178696.5 298.029998779
574951.375 4178696.5 298.049987793
574951.75 4178696.25 298.450012207
574951.75 4178696.25 298.420013428
574951.3125 4178697 298.950012207
574951.3125 4178696.75 298.799987793
574951.3125 4178696.75 298.790008545
574951.3125 4178697 298.980010986
574951.3125 4178697 299.070007324
574951.3125 4178697 299.089996338
574951.375 4178696.75 298.890014648
574951.375 4178696.75 298.869995117
574951.375 4178696.75 298.489990234
574951.375 4178696.75 297.970001221
574951.375 4178696.75 297.989990234
574951.375 4178696.75 298.459991455
574951.375 4178696.75 298.119995117
574951.4375 4178696.75 298.089996338
574951.6875 4178696.75 298.570007324
574951.6875 4178696.75 298.589996338
574949.3125 4178697.25 298.260009766
574950.5625 4178697.25 297.890014648
574951.3125 4178697 299.149993896
574951.3125 4178697 299.130004883
574951.375 4178697.25 298.929992676
574951.375 4178697.25 298.899993896
574952.4375 4178697.25 298.480010986
574952.4375 4178697.25 298.5
574952.4375 4178697.25 297.959991455
574952.4375 4178697.25 297.929992676
574952.4375 4178697.25 298.279998779
574952.4375 4178697.25 298.269989014
574952.75 4178697.25 298.570007324
574952.75 4178697.25 298.600006104
574952.875 4178697 298.029998779
574952.875 4178697 298.040008545
574948.3125 4178697.5 298.170013428
574948.3125 4178697.5 298.200012207
574949.375 4178697.75 297.820007324
574950.375 4178697.75 298.040008545
574952.375 4178697.5 298.209991455
574952.375 4178697.5 298.200012207
574952.4375 4178697.75 298
574952.4375 4178697.5 298.299987793
574952.4375 4178697.5 298.309997559
574952.4375 4178697.75 298
574948.125 4178698 298.700012207
574948.1875 4178698 298.720001221
574949.1875 4178698 297.899993896
574949.1875 4178698 297.920013428
574951.5 4178698.25 298.089996338
574951.5 4178698.25 298.119995117
574951.6875 4178697.75 298.220001221
574951.6875 4178697.75 298.190002441
574948.125 4178698.5 299.070007324
574948.125 4178698.5 299.049987793
574948.25 4178698.25 298.839996338
574948.3125 4178698.25 298.869995117
574949.3125 4178698.5 298.290008545
574949.3125 4178698.5 298.269989014
574948.25 4178699 299.049987793
574948.25 4178699 299.029998779
574949.125 4178698.75 298.470001221
574949.1875 4178698.75 298.5
574947 4178699.25 297.779998779
574947 4178699 297.760009766
574948.0625 4178699 299.140014648
574948.0625 4178699 299.109985352
574949.25 4178699 298.089996338
574949.25 4178699 298.079986572
574946.8125 4178699.5 297.910003662
574946.8125 4178699.5 297.940002441
574946.875 4178699.75 297.779998779
574946.875 4178699.75 297.799987793
574948 4178699.5 299.279998779
574948 4178699.75 299.320007324
574948.1875 4178699.5 299.369995117
574948.1875 4178699.5 299.380004883
574949 4178699.75 298.329986572
574949 4178699.75 298.350006104
574949.1875 4178699.75 298.670013428
574949.1875 4178699.75 298.630004883
574950.125 4178699.75 298.399993896
574950.125 4178699.75 298.380004883
574948.0625 4178700 299.010009766
574948.0625 4178700 298.989990234
574948.9375 4178700 297.929992676
574948.9375 4178700 297.950012207
574947.8125 4178700.5 298.5
574947.8125 4178700.5 298.519989014
574947.9375 4178700.25 297.869995117
574947.9375 4178700.25 297.839996338
574948 4178700.25 299.730010986
574948 4178700.25 299.709991455
574949.125 4178700.25 298.200012207
574949.125 4178700.25 298.230010986
574947.75 4178700.75 298.040008545
574947.75 4178700.75 298.049987793
