# .PCD v.7 - Point Cloud Data file format
VERSION .7
FIELDS x y z
SIZE 4 4 4
TYPE F F F
COUNT 1 1 1
WIDTH 70
HEIGHT 1
VIEWPOINT 0 0 0 1 0 0 0
POINTS 70
DATA ascii
574951.75 4178694.75 292.450012207
574951.75 4178694.75 292.429992676
574954.9375 4178695 292.410003662
574954.9375 4178695 292.420013428
574954.75 4178696 292.269989014
574954.8125 4178696 292.549987793
574954.8125 4178696.25 292.529998779
574955.75 4178696 292.579986572
574955.75 4178695.75 292.399993896
574954.8125 4178696.5 292.179992676
574955.75 4178696.25 292.480010986
574950.875 4178696.5 292.339996338
574950.9375 4178696.75 292.380004883
574951.875 4178697 292.440002441
574951.875 4178696.75 292.140014648
574954.8125 4178696.75 292.25
574950.9375 4178697.25 292.410003662
574954.875 4178697.25 292.190002441
574950.9375 4178697.75 292.029998779
574950.9375 4178697.75 292.059997559
574951 4178697.5 292.299987793
574953.375 4178697.75 291.940002441
574953.375 4178697.75 291.970001221
574954.375 4178698 292.399993896
574954.375 4178698 292.369995117
574954.5625 4178698 292.279998779
574951 4178698.25 292.380004883
574954.3125 4178698.5 292.299987793
574951.0625 4178699 292.239990234
574953.9375 4178699 292.540008545
574954 4178698.75 292.309997559
574954 4178698.75 292.190002441
574954 4178699 292.170013428
574950.875 4178699.75 292.309997559
574950.875 4178699.75 292.299987793
574952.0625 4178699.5 292.290008545
574950.8125 4178700.25 292.160003662
574950.8125 4178700.25 292.179992676
574948.25 4178701.25 292.269989014
574948.25 4178701.25 292.299987793
574949.375 4178701.25 292.350006104
574949.375 4178701.25 292.329986572
574948.1875 4178701.5 292.160003662
574948.1875 4178701.5 292.170013428
574948.375 4178701.5 292.220001221
574948.375 4178701.5 292.25
574947.0625 4178701.75 292.279998779
574947.0625 4178701.75 292.299987793
574947.1875 4178701.75 292.160003662
574947.1875 4178701.75 292.170013428
574948.125 4178702.25 292.200012207
574948.125 4178702.25 292.209991455
574949.4375 4178702.25 291.910003662
574949.4375 4178702.25 291.950012207
574946.9375 4178702.75 291.929992676
574946.9375 4178702.75 291.899993896
574946.875 4178703.25 292.299987793
574946.875 4178703.25 292.279998779
574947.0625 4178703 292.160003662
574947.0625 4178703 292.190002441
574947.9375 4178703 291.679992676
574948 4178703 291.700012207
574947 4178703.5 292.239990234
574947 4178703.5 292.230010986
574947.9375 4178703.75 292.170013428
574947.9375 4178703.75 292.149993896
574946.75 4178704.25 292.170013428
574946.75 4178704.25 292.200012207
574946.9375 4178704.25 292.070007324
574946.9375 4178704.25 292.040008545
