# .PCD v.7 - Point Cloud Data file format
VERSION .7
FIELDS x y z
SIZE 4 4 4
TYPE F F F
COUNT 1 1 1
WIDTH 109
HEIGHT 1
VIEWPOINT 0 0 0 1 0 0 0
POINTS 109
DATA ascii
575036.375 4178554 302.670013428
575036.375 4178554.5 303.220001221
575036.5625 4178554.5 305.880004883
575036.5625 4178554.5 305.910003662
575036.75 4178554.5 302.820007324
575036.3125 4178554.75 305.070007324
575036.3125 4178554.75 305.049987793
575037.375 4178554.75 305.869995117
575037.75 4178554.75 305.619995117
575036.5625 4178555 306.350006104
575036.5625 4178555 306.380004883
575037.375 4178555.25 306.200012207
575038 4178555.25 302.100006104
575039 4178555 304.989990234
575035.4375 4178555.5 301.910003662
575035.4375 4178555.5 306.149993896
575035.75 4178555.5 301.679992676
575035.75 4178555.5 301.690002441
575036.25 4178555.75 306.640014648
575036.25 4178555.75 306.619995117
575036.375 4178555.5 304.600006104
575036.5625 4178555.5 306.700012207
575036.5625 4178555.5 306.679992676
575037.375 4178555.75 306.880004883
575037.375 4178555.75 306.899993896
575037.6875 4178555.75 307.029998779
575037.75 4178555.75 307
575038 4178555.75 302.980010986
575038 4178555.75 302.959991455
575039 4178555.5 305.579986572
575039 4178555.5 305.549987793
575039.875 4178555.5 305.739990234
575036.25 4178556.25 307.299987793
575036.25 4178556.25 307.279998779
575036.5625 4178556 307.170013428
575036.5625 4178556 307.140014648
575037.375 4178556.25 307.390014648
575037.375 4178556.25 307.429992676
575038.625 4178555.75 306.350006104
575038.625 4178555.75 306.369995117
575038.9375 4178555.75 307.260009766
575038.9375 4178555.75 307.290008545
575039.875 4178556 305.809997559
575039.875 4178556 305.799987793
575035.25 4178556.25 304.940002441
575035.5 4178556.5 306.640014648
575035.5625 4178556.25 305.209991455
575035.5625 4178556.25 305.190002441
575036.5 4178556.5 308.359985352
575036.5 4178556.5 308.339996338
575037.75 4178556.25 307.100006104
575037.75 4178556.25 307.130004883
575038.5625 4178556.25 307.600006104
575038.5625 4178556.25 307.609985352
575038.9375 4178556.25 307.720001221
575038.9375 4178556.25 307.75
575035.25 4178556.75 305.600006104
575035.25 4178556.75 305.579986572
575035.5 4178556.5 306.609985352
575036.375 4178557 306.089996338
575036.375 4178557 306.119995117
575037.3125 4178556.5 308.350006104
575037.375 4178556.5 308.329986572
575037.6875 4178556.75 308.470001221
575037.6875 4178556.75 308.440002441
575038.5625 4178556.75 307.739990234
575038.5625 4178556.75 307.760009766
575038.9375 4178556.75 308.279998779
575038.9375 4178556.75 308.260009766
575034.4375 4178557 305.209991455
575035.25 4178557.25 305.899993896
575035.5 4178557.25 306.450012207
575035.5 4178557.25 306.429992676
575036.25 4178557.25 307.920013428
575036.25 4178557.25 307.910003662
575036.5625 4178557 307.989990234
575036.5625 4178557 307.970001221
575037.4375 4178557.25 307.630004883
575037.6875 4178557.25 308.570007324
575037.6875 4178557.25 308.589996338
575034.5 4178557.75 305.269989014
575035.25 4178557.75 306.739990234
575036.5625 4178557.5 308.450012207
575036.5625 4178557.5 308.470001221
575037.375 4178557.75 308.739990234
575038.625 4178557.5 307.679992676
575039 4178557.5 307.890014648
575035.625 4178558 305.809997559
575036.3125 4178557.75 307.959991455
575036.3125 4178557.75 307.989990234
575037.75 4178557.75 308.459991455
575037.75 4178557.75 308.429992676
575038.625 4178558 308.25
575035.25 4178558.25 306.619995117
575035.5625 4178558.25 306.929992676
575036.75 4178558.5 306.570007324
575037.4375 4178558.25 308.459991455
575037.4375 4178558.25 308.440002441
575037.75 4178558.25 308.579986572
575036.375 4178558.5 306.970001221
575035.375 4178559 305.959991455
575035.6875 4178559 305.929992676
575036.75 4178559 306.510009766
575037.5 4178559 307.980010986
575037.875 4178559 308.040008545
575036.625 4178560 305.299987793
575036.9375 4178559.75 305.220001221
575036.5625 4178560.5 305.950012207
575036.875 4178560.25 306.079986572
