# .PCD v.7 - Point Cloud Data file format
VERSION .7
FIELDS x y z
SIZE 4 4 4
TYPE F F F
COUNT 1 1 1
WIDTH 804
HEIGHT 1
VIEWPOINT 0 0 0 1 0 0 0
POINTS 804
DATA ascii
575072.4375 4178419.75 295.489990234
575071.875 4178420.25 295.320007324
575071.875 4178420.25 295.299987793
575071.375 4178420.75 295.470001221
575070.8125 4178421.25 295.380004883
575070.8125 4178421.25 295.350006104
575069.6875 4178422.25 295.410003662
575069.6875 4178422.25 295.390014648
575069.75 4178422.75 295.309997559
575069.75 4178422.75 295.279998779
575066.125 4178423.25 295.260009766
575066.125 4178423.25 295.279998779
575067.9375 4178423 295.269989014
575067.9375 4178423 295.290008545
575069.125 4178423 295.350006104
575069.125 4178423 295.390014648
575064.25 4178423.25 295.25
575064.25 4178423.25 295.230010986
575066.75 4178423.75 295.170013428
575066.75 4178423.75 295.160003662
575067.375 4178423.75 295.260009766
575067.375 4178423.75 295.239990234
575065.5 4178423.75 295.279998779
575066.1875 4178423.75 295.299987793
575068 4178423.75 295.350006104
575068 4178423.75 295.369995117
575063.0625 4178424.25 295.209991455
575063.6875 4178424.5 295.239990234
575063.6875 4178424.5 295.220001221
575065 4178424.25 295.019989014
575065 4178424.25 295.010009766
575066.1875 4178424.25 295.25
575066.1875 4178424.25 295.279998779
575068 4178424.25 295.309997559
575068 4178424.25 295.299987793
575067.4375 4178424.75 295.269989014
575067.4375 4178424.75 295.25
575071.0625 4178424.75 295.369995117
575071.0625 4178424.75 295.410003662
575063.75 4178425 295.200012207
575063.75 4178425 295.239990234
575065.625 4178425 295.290008545
575062.5 4178425.5 295.040008545
575062.5 4178425.5 295
575063.125 4178425.5 295.149993896
575063.125 4178425.5 295.130004883
575065.0625 4178425.5 295.25
575065.0625 4178425.5 295.239990234
575065.625 4178425.5 295.279998779
575065.6875 4178425.5 295.25
575066.3125 4178425.5 295.269989014
575066.3125 4178425.5 295.25
575069.3125 4178425.5 295.200012207
575069.3125 4178425.5 295.170013428
575071.125 4178425.25 295.410003662
575071.125 4178425.25 295.420013428
575064.4375 4178425.75 295.230010986
575064.4375 4178425.75 295.190002441
575065.0625 4178426 295.260009766
575067.5625 4178426 295.209991455
575067.5625 4178426 295.179992676
575068.75 4178426 295.359985352
575068.75 4178426 295.339996338
575069.375 4178426 295.329986572
575069.375 4178426 295.339996338
575070 4178425.75 295.369995117
575070 4178425.75 295.359985352
575061.9375 4178426.5 295.010009766
575061.9375 4178426.5 294.980010986
575062.5625 4178426 295.200012207
575062.5625 4178426 295.170013428
575063.1875 4178426 294.929992676
575063.1875 4178426 294.950012207
575063.8125 4178426.25 295.190002441
575063.8125 4178426.25 295.220001221
575064.4375 4178426.25 295.079986572
575064.4375 4178426.25 295.109985352
575065.6875 4178426.25 295.089996338
575065.6875 4178426.25 295.070007324
575066.375 4178426 295.070007324
575066.375 4178426 295.089996338
575068.125 4178426 295.380004883
575072.3125 4178426 295.489990234
575062.5625 4178426.75 295.149993896
575062.5625 4178426.75 295.170013428
575063.25 4178426.75 294.910003662
575063.25 4178426.75 294.880004883
575063.875 4178426.75 295.200012207
575063.875 4178426.75 295.179992676
575065.125 4178426.5 295.130004883
575065.125 4178426.5 295.109985352
575065.75 4178426.75 294.980010986
575065.75 4178426.75 295
575066.9375 4178426.5 295.279998779
575066.9375 4178426.5 295.309997559
575067.625 4178426.5 295.109985352
575067.625 4178426.5 295.130004883
575068.8125 4178426.5 295.399993896
575071.8125 4178426.75 295.489990234
575061.3125 4178427 295.109985352
575061.3125 4178427 295.089996338
575061.9375 4178427 295.170013428
575061.9375 4178427 295.179992676
575065.1875 4178427.25 295.079986572
575065.1875 4178427.25 295.070007324
575067 4178427 295.299987793
575067 4178427 295.269989014
575067.625 4178427.25 295.260009766
575067.625 4178427.25 295.279998779
575062 4178427.5 295.100006104
575062 4178427.5 295.119995117
575062.625 4178427.25 294.980010986
575062.625 4178427.25 294.959991455
575063.25 4178427.25 294.899993896
575063.25 4178427.25 294.880004883
575063.9375 4178427.25 295.019989014
575063.9375 4178427.25 295.049987793
575064.5625 4178427.5 295.029998779
575064.5625 4178427.5 295.049987793
575065.75 4178427.25 295.279998779
575065.75 4178427.25 295.309997559
575060.75 4178427.75 294.820007324
575060.75 4178427.75 294.839996338
575061.375 4178427.75 294.970001221
575061.375 4178427.75 294.950012207
575062.6875 4178427.75 294.850006104
575062.6875 4178427.75 294.820007324
575064 4178428 295.079986572
575064 4178428 295.059997559
575065.25 4178427.75 294.940002441
575065.25 4178427.75 294.950012207
575065.8125 4178428 295.119995117
575065.8125 4178428 295.100006104
575067 4178427.75 295.200012207
575067.0625 4178427.75 295.190002441
575067.6875 4178427.75 295.170013428
575067.6875 4178427.75 295.200012207
575069.5 4178427.75 295.410003662
575070.125 4178428 295.450012207
575070.125 4178428 295.440002441
575070.6875 4178427.75 295.320007324
575070.6875 4178427.75 295.299987793
575071.3125 4178427.75 295.470001221
575071.3125 4178427.75 295.470001221
575060.8125 4178428.25 294.959991455
575060.8125 4178428.25 294.950012207
575061.4375 4178428.25 295.049987793
575061.4375 4178428.25 295.019989014
575062.0625 4178428.25 294.920013428
575062.0625 4178428.25 294.959991455
575064.625 4178428 294.880004883
575064.625 4178428 294.859985352
575065.25 4178428.25 295.029998779
575065.25 4178428.25 295.049987793
575067.0625 4178428.25 295.290008545
575067.0625 4178428.25 295.269989014
575067.75 4178428.25 295.260009766
575067.75 4178428.25 295.299987793
575068.9375 4178428.25 295.179992676
575068.9375 4178428.25 295.190002441
575062.0625 4178428.75 295.049987793
575062.0625 4178428.75 295.019989014
575062.75 4178428.5 294.869995117
575062.75 4178428.5 294.850006104
575064 4178428.5 295.010009766
575064 4178428.5 294.989990234
575064.625 4178428.5 295.230010986
575064.625 4178428.5 295.269989014
575065.875 4178428.5 295.100006104
575065.875 4178428.5 295.059997559
575066.5625 4178428.5 294.980010986
575066.5625 4178428.5 294.959991455
575070.1875 4178428.5 295.410003662
575070.1875 4178428.5 295.369995117
575060.25 4178429 295.130004883
575060.25 4178429 295.109985352
575060.8125 4178429 295.149993896
575061.5 4178428.75 294.970001221
575061.5 4178428.75 295
575062.75 4178429 294.940002441
575062.75 4178429 294.980010986
575064.0625 4178429 295.160003662
575064.0625 4178429 295.190002441
575064.6875 4178429.25 295.209991455
575064.6875 4178429.25 295.239990234
575065.3125 4178429 295.119995117
575065.3125 4178429 295.149993896
575066.5625 4178429 295.109985352
575066.5625 4178429 295.140014648
575067.125 4178429 295.359985352
575067.125 4178429 295.329986572
575068.375 4178429 295.290008545
575068.375 4178429 295.260009766
575069 4178428.75 295.350006104
575069 4178428.75 295.369995117
575057.75 4178429.5 294.950012207
575057.75 4178429.5 294.929992676
575059.5625 4178429.5 295.100006104
575059.5625 4178429.5 295.070007324
575060.875 4178429.5 294.980010986
575060.875 4178429.5 295
575061.5 4178429.5 294.869995117
575061.5 4178429.5 294.890014648
575062.125 4178429.25 295.109985352
575062.125 4178429.25 295.079986572
575065.375 4178429.5 294.970001221
575065.375 4178429.5 295
575066.625 4178429.5 295.200012207
575066.625 4178429.5 295.170013428
575068.4375 4178429.5 295.359985352
575068.4375 4178429.5 295.369995117
575057.125 4178429.75 295.029998779
575057.125 4178429.75 295
575059.0625 4178429.75 294.679992676
575059.0625 4178429.75 294.700012207
575059.625 4178430 295.089996338
575059.625 4178430 295.079986572
575060.25 4178429.75 294.899993896
575060.25 4178429.75 294.890014648
575061.5625 4178430 294.799987793
575061.5625 4178430 294.799987793
575062.1875 4178430 295.130004883
575062.1875 4178430 295.100006104
575062.8125 4178429.5 294.910003662
575062.8125 4178429.5 294.880004883
575063.4375 4178429.75 295.179992676
575063.4375 4178429.75 295.170013428
575064.125 4178429.75 295.200012207
575064.125 4178429.75 295.200012207
575064.6875 4178429.75 295.179992676
575064.75 4178429.75 295.160003662
575057.75 4178430 294.940002441
575057.75 4178430 294.959991455
575058.375 4178430 294.779998779
575058.375 4178430 294.799987793
575060.3125 4178430.25 294.869995117
575060.3125 4178430.25 294.850006104
575060.9375 4178430 294.799987793
575060.9375 4178430 294.769989014
575062.875 4178430.25 295.130004883
575062.875 4178430.25 295.109985352
575063.5 4178430.25 294.890014648
575063.5 4178430.25 294.920013428
575064.1875 4178430.25 295.029998779
575064.1875 4178430.25 295
575064.75 4178430.5 295.179992676
575064.75 4178430.5 295.190002441
575065.4375 4178430 294.970001221
575065.4375 4178430 294.950012207
575067.1875 4178430 295.239990234
575067.1875 4178430 295.269989014
575067.875 4178430 295.190002441
575067.875 4178430 295.200012207
575056.5625 4178430.5 294.649993896
575056.5625 4178430.5 294.630004883
575057.125 4178430.5 294.859985352
575057.125 4178430.5 294.890014648
575057.875 4178430.75 294.660003662
575057.875 4178430.75 294.640014648
575058.4375 4178430.75 294.760009766
575058.4375 4178430.75 294.730010986
575059.0625 4178430.5 294.929992676
575059.0625 4178430.5 294.910003662
575059.6875 4178430.5 294.570007324
575059.6875 4178430.5 294.549987793
575060.9375 4178430.75 295.040008545
575060.9375 4178430.75 295.070007324
575061.625 4178430.5 294.890014648
575061.625 4178430.5 294.890014648
575062.25 4178430.5 294.920013428
575062.25 4178430.5 294.910003662
575062.875 4178430.75 295.059997559
575062.875 4178430.75 295.079986572
575065.4375 4178430.75 295.200012207
575065.4375 4178430.75 295.179992676
575066.6875 4178430.75 295.209991455
575066.6875 4178430.75 295.190002441
575067.25 4178430.75 295.359985352
575067.9375 4178430.75 295.329986572
575067.9375 4178430.75 295.309997559
575056.625 4178431 294.640014648
575056.625 4178431 294.609985352
575057.1875 4178431 295.019989014
575057.1875 4178431 295.029998779
575059.125 4178431 294.790008545
575059.125 4178431 294.820007324
575059.75 4178431.25 294.880004883
575059.75 4178431.25 294.850006104
575060.375 4178430.75 294.820007324
575060.375 4178430.75 294.850006104
575061.6875 4178431.25 294.839996338
575061.6875 4178431.25 294.820007324
575062.25 4178431 294.850006104
575062.25 4178431 294.880004883
575063.5 4178430.75 295.079986572
575063.5 4178430.75 295.100006104
575064.1875 4178430.75 295.019989014
575064.1875 4178430.75 294.989990234
575064.8125 4178431 295.089996338
575064.8125 4178431 295.059997559
575066.0625 4178430.75 295.049987793
575066.0625 4178430.75 295.019989014
575057.875 4178431.25 294.760009766
575057.875 4178431.25 294.739990234
575058.4375 4178431.25 294.679992676
575058.4375 4178431.25 294.660003662
575060.4375 4178431.5 294.859985352
575060.4375 4178431.5 294.829986572
575061 4178431.25 294.989990234
575061 4178431.25 295.019989014
575062.9375 4178431.25 295.070007324
575062.9375 4178431.25 295.049987793
575063.5625 4178431.5 295.149993896
575063.5625 4178431.5 295.160003662
575064.25 4178431.5 295.209991455
575064.25 4178431.5 295.230010986
575064.875 4178431.5 295.079986572
575064.875 4178431.5 295.059997559
575065.5 4178431.25 295.010009766
575065.5 4178431.25 295.029998779
575066.125 4178431.5 295.059997559
575066.125 4178431.5 295.079986572
575066.75 4178431.25 295.25
575066.75 4178431.25 295.230010986
575067.3125 4178431.25 295.109985352
575067.3125 4178431.25 295.140014648
575067.9375 4178431.25 295.209991455
575067.9375 4178431.25 295.190002441
575056.0625 4178431.75 294.470001221
575056.0625 4178431.75 294.440002441
575056.625 4178431.75 294.799987793
575056.625 4178431.75 294.829986572
575057.25 4178431.5 294.760009766
575057.25 4178431.5 294.75
575057.9375 4178431.75 294.920013428
575057.9375 4178431.75 294.959991455
575058.5 4178431.75 294.799987793
575058.5 4178431.75 294.809997559
575059.1875 4178431.5 294.739990234
575059.1875 4178431.5 294.730010986
575059.75 4178431.75 294.850006104
575059.75 4178431.75 294.829986572
575061.0625 4178431.75 294.829986572
575061.0625 4178431.75 294.859985352
575061.6875 4178431.75 294.869995117
575061.6875 4178431.75 294.850006104
575062.3125 4178431.75 294.899993896
575062.3125 4178431.75 294.929992676
575065.5625 4178431.75 295.049987793
575065.5625 4178431.75 295.059997559
575066.125 4178432 295.279998779
575066.125 4178432 295.269989014
575066.75 4178432 295.329986572
575066.75 4178432 295.350006104
575068 4178431.75 295.299987793
575068 4178431.75 295.290008545
575056.0625 4178432.25 294.559997559
575056.0625 4178432.25 294.540008545
575056.6875 4178432.25 294.470001221
575056.6875 4178432.25 294.450012207
575057.3125 4178432.25 294.529998779
575057.3125 4178432.25 294.549987793
575059.1875 4178432.25 294.649993896
575059.1875 4178432.25 294.670013428
575059.8125 4178432.25 294.869995117
575059.8125 4178432.25 294.880004883
575060.5 4178432 294.690002441
575060.5 4178432 294.700012207
575061.75 4178432.25 294.730010986
575061.75 4178432.25 294.75
575062.375 4178432.25 295
575062.375 4178432.25 295.010009766
575063.625 4178432 294.869995117
575063.625 4178432 294.890014648
575064.25 4178432 295.279998779
575064.875 4178432 295.070007324
575064.875 4178432 295.040008545
575055.5 4178432.5 294.670013428
575055.5 4178432.5 294.700012207
575057.3125 4178432.75 294.459991455
575057.3125 4178432.75 294.489990234
575058 4178432.5 294.589996338
575058 4178432.5 294.600006104
575058.5625 4178432.5 294.619995117
575058.5625 4178432.5 294.640014648
575059.25 4178432.75 294.820007324
575059.25 4178432.75 294.799987793
575060.5 4178432.75 294.649993896
575060.5 4178432.75 294.670013428
575061.125 4178432.5 294.679992676
575061.125 4178432.5 294.720001221
575063.0625 4178432.5 294.850006104
575063.0625 4178432.5 294.839996338
575063.625 4178432.5 294.970001221
575063.625 4178432.5 294.959991455
575064.3125 4178432.5 295.260009766
575064.3125 4178432.5 295.230010986
575064.9375 4178432.75 294.899993896
575064.9375 4178432.75 294.929992676
575065.5625 4178432.5 295.179992676
575065.5625 4178432.5 295.149993896
575054.9375 4178433 294.410003662
575054.9375 4178433 294.420013428
575055.5 4178433.25 294.899993896
575055.5 4178433.25 294.920013428
575056.125 4178433 294.510009766
575056.125 4178433 294.480010986
575056.75 4178432.75 294.609985352
575056.75 4178432.75 294.630004883
575058 4178433 294.510009766
575058 4178433 294.489990234
575058.5625 4178433 294.619995117
575058.5625 4178433 294.600006104
575059.875 4178433 294.730010986
575059.875 4178433 294.700012207
575061.125 4178433 294.850006104
575061.125 4178433 294.820007324
575061.8125 4178433 294.779998779
575061.8125 4178433 294.760009766
575062.375 4178432.75 295.119995117
575062.375 4178432.75 295.100006104
575063.0625 4178433 295
575063.0625 4178433 294.980010986
575063.6875 4178433.25 295.100006104
575063.6875 4178433.25 295.130004883
575065.625 4178433 295.140014648
575065.625 4178433 295.160003662
575056.125 4178433.5 294.529998779
575056.1875 4178433.5 294.519989014
575056.8125 4178433.5 294.440002441
575056.8125 4178433.5 294.480010986
575057.375 4178433.25 294.410003662
575057.375 4178433.25 294.390014648
575059.3125 4178433.25 294.630004883
575059.3125 4178433.25 294.649993896
575059.875 4178433.5 294.869995117
575059.875 4178433.5 294.850006104
575060.5625 4178433.25 294.75
575060.5625 4178433.25 294.739990234
575061.875 4178433.5 294.630004883
575061.875 4178433.5 294.660003662
575062.4375 4178433.5 295.130004883
575062.4375 4178433.5 295.119995117
575064.375 4178433.25 295.209991455
575064.375 4178433.25 295.230010986
575054.9375 4178433.75 294.239990234
575054.9375 4178433.5 294.260009766
575055.5625 4178433.75 294.720001221
575055.5625 4178433.75 294.760009766
575057.4375 4178434 294.730010986
575057.4375 4178434 294.739990234
575058.0625 4178433.75 294.579986572
575058.0625 4178433.75 294.559997559
575058.625 4178433.5 294.579986572
575058.625 4178433.5 294.549987793
575059.375 4178434 294.5
575059.375 4178434 294.519989014
575060.5625 4178433.75 294.850006104
575060.5625 4178433.75 294.829986572
575061.1875 4178433.5 294.850006104
575061.1875 4178433.5 294.829986572
575063.125 4178433.75 295.079986572
575063.125 4178433.75 295.070007324
575054.4375 4178434 294.290008545
575054.4375 4178434 294.269989014
575055 4178434.25 294.510009766
575055 4178434.25 294.529998779
575055.625 4178434.25 294.170013428
575055.625 4178434.25 294.160003662
575056.1875 4178434 294.25
575056.25 4178434 294.230010986
575056.875 4178434 294.160003662
575056.875 4178434 294.130004883
575058.125 4178434.25 294.670013428
575058.125 4178434.25 294.640014648
575058.6875 4178434.25 294.820007324
575058.6875 4178434.25 294.779998779
575059.9375 4178434 294.709991455
575059.9375 4178434 294.700012207
575061.25 4178434.25 294.899993896
575061.25 4178434.25 294.869995117
575061.875 4178434 294.890014648
575061.875 4178434 294.920013428
575062.4375 4178434 295.200012207
575062.4375 4178434 295.220001221
575063.125 4178434.25 295.209991455
575063.125 4178434.25 295.220001221
575054.4375 4178434.5 294.149993896
575054.4375 4178434.5 294.130004883
575056.25 4178434.75 294.399993896
575056.25 4178434.75 294.420013428
575056.875 4178434.5 294.390014648
575056.875 4178434.5 294.399993896
575057.4375 4178434.5 294.679992676
575057.4375 4178434.5 294.679992676
575059.375 4178434.5 294.529998779
575059.375 4178434.5 294.549987793
575060 4178434.75 294.790008545
575060 4178434.75 294.809997559
575060.625 4178434.5 294.869995117
575060.625 4178434.5 294.899993896
575061.25 4178434.75 294.899993896
575061.25 4178434.75 294.940002441
575061.9375 4178434.75 295.160003662
575061.9375 4178434.75 295.179992676
575062.5 4178434.5 295.160003662
575062.5 4178434.5 295.149993896
575053.875 4178434.75 294.119995117
575053.875 4178434.75 294.100006104
575055.0625 4178434.75 294.320007324
575055.0625 4178434.75 294.339996338
575055.6875 4178435 294.380004883
575055.6875 4178435 294.420013428
575057.5 4178435 294.760009766
575057.5 4178435 294.75
575058.125 4178434.75 294.589996338
575058.125 4178434.75 294.609985352
575058.6875 4178434.75 294.890014648
575058.6875 4178434.75 294.859985352
575059.4375 4178435 294.760009766
575059.4375 4178435 294.739990234
575060.6875 4178435 295.019989014
575060.6875 4178435 295
575053.9375 4178435.5 294.109985352
575053.9375 4178435.5 294.130004883
575054.5 4178435.25 294.239990234
575054.5 4178435.25 294.230010986
575055.0625 4178435.5 294.230010986
575055.0625 4178435.5 294.25
575055.6875 4178435.5 294.540008545
575055.6875 4178435.5 294.519989014
575056.25 4178435.25 294.459991455
575056.3125 4178435.25 294.440002441
575056.9375 4178435.25 294.589996338
575056.9375 4178435.25 294.609985352
575058.1875 4178435.5 294.549987793
575058.1875 4178435.5 294.519989014
575058.75 4178435.5 294.920013428
575058.75 4178435.5 294.899993896
575060 4178435.25 294.920013428
575060 4178435.25 294.899993896
575053.375 4178435.75 294.220001221
575053.375 4178435.75 294.239990234
575054.5625 4178435.75 294.149993896
575054.5625 4178435.75 294.130004883
575056.3125 4178436 294.429992676
575056.3125 4178436 294.410003662
575056.9375 4178435.75 294.519989014
575056.9375 4178435.75 294.489990234
575057.5 4178435.75 294.829986572
575057.5 4178435.75 294.850006104
575059.4375 4178435.75 294.920013428
575059.4375 4178435.75 294.910003662
575060.0625 4178435.75 295.010009766
575060.0625 4178435.75 295.029998779
575060.6875 4178435.5 295.160003662
575053.9375 4178436 294.239990234
575053.9375 4178436 294.220001221
575054.5625 4178436.25 294.480010986
575055.125 4178436 294.309997559
575055.125 4178436 294.320007324
575055.75 4178436 294.299987793
575055.75 4178436 294.339996338
575057.5625 4178436.25 294.760009766
575057.5625 4178436.25 294.790008545
575058.25 4178436 294.679992676
575058.25 4178436 294.709991455
575058.8125 4178436 294.760009766
575058.8125 4178436 294.779998779
575060.75 4178436.25 295.160003662
575060.75 4178436.25 295.130004883
575053.375 4178436.25 294.549987793
575053.375 4178436.25 294.529998779
575054 4178436.5 294.450012207
575054 4178436.5 294.470001221
575054.5625 4178436.25 294.450012207
575055.1875 4178436.5 294.290008545
575055.1875 4178436.5 294.309997559
575055.8125 4178436.75 294.570007324
575055.8125 4178436.75 294.549987793
575056.375 4178436.5 294.489990234
575056.375 4178436.5 294.510009766
575057 4178436.25 294.950012207
575057 4178436.25 294.929992676
575058.25 4178436.5 295.049987793
575058.25 4178436.5 295.079986572
575058.8125 4178436.5 294.779998779
575058.8125 4178436.5 294.769989014
575060.0625 4178436.5 295.140014648
575060.0625 4178436.5 295.160003662
575052.8125 4178437 294.309997559
575052.8125 4178437 294.269989014
575053.4375 4178437 294.489990234
575053.4375 4178437 294.510009766
575054.625 4178437 294.399993896
575054.625 4178437 294.429992676
575056.375 4178437 294.559997559
575056.375 4178437 294.549987793
575057 4178437 294.809997559
575057 4178437 294.829986572
575057.625 4178436.75 294.679992676
575057.625 4178436.75 294.709991455
575059.5 4178436.75 295.100006104
575059.5 4178436.75 295.119995117
575060.125 4178437 295.160003662
575054 4178437.25 294.450012207
575054 4178437.25 294.470001221
575054.625 4178437.5 294.640014648
575054.625 4178437.5 294.619995117
575055.1875 4178437.25 294.679992676
575055.1875 4178437.25 294.660003662
575055.8125 4178437.25 294.619995117
575055.8125 4178437.25 294.600006104
575057.0625 4178437.5 294.820007324
575057.0625 4178437.5 294.790008545
575058.3125 4178437.25 294.890014648
575058.3125 4178437.25 294.929992676
575058.875 4178437.25 295.049987793
575058.875 4178437.25 295.019989014
575052.3125 4178437.5 294.279998779
575052.3125 4178437.5 294.260009766
575052.875 4178437.75 294.290008545
575052.875 4178437.75 294.309997559
575053.4375 4178437.5 294.540008545
575053.4375 4178437.5 294.529998779
575054.0625 4178437.75 294.429992676
575054.0625 4178437.75 294.420013428
575055.25 4178437.75 294.690002441
575055.25 4178437.75 294.670013428
575055.875 4178437.75 294.790008545
575055.875 4178437.75 294.769989014
575056.4375 4178437.75 294.679992676
575056.4375 4178437.75 294.660003662
575052.375 4178438 294.190002441
575052.375 4178438 294.209991455
575052.875 4178438.25 294.440002441
575052.875 4178438.25 294.410003662
575053.5 4178438 294.600006104
575053.5 4178438 294.609985352
575054.6875 4178438 294.869995117
575054.6875 4178438 294.850006104
575056.4375 4178438.25 294.839996338
575056.5 4178438.25 294.809997559
575057.125 4178438 294.760009766
575057.125 4178438 294.790008545
575052.375 4178438.75 294.290008545
575052.375 4178438.75 294.25
575053.5625 4178438.75 294.410003662
575053.5625 4178438.75 294.440002441
575054.0625 4178438.25 294.700012207
575054.0625 4178438.25 294.670013428
575054.75 4178438.75 294.589996338
575054.75 4178438.75 294.609985352
575055.25 4178438.25 294.660003662
575055.25 4178438.25 294.670013428
575055.875 4178438.5 294.839996338
575055.875 4178438.5 294.809997559
575057.125 4178438.75 295.059997559
575057.125 4178438.75 295.029998779
575051.75 4178438.75 294.350006104
575051.75 4178438.75 294.359985352
575052.9375 4178438.75 294.309997559
575052.9375 4178438.75 294.339996338
575054.125 4178439 294.5
575054.125 4178439 294.470001221
575055.3125 4178439 294.809997559
575055.3125 4178439 294.790008545
575055.9375 4178439 294.820007324
575055.9375 4178439 294.799987793
575056.5 4178438.75 295.049987793
575051.25 4178439.25 294.410003662
575051.25 4178439.25 294.429992676
575051.8125 4178439.25 294.290008545
575051.8125 4178439.25 294.269989014
575052.4375 4178439.25 294.470001221
575052.4375 4178439.25 294.450012207
575053 4178439.5 294.559997559
575053 4178439.5 294.540008545
575053.5625 4178439.25 294.720001221
575053.5625 4178439.25 294.690002441
575054.75 4178439.25 294.570007324
575054.75 4178439.25 294.549987793
575056.5625 4178439.25 294.950012207
575056.5625 4178439.25 294.920013428
575057.1875 4178439.25 295
575057.1875 4178439.25 295.029998779
575051.3125 4178439.75 294.450012207
575051.3125 4178439.75 294.420013428
575052.4375 4178439.75 294.609985352
575052.4375 4178439.75 294.579986572
575053.625 4178439.75 294.679992676
575053.625 4178439.75 294.700012207
575054.1875 4178439.5 294.690002441
575054.1875 4178439.5 294.709991455
575054.8125 4178439.75 294.850006104
575054.8125 4178439.75 294.820007324
575055.3125 4178439.5 294.940002441
575055.3125 4178439.5 294.910003662
575057.8125 4178439.75 295.059997559
575057.8125 4178439.75 295.049987793
575051.8125 4178440 294.660003662
575051.8125 4178440 294.649993896
575053 4178440 294.470001221
575053 4178440 294.440002441
575054.1875 4178440.25 294.529998779
575054.1875 4178440.25 294.549987793
575055.375 4178440 294.970001221
575055.375 4178440 294.989990234
575050.75 4178440.5 294.220001221
575050.75 4178440.5 294.239990234
575051.3125 4178440.5 294.519989014
575051.3125 4178440.5 294.5
575051.875 4178440.5 294.459991455
575051.875 4178440.5 294.480010986
575052.5 4178440.5 294.369995117
575052.5 4178440.5 294.390014648
575053 4178440.5 294.779998779
575053 4178440.5 294.75
575053.625 4178440.5 294.690002441
575053.625 4178440.5 294.720001221
575054.8125 4178440.5 294.709991455
575054.8125 4178440.5 294.690002441
575056.625 4178440.5 294.950012207
575056.625 4178440.5 294.959991455
575050.75 4178441 294.230010986
575050.75 4178441 294.269989014
575051.375 4178441 294.410003662
575051.375 4178441 294.420013428
575052.5 4178441 294.640014648
575052.5 4178441 294.619995117
575053.6875 4178441 294.880004883
575053.6875 4178441 294.899993896
575054.875 4178441 295.010009766
575050.25 4178441.25 294.170013428
575050.25 4178441.25 294.149993896
575051.9375 4178441 294.230010986
575051.9375 4178441 294.260009766
575053.0625 4178441.25 294.600006104
575053.0625 4178441.25 294.579986572
575050.3125 4178441.75 294.119995117
575050.3125 4178441.75 294.109985352
575050.75 4178441.75 294.529998779
575050.75 4178441.75 294.519989014
575051.4375 4178441.5 294.359985352
575051.4375 4178441.5 294.350006104
575051.9375 4178441.75 294.489990234
575051.9375 4178441.75 294.470001221
575052.5625 4178441.5 294.489990234
575052.5625 4178441.5 294.480010986
575053.125 4178441.75 294.769989014
575053.125 4178441.75 294.739990234
575053.75 4178441.5 294.769989014
575053.75 4178441.5 294.769989014
575054.3125 4178441.75 294.970001221
575054.3125 4178441.75 294.950012207
575050.8125 4178442.25 294.459991455
575050.8125 4178442.25 294.440002441
575051.4375 4178442.25 294.429992676
575051.4375 4178442.25 294.459991455
575051.9375 4178442.25 294.720001221
575052 4178442.25 294.690002441
575052.625 4178442.25 294.760009766
575052.625 4178442.25 294.790008545
575053.75 4178442.25 294.970001221
575053.75 4178442.25 294.959991455
575049.1875 4178442.5 294.480010986
575049.1875 4178442.5 294.450012207
575049.6875 4178442.25 294.230010986
575049.6875 4178442.25 294.200012207
575050.3125 4178442.25 294.260009766
575050.3125 4178442.25 294.279998779
575049.75 4178442.75 294.350006104
575049.75 4178442.75 294.369995117
575050.375 4178443 294.450012207
575050.375 4178443 294.470001221
575050.875 4178442.75 294.660003662
575050.875 4178442.75 294.630004883
575051.5 4178442.75 294.790008545
575051.5 4178442.75 294.809997559
575053.1875 4178443 294.769989014
575053.1875 4178443 294.790008545
575049.25 4178443.25 294.440002441
575049.25 4178443.25 294.410003662
575049.75 4178443.5 294.450012207
575049.75 4178443.5 294.410003662
575050.875 4178443.5 294.549987793
575050.875 4178443.5 294.519989014
575049.25 4178443.75 294.600006104
575049.25 4178443.75 294.570007324
575050.375 4178443.5 294.649993896
575050.375 4178443.5 294.670013428
575048.6875 4178444 294.510009766
575048.6875 4178444 294.480010986
575049.8125 4178444 294.649993896
575049.8125 4178444 294.619995117
575050.9375 4178444 294.75
575050.9375 4178444 294.720001221
575048.1875 4178444.5 294.779998779
575048.6875 4178444.5 294.820007324
575048.6875 4178444.5 294.799987793
575049.8125 4178444.5 294.809997559
575049.8125 4178444.5 294.799987793
575047.6875 4178446.25 294.75
575047.6875 4178446.25 294.760009766
