# .PCD v.7 - Point Cloud Data file format
VERSION .7
FIELDS x y z
SIZE 4 4 4
TYPE F F F
COUNT 1 1 1
WIDTH 202
HEIGHT 1
VIEWPOINT 0 0 0 1 0 0 0
POINTS 202
DATA ascii
0.2173181 -0.7879609 -0.9405594
0.510772 -0.6405487 -0.9475524
-0.2586874 -0.9753546 -0.9335665
-0.04500339 -0.9916252 -0.9230769
-0.000639798 -0.7228552 -0.9265735
-0.5909601 -0.962339 -0.9125874
0.0219664 -0.9609393 -0.9160839
-0.4003003 -0.9297838 -0.9125874
-0.0526767 -0.9125785 -0.9160839
-0.05779509 -0.8600326 -0.9195804
0.007037778 -0.8023716 -0.9125874
-0.1942896 -0.9121135 -0.9090909
0.02836438 -0.8260869 -0.9055944
0.4988249 -0.5066264 -0.9020979
-0.1256094 -0.8814183 -0.8986014
-0.05523589 -0.8865427 -0.8986014
-0.1849016 -0.8009765 -0.8951049
0.07784209 -0.8023716 -0.8916084
-0.1874608 -0.7740061 -0.8951049
0.004478586 -0.7763357 -0.8986014
0.2740468 -0.6303185 -0.8951049
-0.7099625 -0.9897698 -0.8846154
-0.4523372 -0.885143 -0.8811189
-0.196418 -0.885608 -0.8881119
-0.1281729 -0.8553824 -0.8881119
0.00959697 -0.829807 -0.8881119
-0.6664562 -0.8288724 -0.8706294
-0.1307278 -0.829342 -0.8776224
-0.2761795 -0.7916763 -0.8741259
0.1601628 -0.7242455 -0.8776224
-0.7039911 -0.8902581 -0.8601398
-0.7206258 -0.884213 -0.8671328
-0.8383486 -0.8670077 -0.8601398
-0.4578821 -0.8316671 -0.8601398
-0.4156554 -0.7730761 -0.8671328
-0.5295395 -0.7586654 -0.8671328
-0.3299225 -0.7512206 -0.8601398
0.1575993 -0.6977447 -0.8636364
-0.5269803 -0.7860963 -0.8531469
-0.892949 -0.8749174 -0.8426573
-0.8409078 -0.8409672 -0.8426573
-0.9402898 -0.8098117 -0.8426573
-0.4659862 -0.7516857 -0.8461539
-0.4237638 -0.6935596 -0.8496503
-0.6856502 -0.6424134 -0.8426573
-0.7155074 -0.7828412 -0.8391609
-0.8345056 -0.7614508 -0.8321678
-0.5969315 -0.7330853 -0.8356643
-0.2642323 -0.713555 -0.8356643
-0.2168915 -0.6758893 -0.8321678
-0.599495 -0.7061148 -0.8111888
-0.6203908 -0.6740293 -0.8146853
-0.2220099 -0.6233434 -0.8146853
-0.9377306 -0.4540804 -0.8181818
-0.9095795 -0.717275 -0.8076923
-0.9513839 -0.7028598 -0.8006993
-0.8967835 -0.6986747 -0.8041958
-0.4911516 -0.6698442 -0.8076923
-0.8050792 -0.6438038 -0.8041958
-0.7905771 -0.6317136 -0.8041958
-0.6720012 -0.6131132 -0.8041958
-0.8711916 -0.5517322 -0.8076923
-0.857116 -0.6842595 -0.7937063
-0.8025157 -0.6703092 -0.7937063
-0.7875913 -0.658219 -0.7972028
-0.7479239 -0.6214834 -0.7937063
-0.5457477 -0.600093 -0.7972028
-0.296653 -0.5814927 -0.7972028
-0.6135663 -0.5721925 -0.7972028
-0.5018149 -0.5647524 -0.7972028
-0.9347449 -0.4805859 -0.7972028
-0.962896 -0.5959126 -0.7832168
-0.6958827 -0.5368519 -0.7867133
-0.796122 -0.5782376 -0.7762238
-0.7991077 -0.5512671 -0.7727273
-0.9291999 -0.5335968 -0.7797203
-0.5043741 -0.5387119 -0.7797203
-0.7585872 -0.5168566 -0.7762238
-0.8737508 -0.5261614 -0.7622378
-0.9168305 -0.5112764 -0.7657343
-0.9138448 -0.5373169 -0.7587413
-0.8157424 -0.5391769 -0.7552447
-0.8016669 -0.5242967 -0.7517483
-0.8626609 -0.4945362 -0.7587413
-0.5568418 -0.4936062 -0.7587413
-0.9398633 -0.4299 -0.7517483
-0.7611464 -0.4912857 -0.7482517
-0.8792957 -0.4740804 -0.7342657
-0.8652201 -0.468491 -0.7307692
-0.9919001 -0.3271332 -0.7307692
-0.9368775 -0.3224832 -0.7342657
-0.8157424 -0.3899093 -0.7272727
-0.7573076 -0.3824692 -0.7272727
-0.9948859 -0.3006278 -0.7202797
-0.9338918 -0.3499186 -0.7167832
-0.6408643 -0.3048128 -0.7062937
-0.9509531 -0.3248082 -0.6958042
-0.8984854 -0.2903976 -0.6958042
-0.997445 -0.2736573 -0.6993007
-0.956498 -0.2722623 -0.6923077
-0.8882529 -0.2532016 -0.6923077
-0.8937978 -0.198326 -0.6958042
-0.9616164 -0.2197163 -0.6783217
-0.9065937 -0.2118112 -0.6783217
0.3026245 -0.71402 -0.6678322
-0.9449816 -0.2425018 -0.6678322
-0.9594837 -0.1085794 -0.6643357
-0.8647936 -0.06765404 -0.6643357
-0.9509531 -0.1890305 -0.6503497
-0.956498 -0.1360149 -0.6538461
-0.8592487 -0.1202046 -0.6573427
-0.8643671 0.0685887 -0.6503497
-0.896357 -0.1732155 -0.6468531
-0.9313326 0.02348291 -0.6433566
-0.8993427 -0.1462451 -0.6398602
-0.910859 -0.03790281 -0.6328672
0.2979326 -0.6624041 -0.6293706
-0.9782554 -0.06440362 -0.6258741
0.2173181 -0.767961 -0.6188811
-0.9650286 -0.05557312 -0.6118881
-0.922802 -0.05557312 -0.6188811
-0.8754569 0.03650314 -0.6118881
-0.916404 0.01557777 -0.6083916
-0.936451 0.07509881 -0.6013986
-0.9334653 0.048598 -0.5909091
-0.69674 0.2341316 -0.5979021
-0.8200077 0.08392932 -0.5804196
-0.9390102 0.1006743 -0.5804196
0.2382181 -0.7772611 -0.5734265
-0.9279203 0.1229947 -0.5734265
-0.9031815 -0.6233434 -0.5629371
-0.9970185 0.1188049 -0.5699301
-0.9334653 0.1769309 -0.5629371
-1 0.144385 -0.5594406
-0.8750304 0.1736805 -0.5524476
-0.8306711 0.3169031 -0.5384616
-0.9449816 0.2843525 -0.527972
-0.9953124 -0.429435 -0.5174825
-0.9650286 0.4740758 -0.5
-0.5905336 0.4768659 -0.4895105
-0.9795308 0.4903557 -0.486014
-0.6574991 0.4926761 -0.4825175
-0.9680101 0.5001162 -0.486014
-0.6084479 0.5043013 -0.4895105
-0.3171308 0.542432 -0.4825175
-0.7146544 -0.1890305 -0.4755245
-0.849865 0.5043013 -0.472028
-0.5602498 0.6884399 -0.472028
-0.9705735 0.5270867 -0.4615385
-0.6186846 0.6079981 -0.458042
-0.9940371 0.7447105 -0.4510489
-0.9061672 0.9149082 -0.4405594
-0.8869733 0.7335503 -0.4300699
-0.999582 0.7986561 -0.4370629
-0.9560715 0.8139967 -0.4300699
-0.9590572 0.8405022 -0.4300699
-0.9957389 0.6447338 -0.4230769
-0.9982981 0.6703092 -0.4125874
-0.550013 0.7433155 -0.4160839
-0.9876348 0.6884399 -0.4090909
-0.8895325 0.7586608 -0.4090909
-0.9607633 0.9851151 -0.4020979
-0.9961655 0.770286 -0.3916084
-0.5073598 0.8465473 -0.3986014
-0.9522327 0.9032829 -0.3986014
-0.8810018 0.8019065 -0.3846154
-0.7730892 0.8358521 -0.3811189
-0.7602933 0.8535224 -0.3811189
-0.9611899 0.8651477 -0.3811189
-0.5124782 0.8976936 -0.3846154
-0.5777376 0.8679377 -0.3776224
-0.9637491 0.8907231 -0.3741259
-0.5150374 0.9232737 -0.3706294
-0.9082999 0.9390839 -0.3706294
-0.8340876 0.9479191 -0.3706294
-0.5175966 0.9493141 -0.3706294
-0.9722797 0.9683794 -0.3776224
-0.837069 0.9753546 -0.3706294
-0.8972101 0.8353871 -0.3671329
-0.8404813 0.8790979 -0.3636364
-0.8430405 0.9056033 -0.3671329
-0.969294 0.942339 -0.3601398
-0.8485854 0.9576843 -0.3636364
-0.786316 0.9655894 -0.3601398
-0.8511446 0.9837247 -0.3671329
-0.9547919 0.9293188 -0.3531469
-0.9134183 0.9902395 -0.3496504
-0.7884444 0.9906952 -0.3426574
-0.8980674 0.9632643 -0.3321678
-0.8507138 0.391774 -0.3076923
-0.6681623 0.4480353 -0.3041958
-0.8477324 0.3647989 -0.2902098
-0.796122 0.4582655 -0.2867133
0.2147589 -0.7223901 -0.2762238
-0.7253177 0.5242967 -0.2727273
-0.67584 0.5242967 -0.2657343
-0.6698685 0.6219484 -0.2587413
-0.6724277 0.6479842 -0.2482518
-0.6754134 0.6754243 -0.2447552
0.2394977 -0.7614508 -0.05244755
0.2198772 -0.7558707 0.06993007
0.2399243 -0.7437805 0.3671329
