# .PCD v.7 - Point Cloud Data file format
VERSION .7
FIELDS x y z
SIZE 4 4 4
TYPE F F F
COUNT 1 1 1
WIDTH 155
HEIGHT 1
VIEWPOINT 0 0 0 1 0 0 0
POINTS 155
DATA ascii
0.5918131 0.08625901 -0.7902098
0.7841791 0.1583353 -0.7937063
0.7799138 0.2118066 -0.7902098
0.5892497 0.1127691 -0.7762238
0.7777811 0.2378517 -0.7797203
0.5943766 0.05882353 -0.7657343
0.6421482 0.1276447 -0.7622378
0.5845621 0.1667054 -0.7622378
0.5743253 0.06951872 -0.7587413
0.8430405 0.3466636 -0.7517483
0.6353194 0.2057707 -0.7447553
0.7735158 0.2899326 -0.7412587
0.5141886 0.1522902 -0.7062937
0.5632355 -0.3903743 -0.6048951
0.5346578 -0.2838875 -0.5734265
0.1260402 -0.3527087 -0.5664335
0.1076993 -0.3550337 -0.5594406
0.197271 -0.3489886 -0.5594406
0.1921527 -0.2945827 -0.5524476
0.5325252 -0.257847 -0.5594406
0.05438283 -0.3415485 -0.534965
-0.01343149 -0.3764241 -0.5244755
0.05182364 -0.314578 -0.520979
0.409684 -0.3048128 -0.5244755
0.3068855 -0.1871658 -0.5244755
0.4463657 -0.1057893 -0.5244755
0.6783991 -0.0685887 -0.5244755
-0.1030075 -0.3671239 -0.5034965
0.3192592 -0.1025296 -0.5034965
-0.03518889 -0.3359684 -0.4965035
0.1085524 -0.1653104 -0.486014
0.08850539 -0.1457801 -0.4825175
0.1644281 -0.1908858 -0.472028
0.2885489 0.02162288 -0.4755245
0.09361951 -0.198791 -0.465035
0.1550444 -0.085794 -0.4685315
0.1627177 0.02487794 -0.4440559
0.2970795 0.140665 -0.4440559
0.1622997 -0.1657801 -0.4300699
0.1601628 -0.1392699 -0.4370629
0.1575993 -0.1127645 -0.4370629
0.1431015 0.04440828 -0.4300699
0.1068463 -0.1397349 -0.4230769
0.4830475 -0.3006278 -0.4125874
0.6186846 -0.1927459 -0.4195804
0.09149111 -0.1736805 -0.4125874
0.1601628 0.0513834 -0.4125874
0.1981241 0.2285515 -0.4020979
0.216465 0.2201813 -0.3916084
0.142675 0.2392467 -0.3916084
0.2079343 0.1229947 -0.3846154
0.2898285 0.2201813 -0.3881119
0.2847101 0.2745873 -0.3881119
0.4122432 0.2848175 -0.3846154
0.2143323 0.2476168 -0.3776224
0.6046091 -0.255987 -0.3671329
0.2949469 0.1657754 -0.3671329
0.4101105 0.3103976 -0.3601398
0.4143758 0.4568705 -0.3601398
-0.0646196 0.1606603 -0.3426574
0.2928142 0.1927459 -0.3496504
0.04798485 0.2973727 -0.3461539
0.1354239 0.3192281 -0.3496504
0.6003438 -0.2048361 -0.3286713
0.1328647 0.3452732 -0.3286713
0.6029029 -0.2308765 -0.3076923
-0.122628 0.03836317 -0.2902098
0.466835 -0.3224832 -0.2867133
0.1307278 0.370844 -0.2867133
0.4864597 -0.3313183 -0.2727273
-0.06589919 0.001627528 -0.2727273
0.1588832 0.07463381 -0.2552448
-0.08082781 0.1574053 -0.2552448
0.6127132 -0.1155545 -0.2412587
-0.3576471 0.2457568 -0.2202797
-0.06803185 0.02627296 -0.2132867
0.6152724 -0.14392 -0.1993007
0.08978499 -0.1290398 -0.04895105
0.1047136 -0.09509417 -0.02447552
0.1021544 -0.0685887 -0.003496503
0.1072728 -0.1225296 0.006993007
0.1392627 0.1118345 0.04545455
0.08807459 -0.1053243 0.07342657
0.156324 0.1202046 0.07692308
0.1443811 0.05882353 0.08041958
0.083387 -0.05370844 0.09090909
0.1593097 0.09369914 0.09440559
0.08594619 -0.0797489 0.1013986
-0.1222014 0.05603348 0.1153846
0.1008748 -0.04487329 0.1293706
0.08125435 -0.028598 0.1363636
0.142675 0.08347361 0.1363636
-0.2706346 0.1188049 0.1923077
-0.1401158 0.06347361 0.2062937
0.08850539 0.08858405 0.2237762
-0.06674799 0.04161823 0.2412587
-0.2139058 0.09369914 0.2692308
-0.07442983 0.1192746 0.2657343
-0.149926 0.1671704 0.2657343
-0.3657512 0.1820507 0.2832168
0.07997475 -0.005812602 0.2902098
0.07741129 0.0202232 0.2972028
0.07528289 0.04626831 0.2972028
-0.06888492 0.06626831 0.2902098
-0.2723407 0.143455 0.2937063
-0.2049529 0.1825203 0.2972028
-0.1938588 0.0741688 0.3076923
0.07272371 0.07230411 0.3006993
-0.2902593 0.140665 0.3041958
-0.4416739 0.2299465 0.3076923
-0.0513971 0.06347361 0.3146853
-0.3478369 0.1787956 0.3146853
-0.223716 0.1969309 0.3146853
0.09703603 0.004882585 0.3286713
0.02452559 0.0169728 0.3251748
-0.1418219 0.08672402 0.3251748
-0.000213266 0.09974425 0.3391608
-0.196418 0.1006743 0.3356643
0.02239293 0.04394327 0.3426574
0.01684801 0.09834922 0.3426574
-0.1307278 0.1578703 0.3426574
-0.4220534 0.2206464 0.3461539
0.09191765 0.05835852 0.3566433
-0.122628 0.07695885 0.3601398
0.01983374 0.07091374 0.3671329
-0.2774591 0.1960009 0.3671329
0.1000217 -0.02348291 0.3741259
0.004905118 0.0458033 0.3776224
-0.2156162 0.1174146 0.3706294
0.09490337 0.02999303 0.3881119
-0.04841138 0.03510812 0.3846154
-0.05608469 0.1160195 0.3811189
0.00746431 0.01836782 0.3986014
-0.2945203 0.1904208 0.4055944
0.002768193 0.07137875 0.4195804
-0.1277463 0.1290398 0.4265734
-0.07059105 0.08904906 0.4300699
-0.1460872 0.1364752 0.4475524
-0.05310323 0.08718903 0.458042
-0.1981241 0.12485 0.4685315
-0.2006833 0.1513602 0.479021
0.01556842 0.1220646 0.486014
-0.2911081 0.1625203 0.4825175
-0.3491207 0.201116 0.506993
-0.1243341 0.1002093 0.527972
-0.2731937 0.1653057 0.5314685
-0.3666042 0.202046 0.5384616
-0.216465 0.1392699 0.548951
-0.2190242 0.1657754 0.541958
-0.142675 0.1076494 0.5629371
0.07272371 0.0918391 0.5874126
0.03049704 -0.01929784 0.7342657
0.01301349 -0.01604278 0.7552447
0.07272371 0.1099744 0.9195804
0.09191765 0.0974192 1
